ply
format ascii 1.0
element vertex 2045
property float32 x
property float32 y
property float32 z
end_header
-13.4627 -34.0721 2.7884
-4.6864 -34.5026 2.6398
3.7059 -34.7304 2.6382
12.6159 -34.8205 2.7884
11.3783 -17.0345 1.5384
13.1857 -12.0544 1.3393
13.2788 -7.2425 1.1329
16.8869 -4.4567 1.3083
10.9314 -0.1830 0.8199
34.3405 7.8436 2.6468
31.3670 15.7699 2.6452
25.1646 21.5052 2.5025
15.7332 21.9292 2.0481
12.3969 30.9449 2.5397
5.0771 36.1012 2.7884
-3.4828 34.1611 2.6360
-12.1748 34.0998 2.7884
-9.9737 15.0826 1.3960
-20.8557 19.2432 2.1947
-25.1093 13.8437 2.2194
-23.8349 6.4054 1.9102
-23.9490 0.5078 1.8521
-24.9976 -5.5934 1.9768
-27.9239 -13.8857 2.4002
-24.3582 -20.6329 2.4488
-20.2669 -27.9906 2.6411
-13.7694 -33.9432 2.7884
-4.9977 -34.4498 2.6395
3.3909 -34.7630 2.6386
12.1478 -34.5021 2.7543
11.4218 -17.4399 1.5657
13.1815 -12.2718 1.3501
13.2758 -7.3978 1.1383
16.4953 -4.5137 1.2811
10.9324 -0.2822 0.8201
34.4140 7.5327 2.6468
31.5131 15.4870 2.6453
25.1531 21.1038 2.4819
16.0321 21.9234 2.0607
12.3724 30.0935 2.4786
5.4038 36.0590 2.7884
-3.1745 34.1956 2.6360
-11.8675 34.2121 2.7884
-9.8305 15.1621 1.3950
-20.8490 19.5887 2.2124
-24.5626 13.8332 2.1820
-23.8304 6.6356 1.9146
-23.9448 0.7242 1.8523
-24.9930 -5.3558 1.9727
-28.5437 -13.8737 2.4429
-24.3508 -20.2516 2.4299
-20.5108 -27.7957 2.6404
-14.0734 -33.8124 2.7884
-5.3073 -34.3941 2.6392
3.0768 -34.7923 2.6390
11.9810 -35.0353 2.7884
11.5715 -18.0215 1.6086
13.1772 -12.4919 1.3613
13.2728 -7.5540 1.1439
11.0325 -3.1263 0.8589
10.9335 -0.3811 0.8203
34.4842 7.2223 2.6468
18.6252 8.9454 1.5564
25.9059 21.3396 2.5367
16.3337 21.9176 2.0737
12.3491 29.2789 2.4202
5.7313 36.0137 2.7884
-2.3504 28.0832 2.1628
-11.5581 34.3221 2.7884
-9.6863 15.2406 1.3940
-20.8422 19.9412 2.2307
-24.0321 13.8229 2.1459
-23.8259 6.8677 1.9192
-23.9406 0.9414 1.8527
-24.9884 -5.1182 1.9687
-29.1883 -13.8612 2.4875
-24.3435 -19.8749 2.4114
-20.7545 -27.5979 2.6398
-14.3772 -33.6784 2.7884
-5.6174 -34.3351 2.6388
2.7612 -34.8187 2.6393
11.6615 -35.1385 2.7884
11.6819 -18.5614 1.6474
13.1728 -12.7165 1.3728
13.2697 -7.7124 1.1496
10.7645 -3.1560 0.8402
10.9345 -0.4800 0.8206
34.5516 6.9113 2.6469
18.6250 8.7391 1.5496
26.1520 21.1487 2.5416
16.6393 21.9117 2.0870
12.3268 28.5044 2.3650
6.0573 35.9657 2.7884
-2.5557 34.2564 2.6360
-11.2488 34.4289 2.7884
-9.5421 15.3176 1.3930
-2.8357 2.7626 0.3061
-23.5206 13.8130 2.1113
-23.8214 7.1001 1.9240
-23.9364 1.1579 1.8532
-24.9839 -4.8826 1.9650
-29.8542 -13.8483 2.5337
-24.3363 -19.5054 2.3935
-20.9943 -27.3990 2.6392
-14.6786 -33.5422 2.7884
-5.9256 -34.2732 2.6385
2.4465 -34.8416 2.6396
11.3424 -35.2385 2.7884
11.7496 -19.0485 1.6813
13.1684 -12.9441 1.3845
13.2666 -7.8718 1.1555
10.4904 -3.1788 0.8211
10.9355 -0.5794 0.8210
34.6164 6.5984 2.6469
31.9349 14.6325 2.6455
26.6308 21.1395 2.5691
16.9501 21.9057 2.1006
12.3055 27.7614 2.3121
6.3841 35.9145 2.7884
-2.2452 34.2827 2.6360
-10.9373 34.5333 2.7884
-9.3968 15.3938 1.3920
-2.7991 2.7769 0.3049
-23.0054 13.7925 2.0761
-23.8169 7.3346 1.9289
-23.9322 1.3754 1.8538
-24.9793 -4.6469 1.9614
-30.4940 -13.8105 2.5776
-23.6505 -18.6060 2.3096
-21.2341 -27.1973 2.6386
-14.9800 -33.4026 2.7884
-6.2343 -34.2080 2.6381
2.1304 -34.8616 2.6399
11.0211 -35.3359 2.7884
11.9330 -19.7428 1.7331
13.1640 -13.1756 1.3966
13.2635 -8.0328 1.1615
10.1696 -3.1822 0.7981
10.9366 -0.6786 0.8215
34.6781 6.2861 2.6470
32.0702 14.3454 2.6456
27.1184 21.1300 2.5973
17.2639 21.8996 2.1146
12.2852 27.0532 2.2620
6.7093 35.8606 2.7884
-1.9357 34.3061 2.6360
-10.6261 34.6346 2.7884
-9.2516 15.4685 1.3910
-2.7829 2.8112 0.3059
-22.8146 13.9598 2.0701
-23.8123 7.5694 1.9341
-23.9280 1.5921 1.8546
-24.9748 -4.4130 1.9580
-30.6075 -13.5300 2.5770
-23.6438 -18.2573 2.2931
-21.4706 -26.9945 2.6380
-15.2788 -33.2610 2.7884
-6.5411 -34.1401 2.6377
1.8154 -34.8782 2.6402
9.7959 -32.4354 2.5528
12.0180 -20.2969 1.7723
11.2687 -11.4850 1.2066
13.2603 -8.1961 1.1677
9.7242 -3.1399 0.7654
10.9376 -0.7783 0.8220
33.9100 5.8298 2.5840
32.2032 14.0559 2.6456
27.1729 20.7793 2.5840
17.5832 21.8934 2.1290
12.2657 26.3725 2.2139
7.0352 35.8035 2.7884
-1.6248 34.3268 2.6360
-10.3128 34.7334 2.7884
-9.1201 15.5673 1.3923
-22.9590 23.6164 2.5465
-25.1222 15.6867 2.2923
-23.8078 7.8063 1.9394
-23.9238 1.8099 1.8556
-23.3661 -3.9106 1.8292
-30.7190 -13.2476 2.5765
-23.6371 -17.9124 2.2769
-21.7073 -26.7889 2.6374
-15.5761 -33.1170 2.7884
-6.8471 -34.0691 2.6372
1.5002 -34.8916 2.6404
9.4438 -32.3216 2.5373
12.2270 -21.0819 1.8313
11.1638 -11.5857 1.2066
13.2572 -8.3606 1.1741
9.6423 -3.2099 0.7612
10.9386 -0.8777 0.8226
33.9641 5.5237 2.5840
31.5792 13.4452 2.5840
27.3631 20.5357 2.5840
17.9058 21.8872 2.1437
12.2470 25.7221 2.1682
7.3594 35.7436 2.7884
-1.3148 34.3447 2.6360
-9.9997 34.8291 2.7884
-16.9719 29.5792 2.6314
-22.7697 23.8491 2.5492
-24.9800 15.9133 2.2923
-23.1391 7.8193 1.8906
-23.9196 2.0271 1.8567
-23.3619 -3.6933 1.8263
-30.8278 -12.9655 2.5759
-23.6606 -17.5960 2.2640
-21.9402 -26.5821 2.6368
-15.8736 -32.9691 2.7884
-7.1535 -33.9949 2.6368
1.1837 -34.9020 2.6406
9.1391 -32.3660 2.5344
12.3482 -21.7428 1.8791
11.0577 -11.6858 1.2066
13.2539 -8.5275 1.1806
13.5276 -4.6400 1.0711
10.9173 -0.9757 0.8216
34.0156 5.2160 2.5840
31.7032 13.1598 2.5840
27.5517 20.2894 2.5840
20.7285 24.8739 2.4542
12.2291 25.0955 2.1243
7.6843 35.6807 2.7884
-1.0034 34.3598 2.6360
-9.6846 34.9224 2.7884
-16.7267 29.7740 2.6349
-22.5778 24.0816 2.5519
-24.8353 16.1396 2.2923
-23.1346 8.0522 1.8962
-23.9154 2.2445 1.8580
-23.3577 -3.4766 1.8236
-30.9341 -12.6826 2.5754
-24.1008 -17.5875 2.2911
-22.1709 -26.3734 2.6363
-16.1684 -32.8195 2.7884
-7.4579 -33.9179 2.6363
0.8683 -34.9089 2.6408
8.9011 -32.6480 2.5504
12.6360 -22.7251 1.9542
10.9602 -11.7944 1.2076
13.2507 -8.6956 1.1873
13.5249 -4.7760 1.0743
10.9407 -1.0775 0.8240
34.0640 4.9089 2.5840
31.8242 12.8743 2.5840
27.7375 20.0423 2.5840
21.1060 24.8666 2.4719
12.2118 24.4957 2.0825
8.0075 35.6150 2.7884
-0.6931 34.3721 2.6360
-9.3698 35.0125 2.7884
-16.4658 29.9398 2.6360
-22.3845 24.3119 2.5546
-24.6891 16.3637 2.2923
-23.1301 8.2857 1.9019
-23.9112 2.4630 1.8594
-23.3535 -3.2598 1.8210
-31.0384 -12.3978 2.5749
-24.5533 -17.5787 2.3192
-22.4016 -26.1621 2.6357
-16.4629 -32.6667 2.7884
-7.7631 -33.8398 2.6360
0.5517 -34.9128 2.6410
8.6592 -32.9346 2.5669
12.9009 -23.7052 2.0285
10.9561 -12.0064 1.2191
13.2474 -8.8663 1.1942
16.0757 -5.8412 1.2811
10.9418 -1.1779 0.8248
34.1098 4.6002 2.5840
27.7594 10.9381 2.2456
27.9216 19.7925 2.5840
21.4905 24.8592 2.4900
12.1952 23.9168 2.0423
8.3313 35.5461 2.7884
-0.3885 35.0173 2.6847
-9.0530 35.1001 2.7884
-16.1961 30.0902 2.6360
-22.1892 24.5410 2.5574
-24.5409 16.5866 2.2923
-23.1255 8.5206 1.9078
-23.9070 2.6811 1.8609
-23.3494 -3.0444 1.8186
-31.1399 -12.1133 2.5744
-25.0152 -17.5698 2.3480
-22.6295 -25.9496 2.6352
-16.7547 -32.5118 2.7884
-8.0908 -33.8620 2.6437
0.2363 -34.9134 2.6411
8.4151 -33.2238 2.5837
13.3519 -25.0705 2.1351
10.9520 -12.2217 1.2310
13.2440 -9.0384 1.2013
16.0225 -5.9863 1.2811
10.9428 -1.2781 0.8257
34.1526 4.2923 2.5840
32.0588 12.2988 2.5840
28.1029 19.5420 2.5840
21.8793 24.8516 2.5086
12.1793 23.3617 2.0039
8.6534 35.4746 2.7884
-0.0749 36.3765 2.7884
-8.7366 35.1846 2.7884
-15.9241 30.2387 2.6360
-21.9911 24.7698 2.5602
-24.3902 16.8089 2.2923
-23.1209 8.7578 1.9139
-23.9027 2.9003 1.8627
-24.0152 -2.9100 1.8685
-31.2393 -11.8269 2.5739
-25.2257 -17.3782 2.3532
-22.8561 -25.7344 2.6346
-2.9508 -5.6005 0.4827
-8.4509 -34.0022 2.6609
-0.0802 -34.9108 2.6412
8.7554 -35.9329 2.7884
16.2012 -31.0969 2.6360
10.9477 -12.4421 1.2432
13.2407 -9.2131 1.2085
15.9676 -6.1313 1.2811
10.9439 -1.3789 0.8267
34.1927 3.9827 2.5840
23.8834 8.9149 1.9182
13.3675 9.1167 1.2213
22.2757 24.8440 2.5278
12.1640 22.8269 1.9671
8.9748 35.4002 2.7884
0.1278 18.3304 1.4049
-2.6745 11.2026 0.8858
-15.6517 30.3841 2.6360
-21.7917 24.9965 2.5630
-24.2380 17.0290 2.2923
-29.5570 11.5021 2.4551
-23.8985 3.1191 1.8645
-24.0109 -2.6896 1.8663
-31.3046 -11.5294 2.5709
-25.2192 -17.0398 2.3384
-23.0798 -25.5182 2.6341
-2.9956 -5.5631 0.4818
-8.8190 -34.1618 2.6799
-0.3955 -34.9049 2.6413
8.4295 -36.0062 2.7884
16.8384 -33.0451 2.7884
10.9428 -12.6655 1.2557
13.2372 -9.3893 1.2159
15.9117 -6.2753 1.2811
10.9449 -1.4796 0.8277
34.2299 3.6740 2.5840
23.8826 8.6696 1.9116
13.3656 8.9396 1.2135
23.5200 25.7597 2.6421
12.1491 22.3092 1.9316
9.2968 35.3226 2.7884
0.2941 18.3313 1.4050
-8.1002 35.3454 2.7884
-15.3770 30.5276 2.6360
-21.5895 25.2227 2.5659
-24.0833 17.2487 2.2923
-29.4660 11.7755 2.4564
-23.8942 3.3392 1.8666
-24.0066 -2.4689 1.8643
-31.3128 -11.2110 2.5634
-25.2127 -16.7044 2.3240
-23.3023 -25.2992 2.6336
-17.6239 -32.0304 2.7884
-9.1969 -34.3362 2.7005
-0.7119 -34.8955 2.6414
8.0945 -36.0448 2.7859
16.5365 -33.1931 2.7884
10.9354 -12.8913 1.2683
13.2338 -9.5684 1.2236
15.8542 -6.4194 1.2811
10.9460 -1.5805 0.8288
35.1038 3.4474 2.6473
32.3909 11.4281 2.5840
29.3025 19.2183 2.6443
23.7559 25.5507 2.6422
12.1348 21.8115 1.8976
9.6169 35.2424 2.7884
0.4597 18.3304 1.4050
-7.7815 35.4213 2.7884
-15.1020 30.6682 2.6360
-21.3861 25.4469 2.5687
-23.9272 17.4661 2.2923
-29.3732 12.0473 2.4576
-23.8900 3.5590 1.8687
-24.0024 -2.2496 1.8625
-31.3183 -10.8948 2.5559
-25.2063 -16.3745 2.3099
-23.5219 -25.0792 2.6331
-17.9099 -31.8651 2.7884
-9.5828 -34.5261 2.7225
-1.0269 -34.8828 2.6414
7.6902 -35.7520 2.7582
16.2344 -33.3379 2.7884
10.9240 -13.1162 1.2807
13.2303 -9.7490 1.2314
15.7956 -6.5623 1.2811
10.9470 -1.6821 0.8300
35.1367 3.1292 2.6473
32.8893 11.2697 2.6152
29.4801 18.9547 2.6444
23.9908 25.3387 2.6422
12.1210 21.3291 1.8649
9.9375 35.1589 2.7884
0.6260 18.3277 1.4049
-7.4608 35.4947 2.7884
-14.8247 30.8068 2.6360
-21.1799 25.6706 2.5716
-23.7687 17.6829 2.2923
-29.2780 12.3195 2.4589
-23.8857 3.7800 1.8711
-23.9981 -2.0298 1.8607
-31.3211 -10.5784 2.5484
-25.1999 -16.0473 2.2962
-23.7403 -24.8564 2.6325
-18.1953 -31.6967 2.7884
-9.9810 -34.7352 2.7464
-1.3432 -34.8672 2.6414
7.2966 -35.4842 2.7326
15.9311 -33.4799 2.7884
10.9121 -13.3452 1.2935
13.2267 -9.9320 1.2394
15.4686 -6.5909 1.2593
10.9481 -1.7836 0.8312
35.1664 2.8120 2.6474
33.3840 11.1033 2.6462
29.6545 18.6904 2.6445
24.2229 25.1253 2.6423
13.7213 23.6454 2.0778
10.0686 34.4314 2.7374
0.7916 18.3233 1.4049
-7.1408 35.5649 2.7884
-14.5472 30.9425 2.6360
-20.9725 25.8922 2.5746
-23.6088 17.8976 2.2923
-29.1810 12.5902 2.4602
-23.8814 4.0008 1.8736
-23.9939 -1.8113 1.8592
-31.3895 -10.2865 2.5466
-25.1937 -15.7253 2.2829
-23.9411 -24.6176 2.6304
-18.4782 -31.5264 2.7884
-10.3899 -34.9654 2.7723
-1.6580 -34.8487 2.6414
6.9151 -35.2396 2.7092
15.6253 -33.6196 2.7884
10.9578 -13.6519 1.3136
13.2231 -10.1181 1.2476
15.0721 -6.5841 1.2318
10.9491 -1.8859 0.8325
35.1934 2.4932 2.6474
33.4873 10.8015 2.6463
29.8273 18.4236 2.6446
24.4540 24.9090 2.6424
13.7116 23.1426 2.0442
10.0545 33.2605 2.6511
0.9578 18.3170 1.4048
-6.8188 35.6326 2.7884
-14.4323 31.4354 2.6665
-20.7622 26.1132 2.5776
-21.1741 16.3563 2.0701
-29.0815 12.8613 2.4616
-23.8771 4.2231 1.8762
-23.9897 -1.5923 1.8578
-23.4345 -7.4450 1.8958
-23.5694 -14.4161 2.1240
-24.1225 -24.3599 2.6264
-18.7595 -31.3535 2.7884
-10.7659 -35.0673 2.7884
-1.9721 -34.8271 2.6413
6.5430 -35.0140 2.6875
15.3194 -33.7560 2.7884
10.9407 -13.8856 1.3267
13.2195 -10.3059 1.2561
14.5801 -6.5266 1.1964
10.9502 -1.9881 0.8339
35.2173 2.1754 2.6474
33.5876 10.4998 2.6463
29.9971 18.1562 2.6446
24.6822 24.6914 2.6425
13.7022 22.6575 2.0119
10.2974 32.9850 2.6360
1.1234 18.3090 1.4047
-6.4974 35.6971 2.7884
-14.4053 32.1391 2.7148
-20.5507 26.3321 2.5805
-21.0263 16.5476 2.0701
-28.9804 13.1309 2.4629
-23.8728 4.4451 1.8790
-23.9855 -1.3745 1.8566
-23.4300 -7.2112 1.8903
-23.5637 -14.1217 2.1122
-24.3213 -24.1192 2.6245
-19.0402 -31.1775 2.7884
-11.0818 -34.9630 2.7884
-2.2874 -34.8019 2.6413
6.1777 -34.8040 2.6674
15.0112 -33.8900 2.7884
10.9172 -14.1173 1.3394
13.2158 -10.4971 1.2648
14.3230 -6.5681 1.1801
10.9289 -2.0867 0.8336
35.2384 1.8561 2.6475
33.6853 10.1961 2.6464
30.1650 17.8861 2.6447
24.9094 24.4708 2.6426
13.7471 22.2732 1.9885
10.5978 32.8959 2.6361
1.2894 18.2992 1.4046
-6.1742 35.7588 2.7884
-14.3772 32.8717 2.7652
-11.0554 14.4336 1.4045
-20.8934 16.7520 2.0719
-28.8766 13.4008 2.4643
-23.8685 4.6678 1.8820
-23.9812 -1.1570 1.8555
-23.7075 -7.0628 1.9077
-23.7883 -13.9658 2.1212
-24.4191 -23.7826 2.6121
-19.3182 -30.9997 2.7884
-11.3954 -34.8563 2.7884
-2.6012 -34.7734 2.6412
5.8220 -34.6141 2.6490
14.7028 -34.0209 2.7884
10.9626 -14.4438 1.3610
13.2121 -10.6901 1.2736
13.9737 -6.5613 1.1562
24.8540 -4.9786 1.8991
35.2561 1.5379 2.6475
29.1396 8.5336 2.2829
30.3298 17.6155 2.6448
25.1337 24.2489 2.6427
14.0232 22.2678 1.9989
10.8964 32.8043 2.6361
1.4547 18.2876 1.4045
-5.8516 35.8178 2.7884
-14.1990 33.2802 2.7884
-10.9164 14.5220 1.4034
-20.8874 17.0595 2.0864
-28.7713 13.6692 2.4658
-23.8642 4.8920 1.8851
-23.9770 -0.9390 1.8545
-24.4669 -7.0481 1.9637
-24.2738 -13.9564 2.1533
-24.4107 -23.3468 2.5888
-18.5256 -29.1358 2.6362
-11.7093 -34.7463 2.7884
-2.9159 -34.7418 2.6410
5.4802 -34.4913 2.6360
14.3924 -34.1490 2.7884
10.9888 -14.7542 1.3809
13.2083 -10.8867 1.2828
13.6371 -6.5548 1.1332
24.8495 -5.2125 1.9023
35.2710 1.2183 2.6475
33.8723 9.5870 2.6465
30.4928 17.3424 2.6449
25.2335 23.9072 2.6299
14.3033 22.2624 2.0097
11.1952 32.7096 2.6362
1.6205 18.2742 1.4043
-5.5273 35.8738 2.7884
-13.8992 33.4105 2.7884
-10.7769 14.6093 1.4022
-20.8814 17.3714 2.1013
-28.6116 13.9115 2.4627
-23.8598 5.1162 1.8884
-23.9728 -0.7220 1.8537
-25.0242 -6.9644 2.0035
-24.7722 -13.9467 2.1865
-24.4024 -22.9204 2.5662
-18.7912 -28.9722 2.6370
-12.0209 -34.6340 2.7884
-3.2289 -34.7070 2.6409
5.1681 -34.5372 2.6362
14.0818 -34.2740 2.7884
10.9893 -15.0365 1.3981
13.2044 -11.0853 1.2922
13.3148 -6.5485 1.1113
24.8449 -5.4463 1.9055
35.2828 0.8997 2.6475
33.9613 9.2817 2.6465
30.6526 17.0687 2.6449
25.2209 23.4666 2.6060
14.5855 22.2569 2.0207
11.4945 32.6193 2.6368
1.7856 18.2591 1.4042
-5.2037 35.9269 2.7884
-13.5971 33.5387 2.7884
-10.6362 14.6957 1.4011
-20.8856 17.6979 2.1177
-27.9377 13.8985 2.4155
-23.8555 5.3420 1.8919
-23.9686 -0.5043 1.8531
-25.0194 -6.7193 1.9984
-25.2882 -13.9367 2.2211
-24.3943 -22.4999 2.5442
-19.0564 -28.8054 2.6378
-12.3326 -34.5184 2.7884
-3.5427 -34.6690 2.6407
4.8550 -34.5844 2.6367
12.4821 -31.1817 2.5278
11.0884 -15.4644 1.4286
13.2005 -11.2876 1.3018
13.2896 -6.6865 1.1142
24.8404 -5.6818 1.9090
10.0221 0.1646 0.7518
34.0479 8.9744 2.6466
30.8106 16.7925 2.6450
25.2084 23.0337 2.5828
14.8709 22.2514 2.0320
11.7941 32.5290 2.6376
1.9505 18.2422 1.4040
-4.8441 35.7161 2.7682
-13.2949 33.6637 2.7884
-10.4955 14.7806 1.4000
-20.8794 18.0192 2.1334
-27.2915 13.8860 2.3703
-23.8511 5.5677 1.8955
-23.9644 -0.2877 1.8526
-24.8367 -6.4298 2.5615
-23.0700 -12.4435 2.6115
-19.6235 -17.7740 2.6309
-15.7394 -23.3305 2.7884
-9.7376 -26.4970 2.7884
-3.1329 -28.1416 2.7884
3.6932 -28.1544 2.7884
10.3392 -26.5211 2.7884
11.1588 -15.8637 1.8963
11.0619 -9.6337 1.4323
11.0782 -5.7001 1.2158
17.4678 -4.1624 1.7526
10.0503 0.0739 0.9819
26.1939 6.6506 2.6443
23.2513 12.4001 2.5840
19.9987 17.9417 2.6416
14.5675 21.3729 2.5505
9.8505 26.4142 2.7884
1.9616 16.8890 1.6868
-2.4834 19.6533 1.9708
-5.6457 14.6854 1.5691
-9.1930 13.1992 1.6072
-19.5118 17.1511 2.5991
-22.6461 11.7827 2.5555
-23.8467 5.7955 2.4563
-23.9602 -0.0702 2.3961
-24.8245 -6.1875 2.5546
-23.1751 -12.2308 2.6110
-19.7777 -17.5905 2.6304
-15.9480 -23.1846 2.7884
-9.9758 -26.4048 2.7884
-3.3870 -28.1090 2.7884
3.4379 -28.1838 2.7884
10.0978 -26.6115 2.7884
11.1908 -16.2192 1.9267
11.0586 -9.8081 1.4434
11.0757 -5.8262 1.2213
16.7353 -4.1482 1.6828
10.9297 -0.0185 1.0677
26.2553 6.4139 2.6443
23.3647 12.1903 2.5840
20.1628 17.7623 2.6416
14.8487 21.3675 2.5655
9.8472 25.6927 2.7212
3.4956 27.8910 2.7884
-3.0838 26.3182 2.6360
-5.6341 15.0609 1.6036
-9.1854 13.4461 1.6270
-19.3712 17.3407 2.6010
-22.5503 11.9934 2.5568
-23.8423 6.0235 2.4614
-23.9560 0.1466 2.3959
-24.8158 -5.9473 2.5482
-23.2783 -12.0172 2.6105
-19.9303 -17.4057 2.6299
-16.1554 -23.0366 2.7884
-10.2131 -26.3104 2.7884
-3.6408 -28.0741 2.7884
3.1825 -28.2109 2.7884
9.8560 -26.6993 2.7884
11.3213 -16.7301 1.9753
11.0551 -9.9852 1.4547
11.0733 -5.9535 1.2269
16.0588 -4.1351 1.6185
10.9307 -0.1174 1.0678
25.7135 6.0355 2.5840
23.4761 11.9794 2.5840
20.3254 17.5814 2.6417
15.1333 21.3620 2.5809
9.8413 24.9980 2.6567
3.7482 27.8613 2.7884
-2.8459 26.3476 2.6360
-5.6221 15.4533 1.6397
-9.1776 13.6993 1.6474
-19.2289 17.5294 2.6030
-22.4528 12.2036 2.5582
-23.8378 6.2524 2.4668
-23.9518 0.3633 2.3958
-24.8048 -5.7078 2.5418
-23.3796 -11.8028 2.6100
-20.0812 -17.2197 2.6295
-16.1889 -22.6457 2.7590
-10.4496 -26.2139 2.7884
-3.8943 -28.0368 2.7884
2.9268 -28.2357 2.7884
9.6132 -26.7852 2.7884
11.3756 -17.1425 2.0119
11.0185 -10.1346 1.4619
11.0708 -6.0819 1.2327
15.4322 -4.1230 1.5590
10.9317 -0.2163 1.0680
25.7688 5.8030 2.5840
23.5857 11.7676 2.5840
20.4863 17.3990 2.6417
15.4215 21.3564 2.5967
10.0006 24.7423 2.6388
4.0007 27.8293 2.7884
-2.6076 26.3749 2.6360
-9.3232 26.3668 2.7884
-9.1696 13.9589 1.6685
-19.0851 17.7171 2.6051
-22.3536 12.4130 2.5595
-23.8334 6.4823 2.4723
-23.9476 0.5801 2.3959
-24.8056 -5.4721 2.5369
-23.4791 -11.5875 2.6095
-20.2304 -17.0324 2.6290
-16.1184 -22.1212 2.7131
-10.6852 -26.1152 2.7884
-4.1473 -27.9973 2.7884
2.6709 -28.2581 2.7884
9.3696 -26.8687 2.7884
11.4536 -17.6035 2.0538
11.0149 -10.3169 1.4739
11.0683 -6.2115 1.2386
15.2150 -4.2128 1.5408
10.9328 -0.3153 1.0683
25.8220 5.5700 2.5840
18.5930 9.0675 2.0278
20.6455 17.2151 2.6418
15.5396 21.1147 2.5840
10.2145 24.6289 2.6361
4.2528 27.7950 2.7884
-2.3690 26.4001 2.6360
-9.0850 26.4523 2.7884
-9.1614 14.2253 1.6902
-18.9395 17.9039 2.6071
-22.2527 12.6218 2.5609
-23.8289 6.7132 2.4781
-23.9434 0.7968 2.3962
-24.8044 -5.2369 2.5320
-23.5393 -11.3535 2.6049
-20.3780 -16.8439 2.6285
-16.0832 -21.6584 2.6744
-10.9198 -26.0144 2.7884
-4.4001 -27.9555 2.7884
2.4149 -28.2782 2.7884
9.1254 -26.9501 2.7884
11.6074 -18.1981 2.1110
11.0445 -10.5337 1.4906
11.0658 -6.3424 1.2447
10.9124 -3.1281 1.1079
10.9338 -0.4144 1.0687
25.8731 5.3365 2.5840
18.5927 8.8599 2.0187
20.8031 17.0297 2.6419
15.7318 20.9756 2.5840
10.4384 24.5386 2.6361
4.5046 27.7586 2.7884
-2.1302 26.4231 2.6360
-8.8459 26.5357 2.7884
-7.6535 12.1236 1.4321
-18.7924 18.0895 2.6092
-22.1501 12.8299 2.5623
-23.8244 6.9453 2.4841
-23.9392 1.0137 2.3967
-24.8098 -5.0039 2.5280
-23.5859 -11.1140 2.5990
-20.5238 -16.6542 2.6280
-16.0603 -21.2236 2.6388
-11.1534 -25.9116 2.7884
-4.6523 -27.9114 2.7884
2.1586 -28.2961 2.7884
8.8803 -27.0292 2.7884
11.6691 -18.6652 2.1530
11.0408 -10.7227 1.5032
11.0632 -6.4747 1.2510
10.7144 -3.1765 1.0906
10.9348 -0.5136 1.0691
25.9221 5.1025 2.5840
24.4524 11.3820 2.6434
20.9589 16.8430 2.6419
15.9227 20.8348 2.5840
10.6613 24.4464 2.6361
4.7562 27.7198 2.7884
-1.8912 26.4440 2.6360
-8.6063 26.6170 2.7884
-7.5397 12.1861 1.4313
-2.8232 2.7673 0.3954
-22.0457 13.0373 2.5638
-23.8199 7.1786 2.4903
-23.9350 1.2306 2.3974
-24.8175 -4.7722 2.5244
-23.6652 -10.8908 2.5970
-20.6679 -16.4631 2.6276
-16.2327 -21.0527 2.6360
-11.3861 -25.8066 2.7884
-4.9041 -27.8650 2.7884
1.9024 -28.3115 2.7884
8.6347 -27.1060 2.7884
11.8451 -19.3337 2.2178
11.0371 -10.9149 1.5161
11.0606 -6.6082 1.2574
10.3805 -3.1800 1.0595
10.9359 -0.6128 1.0697
25.9689 4.8681 2.5840
24.5570 11.1614 2.6435
21.1131 16.6547 2.6420
16.1124 20.6921 2.5840
10.8839 24.3529 2.6363
5.0073 27.6787 2.7884
-1.6520 26.4628 2.6360
-8.3657 26.6960 2.7884
-7.4254 12.2478 1.4305
-2.7930 2.7877 0.3947
-21.9397 13.2441 2.5652
-23.8154 7.4129 2.4968
-23.9308 1.4476 2.3983
-24.8268 -4.5414 2.5213
-23.7551 -10.6727 2.5964
-20.8104 -16.2710 2.6271
-16.4207 -20.9026 2.6360
-11.6178 -25.6996 2.7884
-5.1554 -27.8164 2.7884
1.6459 -28.3246 2.7884
8.3883 -27.1807 2.7884
11.9427 -19.8951 2.2699
11.0002 -11.0771 1.5248
11.0580 -6.7431 1.2641
10.0653 -3.1833 1.0302
10.9369 -0.7122 1.0703
26.0136 4.6332 2.5840
24.6596 10.9399 2.6435
21.2657 16.4650 2.6421
16.3008 20.5478 2.5840
11.1076 24.2619 2.6369
5.2582 27.6353 2.7884
-1.4126 26.4793 2.6360
-8.1245 26.7729 2.7884
-7.3106 12.3084 1.4297
-2.7820 2.8274 0.3967
-21.8320 13.4501 2.5667
-23.8108 7.6486 2.5035
-23.9266 1.6648 2.3994
-24.8427 -4.3123 2.5190
-23.8432 -10.4540 2.5958
-20.9196 -16.0535 2.6227
-16.6073 -20.7509 2.6360
-11.8485 -25.5904 2.7884
-5.4063 -27.7655 2.7884
1.3894 -28.3354 2.7884
8.1413 -27.2531 2.7884
12.1221 -20.6141 2.3395
10.9964 -11.2754 1.5384
11.0554 -6.8795 1.2708
9.6274 -3.1409 0.9883
10.9379 -0.8117 1.0711
26.0561 4.3979 2.5840
24.7601 10.7175 2.6436
21.4164 16.2740 2.6421
16.4879 20.4018 2.5840
11.3306 24.1686 2.6375
5.5088 27.5897 2.7884
-1.1730 26.4938 2.6360
-7.8826 26.8477 2.7884
-7.1955 12.3681 1.4289
-10.8200 11.1976 1.5573
-21.7225 13.6554 2.5682
-23.6324 7.8279 2.4921
-23.9224 1.8822 2.4006
-23.3647 -3.8383 2.3656
-23.9293 -10.2346 2.5952
-21.0500 -15.8529 2.6212
-16.7925 -20.5975 2.6360
-12.0782 -25.4792 2.7884
-5.6566 -27.7122 2.7884
1.1329 -28.3439 2.7884
7.8937 -27.3232 2.7884
12.2832 -21.3274 2.4079
11.0256 -11.5119 1.5571
11.0527 -7.0174 1.2778
9.6426 -3.2427 0.9928
26.3704 -2.1970 2.5840
26.0964 4.1623 2.5840
24.8586 10.4940 2.6436
12.2129 9.1073 1.4963
16.6737 20.2540 2.5840
11.5527 24.0735 2.6381
5.7587 27.5419 2.7884
-0.9335 26.5060 2.6360
-7.6401 26.9204 2.7884
-7.0800 12.4269 1.4282
-10.6198 11.1912 1.5429
-21.6114 13.8599 2.5698
-23.1376 7.8970 2.4474
-23.9182 2.0998 2.4021
-23.3605 -3.6208 2.3619
-24.0136 -10.0146 2.5946
-21.1852 -15.6563 2.6206
-16.9764 -20.4424 2.6360
-12.3069 -25.3659 2.7884
-5.9067 -27.6567 2.7884
0.8761 -28.3500 2.7884
7.6453 -27.3911 2.7884
12.4808 -22.1315 2.4860
11.0216 -11.7181 1.5715
11.0500 -7.1568 1.2849
13.3671 -4.6302 1.3805
10.9176 -1.0091 1.0706
26.1661 3.9309 2.5871
24.9550 10.2697 2.6437
12.3925 9.0678 1.5080
16.8582 20.1045 2.5840
11.7744 23.9762 2.6387
6.0084 27.4918 2.7884
-0.6936 26.5162 2.6360
-7.3967 26.9905 2.7884
-6.9640 12.4846 1.4274
-10.4231 11.1850 1.5289
-21.3020 13.9352 2.5478
-23.1331 8.1300 2.4546
-23.9140 2.3178 2.4038
-23.3563 -3.4039 2.3585
-24.0960 -9.7939 2.5941
-21.3186 -15.4585 2.6199
-17.1588 -20.2856 2.6360
-12.5343 -25.2507 2.7884
-6.1558 -27.5991 2.7884
0.6197 -28.3538 2.7884
7.3967 -27.4566 2.7884
12.6518 -22.9165 2.5614
11.0175 -11.9283 1.5863
11.0473 -7.2977 1.2923
13.3645 -4.7652 1.3846
10.9411 -1.1112 1.0738
26.1707 3.6898 2.5840
25.0495 10.0445 2.6437
12.4742 8.9554 1.5079
17.4143 20.3904 2.6406
11.9946 23.8766 2.6393
6.2576 27.4394 2.7884
-0.4799 28.0576 2.7884
-7.1528 27.0593 2.7884
-6.8476 12.5414 1.4266
-10.2299 11.1789 1.5153
-21.1041 14.0802 2.5392
-23.1285 8.3644 2.4621
-23.9098 2.5360 2.4056
-23.3521 -3.1877 2.3552
-24.1765 -9.5725 2.5935
-21.4501 -15.2599 2.6193
-17.3396 -20.1274 2.6360
-12.7609 -25.1333 2.7884
-6.4046 -27.5391 2.7884
0.3630 -28.3552 2.7884
7.1473 -27.5198 2.7884
12.8057 -23.6996 2.6360
10.9803 -12.1060 1.5967
11.1036 -7.4802 1.3068
13.3618 -4.9010 1.3889
10.9421 -1.2115 1.0749
26.2047 3.4530 2.5840
25.1418 9.8185 2.6438
12.4728 8.7846 1.4979
17.6005 20.2347 2.6406
12.1898 23.7274 2.6345
6.5065 27.3847 2.7884
-0.2259 28.0638 2.7884
-6.9082 27.1252 2.7884
-6.7308 12.5973 1.4259
-10.0401 11.1729 1.5020
-21.0988 14.3543 2.5541
-23.1240 8.6002 2.4698
-23.9055 2.7546 2.4077
-23.5701 -3.0006 2.3744
-24.2551 -9.3508 2.5930
-21.5801 -15.0600 2.6187
-17.5192 -19.9675 2.6360
-12.9863 -25.0139 2.7884
-6.6528 -27.4769 2.7884
0.1064 -28.3543 2.7884
6.8973 -27.5808 2.7884
12.5898 -23.8128 2.6360
10.9761 -12.3236 1.6124
11.1008 -7.6252 1.3145
13.3592 -5.0376 1.3933
10.9432 -1.3119 1.0761
26.2363 3.2161 2.5840
25.2321 9.5916 2.6438
12.4638 8.6106 1.4873
17.7854 20.0773 2.6407
12.1741 23.1782 2.5854
6.7548 27.3278 2.7884
0.0281 28.0676 2.7884
-6.6630 27.1891 2.7884
-6.6136 12.6522 1.4252
-9.8536 11.1670 1.4891
-21.0934 14.6314 2.5693
-23.1194 8.8373 2.4778
-23.9013 2.9734 2.4100
-24.0137 -2.8365 2.4166
-24.3318 -9.1283 2.5924
-21.7082 -14.8590 2.6180
-17.6972 -19.8059 2.6360
-2.9603 -5.5781 0.6248
-6.9004 -27.4125 2.7884
-0.1502 -28.3511 2.7884
6.6468 -27.6396 2.7884
12.3729 -23.9240 2.6360
11.0048 -12.5831 1.6333
11.0646 -7.7485 1.3185
13.3565 -5.1750 1.3978
10.9442 -1.4126 1.0774
26.2659 2.9788 2.5840
23.8428 8.8173 2.4896
12.4686 8.4482 1.4785
17.9688 19.9182 2.6408
12.1589 22.6490 2.5382
7.0027 27.2687 2.7884
0.1698 16.8982 1.6787
-2.6411 11.2152 1.1476
-6.4961 12.7060 1.4245
-9.6704 11.1612 1.4766
-21.0304 14.8714 2.5778
-23.6361 9.2809 2.5421
-23.8971 3.1927 2.4124
-24.0095 -2.6159 2.4138
-24.4066 -8.9052 2.5919
-21.8345 -14.6571 2.6174
-17.8739 -19.6428 2.6360
-3.0192 -5.5667 0.6267
-7.1474 -27.3457 2.7884
-0.4067 -28.3455 2.7884
6.3960 -27.6959 2.7884
12.1552 -24.0331 2.6360
10.9980 -12.8074 1.6495
11.0618 -7.8967 1.3267
13.3538 -5.3135 1.4025
10.9453 -1.5135 1.0788
26.2933 2.7411 2.5840
23.8434 8.5731 2.4812
13.3409 8.8642 1.5722
18.1508 19.7575 2.6408
12.1442 22.1385 2.4930
7.2500 27.2073 2.7884
0.3227 16.8974 1.6786
-6.1712 27.3102 2.7884
-6.3782 12.7589 1.4238
-9.4900 11.1555 1.4643
-20.9091 15.0714 2.5795
-23.5605 9.4982 2.5431
-23.8928 3.4126 2.4151
-24.0052 -2.3957 2.4112
-24.4795 -8.6815 2.5914
-21.9591 -14.4542 2.6168
-18.0489 -19.4781 2.6360
-13.6559 -24.6436 2.7884
-7.3935 -27.2768 2.7884
-0.6629 -28.3377 2.7884
6.1446 -27.7501 2.7884
11.9363 -24.1403 2.6360
10.9564 -12.9950 1.6609
11.0589 -8.0467 1.3350
11.4465 -4.6749 1.2066
10.9463 -1.6147 1.0802
26.3185 2.5032 2.5840
25.4906 8.9057 2.6439
17.2043 11.2080 2.0153
18.3313 19.5950 2.6409
12.1301 21.6463 2.4495
7.4966 27.1437 2.7884
0.4757 16.8966 1.6788
-5.9243 27.3676 2.7884
-6.2598 12.8109 1.4231
-9.3126 11.1499 1.4524
-20.7862 15.2706 2.5813
-23.4831 9.7150 2.5441
-23.8885 3.6329 2.4180
-24.0010 -2.1761 2.4089
-24.5504 -8.4573 2.5909
-22.0819 -14.2502 2.6162
-18.2186 -19.3080 2.6355
-13.8766 -24.5163 2.7884
-7.6392 -27.2057 2.7884
-0.9192 -28.3274 2.7884
5.8926 -27.8019 2.7884
11.7164 -24.2455 2.6360
10.9447 -13.2221 1.6773
11.0892 -8.2233 1.3477
11.4037 -4.7783 1.2066
10.9474 -1.7163 1.0818
26.3416 2.2651 2.5840
25.5726 8.6755 2.6440
22.6939 14.4939 2.6426
18.5103 19.4311 2.6410
13.2820 23.2068 2.6393
7.7428 27.0778 2.7884
0.6287 16.8958 1.6790
-5.6769 27.4226 2.7884
-6.1412 12.8619 1.4224
-9.2519 11.2833 1.4587
-20.6615 15.4689 2.5830
-23.4041 9.9313 2.5452
-23.8843 3.8537 2.4210
-23.9967 -1.9569 2.4067
-24.6194 -8.2328 2.5904
-22.2028 -14.0455 2.6156
-18.3868 -19.1363 2.6349
-14.0963 -24.3869 2.7884
-7.8842 -27.1323 2.7884
-1.1754 -28.3149 2.7884
5.6402 -27.8515 2.7884
11.4956 -24.3487 2.6360
10.9643 -13.4925 1.6991
11.0862 -8.3776 1.3565
11.3600 -4.8813 1.2066
10.9484 -1.8181 1.0834
26.3624 2.0269 2.5840
25.6523 8.4447 2.6440
22.8269 14.2896 2.6427
18.6878 19.2654 2.6410
13.4931 23.0884 2.6393
7.9885 27.0097 2.7884
0.7819 16.8951 1.6794
-5.4289 27.4754 2.7884
-6.0221 12.9119 1.4217
-9.2457 11.4861 1.4740
-20.5352 15.6664 2.5848
-23.3233 10.1469 2.5463
-23.8800 4.0750 2.4243
-23.9925 -1.7383 2.4047
-23.4376 -7.6025 2.4589
-22.3220 -13.8396 2.6151
-18.5534 -18.9632 2.6344
-14.3148 -24.2556 2.7884
-8.1285 -27.0567 2.7884
-1.4315 -28.3000 2.7884
5.3875 -27.8987 2.7884
11.2740 -24.4498 2.6360
10.9551 -13.7333 1.7169
11.0832 -8.5338 1.3655
11.3154 -4.9838 1.2066
10.9495 -1.9201 1.0852
26.3811 1.7884 2.5840
25.7301 8.2130 2.6441
22.4474 13.7709 2.5840
18.8640 19.0981 2.6411
13.7031 22.9680 2.6393
8.2336 26.9394 2.7884
0.9352 16.8943 1.6799
-5.1805 27.5260 2.7884
-5.9028 12.9609 1.4211
-9.2393 11.6932 1.4897
-20.4074 15.8629 2.5865
-23.2407 10.3622 2.5474
-23.8757 4.2970 2.4278
-23.9883 -1.5199 2.4030
-23.4330 -7.3672 2.4515
-22.4393 -13.6327 2.6145
-18.7185 -18.7887 2.6339
-14.5321 -24.1222 2.7884
-8.3720 -26.9790 2.7884
-1.6874 -28.2828 2.7884
5.1343 -27.9436 2.7884
11.0516 -24.5488 2.6360
10.9165 -13.9416 1.7306
11.0801 -8.6923 1.3748
11.2698 -5.0860 1.2066
11.0058 -2.0328 1.0925
26.3976 1.5497 2.5840
25.8057 7.9805 2.6441
22.5733 13.5685 2.5840
19.0386 18.9291 2.6412
13.6991 22.4961 2.5989
8.4780 26.8669 2.7884
1.0886 16.8935 1.6805
-4.9319 27.5744 2.7884
-5.7832 13.0089 1.4204
-9.2328 11.9049 1.5058
-20.2777 16.0586 2.5883
-23.1564 10.5769 2.5485
-23.8714 4.5197 2.4315
-23.9840 -1.3017 2.4014
-23.4285 -7.1335 2.4444
-22.5549 -13.4250 2.6139
-18.8820 -18.6128 2.6333
-14.7481 -23.9870 2.7884
-8.6149 -26.8990 2.7884
-1.9430 -28.2633 2.7884
4.8807 -27.9862 2.7884
11.4539 -26.0708 2.7884
10.9176 -14.2062 1.7512
11.0438 -8.8265 1.3802
11.2233 -5.1879 1.2066
10.9292 -2.1212 1.0867
26.4120 1.3106 2.5840
22.0739 6.6080 2.2553
22.6974 13.3647 2.5840
19.2118 18.7583 2.6412
13.6901 22.0295 2.5589
8.7216 26.7922 2.7884
1.2420 16.8927 1.6813
-4.6826 27.6205 2.7884
-5.6937 13.1263 1.4275
-9.2262 12.1213 1.5225
-20.1464 16.2535 2.5902
-23.0704 10.7911 2.5497
-23.8670 4.7430 2.4354
-23.9798 -1.0839 2.4000
-23.9567 -7.0580 2.4929
-22.6687 -13.2163 2.6134
-19.0439 -18.4355 2.6328
-14.9629 -23.8498 2.7884
-8.8569 -26.8168 2.7884
-2.1985 -28.2414 2.7884
4.6268 -28.0265 2.7884
11.2166 -26.1713 2.7884
10.9680 -14.5424 1.7805
11.0406 -8.9886 1.3900
11.1759 -5.2890 1.2066
24.8525 -5.0569 2.4756
26.4241 1.0720 2.5840
25.9505 7.5138 2.6442
22.8193 13.1603 2.5840
19.3830 18.5865 2.6413
13.7548 21.6942 2.5340
8.9647 26.7152 2.7884
1.3957 16.8919 1.6822
-4.4328 27.6644 2.7884
-5.6841 13.4362 1.4554
-9.2193 12.3425 1.5397
-20.0135 16.4475 2.5920
-22.9827 11.0046 2.5509
-23.8627 4.9671 2.4395
-23.9756 -0.8664 2.3988
-24.7294 -7.0430 2.5668
-22.7806 -13.0067 2.6129
-19.2042 -18.2569 2.6323
-15.1764 -23.7107 2.7884
-9.0982 -26.7325 2.7884
-2.4537 -28.2173 2.7884
4.3725 -28.0645 2.7884
10.9789 -26.2695 2.7884
10.9937 -14.8536 1.8065
11.0375 -9.1533 1.4000
11.1276 -5.3899 1.2066
24.8479 -5.2906 2.4797
26.4340 0.8329 2.5840
26.0198 7.2792 2.6442
22.9396 12.9545 2.5840
19.5530 18.4127 2.6414
13.9669 21.5939 2.5367
9.2072 26.6361 2.7884
1.5497 16.8911 1.6833
-3.9540 26.1919 2.6360
-5.6742 13.7585 1.4846
-9.2124 12.5689 1.5574
-19.8789 16.6406 2.5939
-22.8932 11.2176 2.5521
-23.8584 5.1919 2.4438
-23.9714 -0.6490 2.3978
-24.8543 -6.8360 2.5734
-22.8906 -12.7962 2.6123
-19.3628 -18.0769 2.6318
-15.3886 -23.5697 2.7884
-9.3383 -26.6461 2.7884
-2.7082 -28.1909 2.7884
4.1184 -28.1001 2.7884
10.7398 -26.3656 2.7884
11.0053 -15.1542 1.8309
11.0674 -9.3485 1.4145
11.0822 -5.4923 1.2070
24.8434 -5.5251 2.4841
26.4418 0.5937 2.5840
26.0869 7.0441 2.6442
23.0580 12.7475 2.5840
19.7214 18.2374 2.6414
14.1634 21.4691 2.5367
9.4490 26.5546 2.7884
1.7039 16.8903 1.6845
-3.7172 26.2291 2.6360
-5.6639 14.0941 1.5151
-9.2053 12.8006 1.5756
-19.7426 16.8328 2.5958
-22.8020 11.4300 2.5534
-23.8540 5.4176 2.4483
-23.9672 -0.4318 2.3970
-24.8447 -6.5921 2.5663
-22.9989 -12.5849 2.6118
-19.5195 -17.8959 2.6313
-15.5992 -23.4271 2.7884
-9.5779 -26.5575 2.7884
-2.9629 -28.1621 2.7884
3.8636 -28.1334 2.7884
10.4999 -26.4596 2.7884
11.1095 -15.5925 1.8718
11.0642 -9.5186 1.4251
11.0798 -5.6166 1.2122
24.8389 -5.7605 2.4887
10.0497 0.1347 0.9819
26.1518 6.8083 2.6443
23.1746 12.5395 2.5840
19.8883 18.0606 2.6415
14.3816 21.3765 2.5407
9.6901 26.4713 2.7884
1.8584 16.8895 1.6859
-3.4800 26.2643 2.6360
-5.6531 14.4438 1.5470
-9.1980 13.0378 1.5944
-19.6047 17.0241 2.5978
-22.7090 11.6418 2.5547
-23.8496 5.6441 2.4530
-23.9630 -0.2148 2.3964
-24.8324 -6.3492 2.5592
-23.1050 -12.3731 2.6113
-19.6748 -17.7133 2.6308
-15.8087 -23.2823 2.7884
-9.8168 -26.4667 2.7884
-3.2173 -28.1310 2.7884
3.6085 -28.1644 2.7884
10.2592 -26.5513 2.7884
11.1790 -15.9944 1.9079
11.0608 -9.6913 1.4360
11.0774 -5.7419 1.2176
17.2177 -4.1576 1.7288
26.4507 0.1150 2.5840
26.2146 6.5720 2.6443
23.2893 12.3304 2.5840
20.0535 17.8822 2.6416
14.6607 21.3711 2.5555
9.8512 26.1752 2.7662
2.0132 16.8887 1.6873
-3.2424 26.2973 2.6360
-5.6419 14.8086 1.5804
-9.1905 13.2808 1.6138
-19.4652 17.2144 2.5997
-22.6144 11.8530 2.5559
-23.8452 5.8710 2.4580
-23.9588 0.0017 2.3960
-24.8218 -6.1077 2.5525
-23.2095 -12.1600 2.6108
-19.8285 -17.5293 2.6303
-16.0170 -23.1357 2.7884
-10.0547 -26.3737 2.7884
-3.4714 -28.0976 2.7884
3.3531 -28.1930 2.7884
10.0177 -26.6408 2.7884
11.2183 -16.3640 1.9399
11.0574 -9.8666 1.4471
11.0749 -5.8684 1.2231
16.5045 -4.1438 1.6608
10.9300 -0.0514 1.0677
26.2752 6.3350 2.6444
23.4020 12.1202 2.5840
20.2171 17.7022 2.6416
14.9431 21.3657 2.5706
9.8452 25.4579 2.6994
3.5798 27.8815 2.7884
-3.0046 26.3282 2.6360
-5.6302 15.1897 1.6154
-9.1828 13.5298 1.6337
-19.3242 17.4034 2.6017
-22.5182 12.0632 2.5573
-23.8408 6.0993 2.4632
-23.9546 0.2185 2.3958
-24.8125 -5.8677 2.5461
-23.3121 -11.9461 2.6103
-19.9805 -17.3441 2.6298
-16.2239 -22.9871 2.7884
-10.2918 -26.2786 2.7884
-3.7251 -28.0619 2.7884
3.0975 -28.2194 2.7884
9.7754 -26.7281 2.7884
11.3496 -16.8810 1.9891
11.0208 -10.0146 1.4542
11.0725 -5.9961 1.2288
15.8451 -4.1310 1.5982
10.9310 -0.1503 1.0679
25.7321 5.9582 2.5840
23.5128 11.9090 2.5840
20.3791 17.5208 2.6417
15.2289 21.3601 2.5861
9.8498 24.8000 2.6387
3.8324 27.8509 2.7884
-2.7669 26.3569 2.6360
-5.6179 15.5874 1.6521
-9.1750 13.7847 1.6543
-19.1814 17.5918 2.6037
-22.4201 12.2731 2.5586
-23.8364 6.3286 2.4686
-23.9504 0.4353 2.3958
-24.8053 -5.6295 2.5402
-23.4129 -11.7314 2.6098
-20.1309 -17.1576 2.6293
-16.1501 -22.4486 2.7410
-10.5280 -26.1813 2.7884
-3.9784 -28.0239 2.7884
2.8417 -28.2434 2.7884
9.5323 -26.8132 2.7884
11.3903 -17.2773 2.0237
11.0173 -10.1949 1.4659
11.0700 -6.1249 1.2347
15.2400 -4.1209 1.5408
10.9321 -0.2493 1.0681
25.7868 5.7255 2.5840
22.4835 11.1332 2.4595
20.5395 17.3379 2.6418
15.4108 21.2065 2.5840
10.0644 24.6881 2.6360
4.0843 27.8182 2.7884
-2.5285 26.3835 2.6360
-9.2443 26.3954 2.7884
-9.1669 14.0465 1.6756
-19.0369 17.7792 2.6057
-22.3203 12.4824 2.5600
-23.8319 6.5589 2.4742
-23.9462 0.6521 2.3960
-24.8054 -5.3939 2.5353
-23.5070 -11.5135 2.6088
-20.2797 -16.9699 2.6288
-16.1066 -21.9659 2.7001
-10.7633 -26.0820 2.7884
-4.2314 -27.9836 2.7884
2.5857 -28.2651 2.7884
9.2884 -26.8960 2.7884
11.5371 -17.8493 2.0785
11.0137 -10.3782 1.4779
11.0674 -6.2550 1.2407
15.2023 -4.2587 1.5408
10.9331 -0.3483 1.0684
25.8393 5.4922 2.5840
18.5923 8.9978 2.0246
20.6979 17.1538 2.6418
15.6034 21.0688 2.5840
10.2888 24.5992 2.6361
4.3364 27.7832 2.7884
-2.2898 26.4080 2.6360
-9.0057 26.4802 2.7884
-7.7293 12.0812 1.4327
-18.8908 17.9656 2.6078
-22.2188 12.6910 2.5614
-23.8274 6.7903 2.4801
-23.9420 0.8689 2.3963
-24.8036 -5.1588 2.5304
-23.5551 -11.2739 2.6029
-20.4267 -16.7809 2.6284
-16.0718 -21.5075 2.6618
-10.9976 -25.9805 2.7884
-4.4840 -27.9411 2.7884
2.3296 -28.2845 2.7884
9.0439 -26.9767 2.7884
11.6442 -18.3777 2.1278
11.0433 -10.5964 1.4947
11.0649 -6.3863 1.2468
10.7816 -3.1258 1.0955
10.9341 -0.4474 1.0688
25.8896 5.2590 2.5840
18.5929 8.7917 2.0158
20.8549 16.9680 2.6419
15.7953 20.9291 2.5840
10.5124 24.5083 2.6361
4.5882 27.7459 2.7884
-2.0509 26.4303 2.6360
-8.7664 26.5629 2.7884
-7.6157 12.1445 1.4319
-2.8584 2.7681 0.3981
-22.1156 12.8989 2.5628
-23.8229 7.0227 2.4861
-23.9378 1.0858 2.3969
-24.8126 -4.9268 2.5268
-23.6041 -11.0359 2.5974
-20.5720 -16.5907 2.6279
-16.1064 -21.1519 2.6360
-11.2310 -25.8769 2.7884
-4.7362 -27.8962 2.7884
2.0733 -28.3015 2.7884
8.7986 -27.0551 2.7884
11.7090 -18.8553 2.1709
11.0396 -10.7864 1.5074
11.0623 -6.5190 1.2531
10.6016 -3.1777 1.0801
10.9352 -0.5465 1.0693
25.9378 5.0248 2.5840
24.4873 11.3089 2.6434
21.0103 16.7807 2.6420
15.9858 20.7876 2.5840
10.7352 24.4154 2.6361
4.8397 27.7064 2.7884
-1.8118 26.4505 2.6360
-8.5264 26.6435 2.7884
-7.5017 12.2067 1.4310
-2.8111 2.7720 0.3949
-22.0107 13.1061 2.5643
-23.8184 7.2564 2.4925
-23.9336 1.3028 2.3977
-24.8197 -4.6951 2.5233
-23.6953 -10.8183 2.5968
-20.7156 -16.3993 2.6274
-16.2954 -21.0029 2.6360
-11.4634 -25.7712 2.7884
-4.9879 -27.8491 2.7884
1.8169 -28.3161 2.7884
8.5528 -27.1311 2.7884
11.8887 -19.5369 2.2370
11.0359 -10.9793 1.5205
11.0597 -6.6528 1.2596
10.2740 -3.1811 1.0496
10.9362 -0.6458 1.0699
25.9839 4.7902 2.5840
24.5913 11.0880 2.6435
21.1640 16.5919 2.6420
16.1751 20.6444 2.5840
10.9583 24.3229 2.6365
5.0908 27.6646 2.7884
-1.5725 26.4685 2.6360
-8.2856 26.7219 2.7884
-7.3873 12.2680 1.4302
-2.7879 2.7994 0.3952
-21.9041 13.3127 2.5657
-23.8139 7.4912 2.4990
-23.9294 1.5199 2.3986
-24.8323 -4.4651 2.5205
-23.7847 -10.6000 2.5962
-20.8479 -16.1992 2.6258
-16.4830 -20.8523 2.6360
-11.6948 -25.6634 2.7884
-5.2391 -27.7996 2.7884
1.5609 -28.3285 2.7884
8.3065 -27.2050 2.7884
11.9707 -20.0778 2.2867
10.9990 -11.1425 1.5293
11.0571 -6.7882 1.2663
9.8069 -3.1340 1.0048
10.9372 -0.7452 1.0706
26.0279 4.5552 2.5840
24.6932 10.8661 2.6435
21.3159 16.4017 2.6421
16.3631 20.4995 2.5840
11.1818 24.2311 2.6371
5.3416 27.6204 2.7884
-1.3330 26.4844 2.6360
-8.0441 26.7981 2.7884
-7.2724 12.3284 1.4295
-2.7931 2.8559 0.3995
-21.7957 13.5185 2.5672
-23.8093 7.7273 2.5058
-23.9252 1.7372 2.3998
-23.3675 -3.9837 2.3682
-23.8721 -10.3810 2.5956
-20.9589 -15.9834 2.6217
-16.6692 -20.6999 2.6360
-11.9248 -25.5538 2.7884
-5.4894 -27.7481 2.7884
1.3043 -28.3385 2.7884
8.0593 -27.2766 2.7884
12.1725 -20.8429 2.3613
10.9951 -11.3420 1.5430
11.0545 -6.9251 1.2731
9.6419 -3.1777 0.9907
10.9383 -0.8448 1.0713
26.0698 4.3197 2.5840
24.7930 10.6433 2.6436
12.2064 9.2177 1.5024
16.5498 20.3528 2.5840
11.4046 24.1372 2.6377
5.5920 27.5741 2.7884
-1.0933 26.4981 2.6360
-7.8019 26.8720 2.7884
-7.1571 12.3878 1.4287
-10.7529 11.1954 1.5525
-21.6857 13.7236 2.5688
-23.3815 7.8231 2.4681
-23.9210 1.9547 2.4011
-23.3633 -3.7657 2.3644
-23.9576 -10.1613 2.5950
-21.0950 -15.7878 2.6210
-16.8536 -20.5462 2.6360
-12.1542 -25.4419 2.7884
-5.7396 -27.6941 2.7884
1.0477 -28.3461 2.7884
7.8114 -27.3460 2.7884
12.2844 -21.4784 2.4208
11.0243 -11.5800 1.5618
11.0518 -7.0635 1.2802
9.6156 -3.2658 0.9910
10.8896 -0.9402 1.0673
26.1094 4.0839 2.5840
24.8909 10.4196 2.6436
12.2406 9.0708 1.4963
16.7352 20.2045 2.5840
11.6266 24.0413 2.6383
5.8419 27.5254 2.7884
-0.8536 26.5097 2.6360
-7.5591 26.9440 2.7884
-7.0413 12.4462 1.4279
-10.5538 11.1891 1.5382
-21.5740 13.9280 2.5703
-23.1361 7.9745 2.4498
-23.9168 2.1725 2.4026
-23.3591 -3.5488 2.3608
-24.0411 -9.9415 2.5944
-21.2296 -15.5908 2.6204
-17.0370 -20.3906 2.6360
-12.3825 -25.3279 2.7884
-5.9894 -27.6379 2.7884
0.7911 -28.3515 2.7884
7.5629 -27.4131 2.7884
12.5563 -22.4223 2.5144
11.0202 -11.7876 1.5764
11.0491 -7.2034 1.2874
13.3662 -4.6750 1.3819
10.8907 -1.0397 1.0682
26.1645 3.8503 2.5857
24.9867 10.1949 2.6437
12.4345 9.0413 1.5098
17.2894 20.4932 2.6405
11.8478 23.9433 2.6389
6.0915 27.4745 2.7884
-0.6141 26.5380 2.6379
-7.3155 27.0138 2.7884
-6.9252 12.5037 1.4271
-10.3583 11.1830 1.5243
-21.1582 13.9325 2.5356
-23.1316 8.2075 2.4571
-23.9126 2.3901 2.4044
-23.3549 -3.3322 2.3573
-24.1229 -9.7206 2.5939
-21.3624 -15.3927 2.6197
-17.2190 -20.2333 2.6360
-12.6098 -25.2119 2.7884
-6.2385 -27.5794 2.7884
0.5344 -28.3545 2.7884
7.3139 -27.4778 2.7884
12.7359 -23.2337 2.5926
11.0161 -11.9990 1.5913
11.0463 -7.3450 1.2948
13.3636 -4.8102 1.3860
10.9414 -1.1445 1.0742
26.1822 3.6111 2.5840
25.0804 9.9694 2.6437
12.4774 8.9010 1.5050
17.4765 20.3386 2.6406
12.0671 23.8413 2.6393
6.3407 27.4214 2.7884
-0.3952 28.0599 2.7884
-7.0714 27.0815 2.7884
-6.8089 12.5601 1.4264
-10.1666 11.1769 1.5109
-21.1023 14.1707 2.5441
-23.1270 8.4424 2.4646
-23.9084 2.6084 2.4063
-23.3507 -3.1162 2.3541
-24.2028 -9.4990 2.5933
-21.4935 -15.1935 2.6191
-17.3995 -20.0745 2.6360
-12.8359 -25.0938 2.7884
-6.4871 -27.5187 2.7884
0.2777 -28.3552 2.7884
7.0642 -27.5404 2.7884
12.7340 -23.7375 2.6360
10.9789 -12.1778 1.6019
11.1027 -7.5282 1.3093
13.3610 -4.9463 1.3903
10.9425 -1.2449 1.0753
26.2154 3.3742 2.5840
25.1721 9.7430 2.6438
12.4691 8.7259 1.4943
17.6623 20.1824 2.6407
12.1845 23.5420 2.6179
6.5893 27.3660 2.7884
-0.1418 28.0653 2.7884
-6.8270 27.1466 2.7884
-6.6920 12.6156 1.4257
-9.9779 11.1709 1.4977
-21.0970 14.4459 2.5591
-23.1225 8.6787 2.4724
-23.9041 2.8271 2.4084
-24.0166 -2.9841 2.4186
-24.2808 -9.2769 2.5928
-21.6228 -14.9933 2.6185
-17.5785 -19.9139 2.6360
-2.9493 -5.6393 0.6298
-6.7352 -27.4557 2.7884
0.0211 -28.3535 2.7884
6.8141 -27.6006 2.7884
12.5178 -23.8500 2.6360
11.0077 -12.4342 1.6225
11.0999 -7.6738 1.3172
13.3583 -5.0832 1.3948
10.9435 -1.3454 1.0765
26.2465 3.1371 2.5840
23.8426 8.9811 2.4953
12.4634 8.5549 1.4841
17.8467 20.0245 2.6407
12.1690 23.0006 2.5695
6.8370 27.3085 2.7884
0.0676 16.8987 1.6788
-2.7131 11.2163 1.1494
-6.5746 12.6701 1.4249
-9.7925 11.1651 1.4849
-21.0916 14.7244 2.5744
-23.1178 8.9165 2.4805
-23.8999 3.0462 2.4108
-24.0123 -2.7631 2.4157
-24.3569 -9.0542 2.5923
-21.7503 -14.7920 2.6178
-17.7561 -19.7519 2.6360
-2.9778 -5.5705 0.6250
-6.9826 -27.3905 2.7884
-0.2355 -28.3495 2.7884
6.5634 -27.6586 2.7884
12.3005 -23.9605 2.6360
11.0030 -12.6578 1.6387
11.0637 -7.7977 1.3212
13.3556 -5.2211 1.3994
10.9446 -1.4462 1.0778
26.2753 2.8996 2.5840
23.8430 8.7357 2.4868
12.4715 8.3958 1.4758
18.0293 19.8652 2.6408
12.1540 22.4778 2.5230
7.0847 27.2486 2.7884
0.2205 16.8979 1.6787
-2.6156 11.2582 1.1512
-6.4570 12.7237 1.4242
-9.6101 11.1593 1.4724
-20.9903 14.9380 2.5784
-23.6112 9.3532 2.5424
-23.8956 3.2658 2.4133
-24.0081 -2.5426 2.4129
-24.4310 -8.8309 2.5917
-21.8762 -14.5898 2.6172
-17.9322 -19.5882 2.6360
-13.5078 -24.7276 2.7884
-7.2293 -27.3230 2.7884
-0.4920 -28.3431 2.7884
6.3123 -27.7143 2.7884
12.0823 -24.0691 2.6360
10.9956 -12.8829 1.6550
11.0608 -7.9465 1.3294
11.4744 -4.6058 1.2066
10.9456 -1.5472 1.0792
26.3019 2.6623 2.5840
25.4346 9.0591 2.6439
22.4682 14.8317 2.6426
18.2108 19.7038 2.6409
12.1395 21.9733 2.4784
7.3319 27.1865 2.7884
0.3735 16.8971 1.6787
-6.0892 27.3298 2.7884
-6.3389 12.7763 1.4235
-9.4307 11.1536 1.4603
-20.8684 15.1377 2.5801
-23.5350 9.5703 2.5434
-23.8914 3.4858 2.4160
-24.0038 -2.3227 2.4104
-24.5032 -8.6071 2.5912
-22.0001 -14.3865 2.6166
-18.1056 -19.4217 2.6358
-13.7295 -24.6015 2.7884
-7.4755 -27.2534 2.7884
-0.7484 -28.3345 2.7884
6.0606 -27.7676 2.7884
11.8631 -24.1756 2.6360
10.9525 -13.0702 1.6663
11.0912 -8.1212 1.3419
11.4324 -4.7092 1.2066
10.9467 -1.6484 1.0807
26.3264 2.4243 2.5840
25.5180 8.8295 2.6439
17.2694 11.1768 2.0189
18.3909 19.5409 2.6409
12.1255 21.4863 2.4354
7.5785 27.1221 2.7884
0.5265 16.8964 1.6788
-5.8416 27.3861 2.7884
-6.2207 12.8279 1.4229
-9.2560 11.1505 1.4488
-20.7452 15.3362 2.5818
-23.4569 9.7874 2.5445
-23.8871 3.7058 2.4190
-23.9995 -2.1028 2.4081
-24.5734 -8.3831 2.5907
-22.1226 -14.1818 2.6160
-18.2745 -19.2512 2.6353
-13.9504 -24.4732 2.7884
-7.7205 -27.1816 2.7884
-1.0051 -28.3235 2.7884
5.8090 -27.8186 2.7884
11.6433 -24.2799 2.6360
10.9725 -13.3369 1.6877
11.0882 -8.2742 1.3506
11.3893 -4.8125 1.2066
10.9477 -1.7500 1.0823
26.3487 2.1861 2.5840
25.5993 8.5990 2.6440
22.7383 14.4261 2.6427
18.5695 19.3762 2.6410
13.3523 23.1677 2.6393
7.8246 27.0555 2.7884
0.6796 16.8956 1.6791
-5.5945 27.4404 2.7884
-6.1016 12.8786 1.4222
-9.2499 11.3502 1.4637
-20.6197 15.5346 2.5836
-23.3774 10.0031 2.5455
-23.8828 3.9273 2.4221
-23.9953 -1.8841 2.4060
-24.6420 -8.1578 2.5903
-22.2427 -13.9770 2.6154
-18.4425 -19.0787 2.6347
-14.1693 -24.3434 2.7884
-7.9657 -27.1074 2.7884
-1.2608 -28.3102 2.7884
5.5560 -27.8674 2.7884
11.4218 -24.3826 2.6360
10.9605 -13.5713 1.7048
11.0852 -8.4295 1.3595
11.3452 -4.9156 1.2066
10.9488 -1.8521 1.0840
26.3689 1.9472 2.5840
25.6786 8.3673 2.6440
22.8708 14.2210 2.6427
18.7469 19.2096 2.6411
13.5634 23.0484 2.6393
8.0696 26.9868 2.7884
0.8325 16.8948 1.6795
-5.3469 27.4924 2.7884
-5.9827 12.9282 1.4215
-9.2436 11.5541 1.4791
-20.4931 15.7315 2.5853
-23.2961 10.2184 2.5466
-23.8786 4.1485 2.4254
-23.9911 -1.6659 2.4041
-23.4361 -7.5243 2.4564
-22.3611 -13.7711 2.6149
-18.6083 -18.9055 2.6342
-14.3870 -24.2116 2.7884
-8.2093 -27.0312 2.7884
-1.5163 -28.2946 2.7884
5.3036 -27.9138 2.7884
11.2003 -24.4829 2.6360
10.9524 -13.8147 1.7230
11.0822 -8.5862 1.3686
11.3004 -5.0178 1.2066
10.9499 -1.9542 1.0858
26.3869 1.7090 2.5840
25.7555 8.1358 2.6441
22.4894 13.7037 2.5840
18.9222 19.0421 2.6411
13.7053 22.8154 2.6264
8.3149 26.9156 2.7884
0.9861 16.8940 1.6801
-5.0979 27.5424 2.7884
-5.8630 12.9769 1.4209
-9.2372 11.7632 1.4950
-20.3644 15.9282 2.5871
-23.2128 10.4338 2.5478
-23.8742 4.3711 2.4290
-23.9869 -1.4471 2.4024
-23.4315 -7.2892 2.4491
-22.4780 -13.5636 2.6143
-18.7732 -18.7302 2.6337
-14.6042 -24.0774 2.7884
-8.4531 -26.9525 2.7884
-1.7726 -28.2766 2.7884
5.0498 -27.9580 2.7884
11.0980 -24.8525 2.6651
10.9168 -14.0293 1.7374
11.0791 -8.7457 1.3780
11.2544 -5.1201 1.2066
10.9012 -2.0476 1.0827
26.4027 1.4698 2.5840
25.8303 7.9035 2.6441
22.6144 13.5013 2.5840
19.0959 18.8729 2.6412
13.6961 22.3404 2.5856
8.5587 26.8424 2.7884
1.1393 16.8932 1.6808
-4.8493 27.5900 2.7884
-5.7434 13.0245 1.4202
-9.2306 11.9761 1.5113
-20.2344 16.1233 2.5890
-23.1281 10.6479 2.5489
-23.8699 4.5936 2.4327
-23.9826 -1.2295 2.4009
-23.4643 -7.0675 2.4460
-22.5928 -13.3559 2.6138
-18.9358 -18.5542 2.6332
-14.8194 -23.9417 2.7884
-8.6952 -26.8720 2.7884
-2.0277 -28.2563 2.7884
4.7966 -27.9998 2.7884
11.3754 -26.1044 2.7884
10.9576 -14.3471 1.7646
11.0427 -8.8801 1.3834
11.2076 -5.2215 1.2066
10.9022 -2.1500 1.0847
26.4162 1.2313 2.5840
25.9032 7.6697 2.6441
22.7381 13.2969 2.5840
19.2688 18.7014 2.6413
13.6871 21.8781 2.5460
8.8027 26.7668 2.7884
1.2932 16.8924 1.6816
-4.5994 27.6353 2.7884
-5.6905 13.2283 1.4366
-9.2239 12.1945 1.5282
-20.1023 16.3183 2.5908
-23.0413 10.8623 2.5501
-23.8656 4.8176 2.4367
-23.9784 -1.0114 2.3996
-24.2093 -7.0531 2.5170
-22.7062 -13.1465 2.6132
-19.0975 -18.3761 2.6326
-15.0342 -23.8037 2.7884
-8.9375 -26.7890 2.7884
-2.2836 -28.2336 2.7884
4.5420 -28.0394 2.7884
11.1373 -26.2043 2.7884
10.9783 -14.6466 1.7893
11.0396 -9.0430 1.3933
11.1600 -5.3225 1.2066
24.8510 -5.1343 2.4769
26.4276 0.9927 2.5840
25.9737 7.4361 2.6442
22.8594 13.0922 2.5840
19.4396 18.5291 2.6413
13.8349 21.6764 2.5367
9.0452 26.6892 2.7884
1.4468 16.8916 1.6826
-4.3499 27.6785 2.7884
-5.6809 13.5416 1.4649
-9.2171 12.4170 1.5455
-19.9690 16.5116 2.5927
-22.9532 11.0753 2.5513
-23.8613 5.0415 2.4409
-23.9742 -0.7943 2.3985
-24.8568 -6.9987 2.5779
-22.8173 -12.9371 2.6127
-19.2569 -18.1974 2.6321
-15.2469 -23.6642 2.7884
-9.1780 -26.7041 2.7884
-2.5382 -28.2088 2.7884
4.2882 -28.0765 2.7884
10.8993 -26.3018 2.7884
10.9736 -14.9204 1.8106
11.0696 -9.2365 1.4076
11.1112 -5.4234 1.2066
24.8464 -5.3687 2.4812
26.4368 0.7531 2.5840
26.0424 7.2009 2.6442
22.9793 12.8856 2.5840
19.6093 18.3544 2.6414
14.0325 21.5525 2.5367
9.2879 26.6092 2.7884
1.6011 16.8908 1.6837
-3.8751 26.2045 2.6360
-5.6708 13.8688 1.4946
-9.2100 12.6455 1.5634
-19.8336 16.7048 2.5946
-22.8630 11.2885 2.5525
-23.8569 5.2670 2.4453
-23.9700 -0.5766 2.3975
-24.8519 -6.7547 2.5711
-22.9269 -12.7259 2.6122
-19.4153 -18.0166 2.6316
-15.4591 -23.5223 2.7884
-9.4178 -26.6170 2.7884
-2.7927 -28.1816 2.7884
4.0340 -28.1114 2.7884
10.6604 -26.3970 2.7884
11.0673 -15.3360 1.8489
11.0664 -9.4046 1.4180
11.0814 -5.5334 1.2087
24.8419 -5.6030 2.4856
26.4438 0.5144 2.5840
26.1086 6.9660 2.6443
23.0969 12.6787 2.5840
19.7769 18.1790 2.6415
14.2282 21.4273 2.5367
9.5290 26.5271 2.7884
1.7551 16.8900 1.6849
-3.6386 26.2410 2.6360
-5.6604 14.2084 1.5255
-9.2029 12.8786 1.5817
-19.6971 16.8963 2.5965
-22.7714 11.5003 2.5538
-23.8525 5.4925 2.4498
-23.9658 -0.3599 2.3968
-24.8409 -6.5113 2.5639
-23.0343 -12.5146 2.6116
-19.5715 -17.8352 2.6311
-15.6692 -23.3790 2.7884
-9.6576 -26.5274 2.7884
-3.0477 -28.1520 2.7884
3.7786 -28.1440 2.7884
10.4198 -26.4904 2.7884
11.1338 -15.7268 1.8839
11.0630 -9.5759 1.4287
11.0790 -5.6582 1.2140
17.7265 -4.1674 1.7773
10.0500 0.1043 0.9819
26.1730 6.7296 2.6443
23.2130 12.4699 2.5840
19.9435 18.0013 2.6415
14.4743 21.3747 2.5456
9.7702 26.4427 2.7884
1.9100 16.8892 1.6863
-2.5438 19.6538 1.9717
-5.6494 14.5637 1.5579
-9.1955 13.1182 1.6008
-19.5584 17.0876 2.5984
-22.6777 11.7123 2.5551
-23.8481 5.7197 2.4547
-23.9616 -0.1425 2.3963
-24.8279 -6.2687 2.5568
-23.1399 -12.3025 2.6111
-19.7260 -17.6524 2.6306
-15.8779 -23.2339 2.7884
-9.8957 -26.4361 2.7884
-3.3015 -28.1202 2.7884
3.5238 -28.1741 2.7884
10.1787 -26.5815 2.7884
11.1635 -16.0746 1.9135
11.0597 -9.7491 1.4396
11.0766 -5.7837 1.2194
16.9749 -4.1529 1.7056
10.9293 0.0147 1.0677
26.2349 6.4935 2.6443
23.3268 12.2609 2.5840
20.1079 17.8227 2.6416
14.7539 21.3693 2.5604
9.8492 25.9334 2.7437
