ply
format ascii 1.0
element vertex 2176
property float32 x
property float32 y
property float32 z
end_header
3.7745 3.0896 1.3927
3.5994 4.7986 1.7145
3.8153 8.9675 2.7886
1.5598 9.6087 2.7886
-0.7811 9.6928 2.7886
-2.9045 8.7129 2.6362
-5.1827 8.2089 2.7886
-6.9911 6.7285 2.7886
-8.3947 4.8608 2.7886
-9.3134 2.7130 2.7886
-9.6945 0.4081 2.7886
-9.5160 -1.9223 2.7886
-8.7872 -4.1443 2.7886
-7.5489 -6.1303 2.7886
-5.8711 -7.7650 2.7886
-3.6392 -8.4638 2.6362
-1.6003 -9.6244 2.7886
0.5777 -7.5350 2.1576
3.0546 -9.2865 2.7886
4.7188 -7.5429 2.5360
7.0236 -6.8178 2.7886
8.4513 -4.9438 2.7886
9.1201 -2.7024 2.7091
9.2434 -0.4333 2.6362
9.2408 1.8193 2.6845
8.8629 4.1255 2.7886
3.8012 3.0545 1.3923
3.5989 4.7086 1.6939
3.8964 8.9330 2.7886
1.6468 9.5945 2.7886
-0.6934 9.6998 2.7886
-2.8257 8.7391 2.6362
-5.1083 8.2557 2.7886
-2.8224 2.7660 1.1357
-8.3504 4.9366 2.7886
-9.2884 2.7972 2.7886
-9.6903 0.4958 2.7886
-9.5328 -1.8360 2.7886
-8.8241 -4.0645 2.7886
-7.6038 -6.0615 2.7886
-5.9409 -7.7112 2.7886
-3.7154 -8.4302 2.6362
-1.6873 -9.6092 2.7886
0.5091 -7.5346 2.1562
2.9704 -9.3134 2.7886
4.6240 -7.5422 2.5217
6.9616 -6.8810 2.7886
8.4062 -5.0200 2.7886
9.1166 -2.7914 2.7154
9.2392 -0.5169 2.6362
9.2395 1.7324 2.6794
8.9002 4.0454 2.7886
3.8276 3.0192 1.3918
3.5985 4.6208 1.6738
3.9772 8.8977 2.7886
1.7336 9.5797 2.7886
-0.6056 9.7061 2.7886
-2.7465 8.7646 2.6362
-5.0335 8.3018 2.7886
-2.7921 2.7863 1.1336
-8.3054 5.0121 2.7886
-9.2626 2.8812 2.7886
-9.6853 0.5835 2.7886
-9.5488 -1.7496 2.7886
-8.8602 -3.9844 2.7886
-7.6580 -5.9922 2.7886
-6.0102 -7.6568 2.7886
-3.7914 -8.3959 2.6362
-1.7740 -9.5931 2.7886
0.4407 -7.5342 2.1550
2.8859 -9.3396 2.7886
4.5302 -7.5416 2.5077
6.8989 -6.9435 2.7886
8.3604 -5.0958 2.7886
9.1131 -2.8807 2.7220
9.2343 -0.6004 2.6362
9.2382 1.6458 2.6745
8.9367 3.9647 2.7886
3.8537 2.9836 1.3914
3.5980 4.5350 1.6544
4.0577 8.8618 2.7886
1.8203 9.5640 2.7886
-0.5177 9.7115 2.7886
-2.6672 8.7894 2.6362
-4.9582 8.3472 2.7886
-2.7786 2.8235 1.1384
-8.2598 5.0870 2.7886
-9.2361 2.9649 2.7886
-9.6795 0.6711 2.7886
-9.5640 -1.6631 2.7886
-8.8957 -3.9039 2.7886
-7.7117 -5.9224 2.7886
-6.0790 -7.6018 2.7886
-3.8671 -8.3609 2.6362
-1.8607 -9.5763 2.7886
0.3723 -7.5339 2.1539
2.8012 -9.3651 2.7886
4.4376 -7.5409 2.4941
6.8357 -7.0055 2.7886
8.3139 -5.1712 2.7886
9.1095 -2.9704 2.7289
9.2286 -0.6840 2.6362
9.2368 1.5595 2.6699
8.9725 3.8838 2.7886
3.8795 2.9478 1.3909
3.5976 4.4511 1.6356
4.1380 8.8250 2.7886
1.9069 9.5475 2.7886
-0.4298 9.7162 2.7886
-2.5876 8.8135 2.6362
-4.8826 8.3919 2.7886
-6.7434 6.9776 2.7886
-8.2134 5.1617 2.7886
-9.2089 3.0484 2.7886
-9.6729 0.7587 2.7886
-9.5784 -1.5764 2.7886
-8.9303 -3.8231 2.7886
-7.7647 -5.8521 2.7886
-6.1473 -7.5462 2.7886
-3.9424 -8.3252 2.6362
-1.9472 -9.5586 2.7886
0.3040 -7.5335 2.1530
2.7163 -9.3897 2.7886
4.3458 -7.5403 2.4809
6.7719 -7.0670 2.7886
8.2667 -5.2462 2.7886
9.1059 -3.0606 2.7359
9.2222 -0.7674 2.6362
9.2354 1.4734 2.6654
9.0075 3.8026 2.7886
3.9049 2.9117 1.3905
3.5972 4.3691 1.6173
4.2178 8.7876 2.7886
1.9932 9.5303 2.7886
-0.3419 9.7201 2.7886
-2.5078 8.8368 2.6362
-4.8066 8.4360 2.7886
-6.6801 7.0384 2.7886
-8.1664 5.2358 2.7886
-9.1809 3.1316 2.7886
-9.6655 0.8462 2.7886
-9.5921 -1.4896 2.7886
-8.9643 -3.7420 2.7886
-7.8170 -5.7814 2.7886
-6.2151 -7.4899 2.7886
-4.0174 -8.2888 2.6362
-2.0336 -9.5402 2.7886
0.2357 -7.5332 2.1523
2.6311 -9.4136 2.7886
4.2550 -7.5397 2.4680
6.7077 -7.1278 2.7886
8.2189 -5.3207 2.7886
9.1022 -3.1513 2.7433
9.2150 -0.8508 2.6362
9.2340 1.3878 2.6612
9.0418 3.7210 2.7886
3.9299 2.8754 1.3900
3.5968 4.2890 1.5995
4.2974 8.7494 2.7886
2.0795 9.5122 2.7886
-0.2540 9.7231 2.7886
-2.4278 8.8594 2.6362
-4.4716 8.0160 2.6362
-6.6162 7.0988 2.7886
-8.1187 5.3096 2.7886
-9.1521 3.2146 2.7886
-9.6573 0.9337 2.7886
-9.6050 -1.4027 2.7886
-8.9975 -3.6606 2.7886
-7.8688 -5.7102 2.7886
-6.2824 -7.4331 2.7886
-4.0920 -8.2518 2.6362
-2.1196 -9.5211 2.7886
0.1675 -7.5328 2.1517
2.5458 -9.4367 2.7886
4.1653 -7.5391 2.4554
6.6428 -7.1881 2.7886
8.1704 -5.3948 2.7886
9.0985 -3.2425 2.7509
9.2070 -0.9342 2.6362
9.2325 1.3022 2.6572
9.0754 3.6392 2.7886
3.9546 2.8389 1.3896
3.5964 4.2106 1.5823
3.6115 7.1880 2.3011
2.1656 9.4934 2.7886
-0.1660 9.7254 2.7886
-2.3476 8.8813 2.6362
-4.3990 8.0565 2.6362
-6.5518 7.1585 2.7886
-8.0704 5.3829 2.7886
-9.1226 3.2973 2.7886
-9.6483 1.0210 2.7886
-9.6171 -1.3156 2.7886
-9.0300 -3.5789 2.7886
-7.9198 -5.6386 2.7886
-6.3491 -7.3757 2.7886
-4.1664 -8.2141 2.6362
-2.2056 -9.5011 2.7886
0.0993 -7.5325 2.1514
2.4602 -9.4590 2.7886
4.0763 -7.5385 2.4432
6.5774 -7.2478 2.7886
8.1212 -5.4685 2.7886
9.0947 -3.3342 2.7587
9.1983 -1.0175 2.6362
9.2311 1.2170 2.6535
9.1082 3.5571 2.7886
3.9790 2.8022 1.3891
3.5960 4.1338 1.5655
3.6107 7.0271 2.2599
2.2515 9.4738 2.7886
-0.0779 9.7268 2.7886
-2.2672 8.9025 2.6362
-4.3260 8.0960 2.6362
-6.4868 7.2176 2.7886
-8.0214 5.4558 2.7886
-9.0924 3.3797 2.7886
-9.6385 1.1083 2.7886
-9.6284 -1.2286 2.7886
-9.0618 -3.4969 2.7886
-7.9702 -5.5665 2.7886
-6.4153 -7.3176 2.7886
-4.4855 -8.6483 2.7886
-2.2914 -9.4803 2.7886
0.0311 -7.5321 2.1512
2.3744 -9.4806 2.7886
3.9883 -7.5379 2.4312
6.5114 -7.3068 2.7886
8.0713 -5.5417 2.7886
9.0908 -3.4264 2.7668
9.1889 -1.1006 2.6362
9.2305 1.1317 2.6502
9.1403 3.4746 2.7886
4.0030 2.7653 1.3887
3.5956 4.0586 1.5492
3.6099 6.8719 2.2203
2.3373 9.4534 2.7886
0.0101 9.7276 2.7886
-2.1866 8.9230 2.6362
-4.2526 8.1351 2.6362
-6.4213 7.2762 2.7886
-7.9718 5.5281 2.7886
-9.0614 3.4618 2.7886
-9.6280 1.1954 2.7886
-9.6389 -1.1413 2.7886
-9.0928 -3.4147 2.7886
-8.0200 -5.4939 2.7886
-6.4810 -7.2589 2.7886
-2.9568 -5.5768 1.8068
-2.3770 -9.4588 2.7886
-0.0370 -7.5318 2.1512
1.9552 -8.1178 2.3825
3.9011 -7.5373 2.4196
6.4450 -7.3653 2.7886
8.0208 -5.6143 2.7886
9.0869 -3.5190 2.7752
9.1836 -1.1843 2.6376
9.2310 1.0474 2.6475
9.1716 3.3919 2.7886
4.0267 2.7282 1.3882
3.5952 3.9849 1.5334
3.4763 6.4746 2.1019
2.4228 9.4323 2.7886
0.0982 9.7275 2.7886
-2.1058 8.9427 2.6362
-4.1790 8.1734 2.6362
-6.3554 7.3341 2.7886
-7.9215 5.6001 2.7886
-9.0297 3.5437 2.7886
-9.6167 1.2826 2.7886
-9.6486 -1.0540 2.7886
-9.1231 -3.3321 2.7886
-8.0691 -5.4209 2.7886
-6.5462 -7.1997 2.7886
-3.0127 -5.5602 1.8103
-2.4624 -9.4365 2.7886
-0.1052 -7.5314 2.1513
1.7445 -7.5415 2.2087
3.8148 -7.5367 2.4083
6.3780 -7.4231 2.7886
7.9696 -5.6866 2.7886
9.0829 -3.6123 2.7838
9.1795 -1.2683 2.6396
9.2314 0.9629 2.6449
9.2022 3.3089 2.7886
4.0500 2.6908 1.3878
3.5949 3.9127 1.5180
3.5095 6.3967 2.0868
2.5082 9.4104 2.7886
0.1862 9.7271 2.7886
-2.0249 8.9617 2.6362
-4.1050 8.2111 2.6362
-6.2888 7.3915 2.7886
-7.8705 5.6717 2.7886
-8.9972 3.6253 2.7886
-9.6046 1.3696 2.7886
-9.6576 -0.9666 2.7886
-9.1526 -3.2493 2.7886
-8.1176 -5.3474 2.7886
-6.6108 -7.1399 2.7886
-4.7180 -8.5223 2.7886
-2.5475 -9.4135 2.7886
-0.1733 -7.5311 2.1517
1.6726 -7.5411 2.2042
3.7293 -7.5361 2.3974
6.3104 -7.4804 2.7886
7.9178 -5.7584 2.7886
9.0652 -3.7007 2.7886
9.1752 -1.3524 2.6417
9.2316 0.8786 2.6425
9.2320 3.2254 2.7886
4.0815 2.6589 1.3902
3.5945 3.8420 1.5031
3.5565 6.3457 2.0805
2.5933 9.3877 2.7886
0.2742 9.7248 2.7886
-1.9437 8.9800 2.6362
-4.0306 8.2482 2.6362
-6.2218 7.4482 2.7886
-7.8189 5.7428 2.7886
-8.9640 3.7066 2.7886
-9.5917 1.4564 2.7886
-9.6657 -0.8791 2.7886
-9.1814 -3.1662 2.7886
-8.1653 -5.2736 2.7886
-6.6749 -7.0795 2.7886
-4.7947 -8.4789 2.7886
-2.6325 -9.3896 2.7886
-0.2415 -7.5307 2.1522
1.6011 -7.5407 2.1998
3.6445 -7.5356 2.3866
6.2424 -7.5371 2.7886
7.8653 -5.8298 2.7886
9.0314 -3.7825 2.7886
9.1707 -1.4366 2.6440
9.2317 0.7944 2.6403
9.2557 3.1401 2.7869
4.1623 2.6582 1.4094
3.5942 3.7726 1.4885
3.6070 6.3014 2.0765
2.6783 9.3642 2.7886
0.3622 9.7223 2.7886
-1.8624 8.9975 2.6362
-3.9558 8.2846 2.6362
-6.1542 7.5044 2.7886
-7.7667 5.8134 2.7886
-8.9301 3.7876 2.7886
-9.5780 1.5432 2.7886
-9.6731 -0.7915 2.7886
-9.2094 -3.0830 2.7886
-8.2124 -5.1993 2.7886
-6.7384 -7.0185 2.7886
-4.8711 -8.4348 2.7886
-2.7173 -9.3650 2.7886
-0.3307 -8.0421 2.2992
1.5298 -7.5403 2.1956
3.5605 -7.5350 2.3762
6.1738 -7.5931 2.7886
7.8121 -5.9007 2.7886
8.9968 -3.8640 2.7886
9.1660 -1.5210 2.6465
9.2315 0.7104 2.6383
9.2549 3.0468 2.7782
4.2455 2.6575 1.4293
3.5938 3.7046 1.4744
3.6063 6.1701 2.0438
2.7630 9.3400 2.7886
0.4502 9.7191 2.7886
-1.7810 9.0143 2.6362
-3.8808 8.3203 2.6362
-6.0861 7.5599 2.7886
-7.7138 5.8835 2.7886
-8.8955 3.8682 2.7886
-9.5635 1.6297 2.7886
-9.6797 -0.7040 2.7886
-9.2366 -2.9994 2.7886
-8.2589 -5.1246 2.7886
-6.8014 -6.9570 2.7886
-4.9470 -8.3900 2.7886
-2.8018 -9.3397 2.7886
-0.4055 -8.0778 2.3105
1.4588 -7.5399 2.1916
3.4772 -7.5345 2.3661
6.1047 -7.6485 2.7886
7.7584 -5.9710 2.7886
8.9615 -3.9452 2.7886
9.1612 -1.6054 2.6492
9.2312 0.6245 2.6364
9.2541 2.9541 2.7698
4.3310 2.6569 1.4499
3.5935 3.6378 1.4606
3.6057 6.0428 2.0122
2.8476 9.3150 2.7886
0.5382 9.7150 2.7886
-1.6994 9.0304 2.6362
-3.8054 8.3553 2.6362
-6.0176 7.6149 2.7886
-7.6604 5.9531 2.7886
-8.8601 3.9486 2.7886
-9.5483 1.7162 2.7886
-9.6855 -0.6163 2.7886
-9.2631 -2.9156 2.7886
-8.3046 -5.0494 2.7886
-6.8638 -6.8949 2.7886
-5.0225 -8.3446 2.7886
-2.8861 -9.3135 2.7886
-0.4826 -8.1425 2.3302
1.3881 -7.5395 2.1879
3.3946 -7.5339 2.3563
6.0352 -7.7032 2.7886
7.7040 -6.0408 2.7886
8.9254 -4.0261 2.7886
9.1566 -1.6901 2.6521
9.2358 0.5428 2.6362
9.2533 2.8618 2.7616
4.4191 2.6561 1.4713
3.5932 3.5722 1.4472
3.6051 5.9193 1.9818
2.9319 9.2892 2.7886
0.6261 9.7101 2.7886
-1.6177 9.0457 2.6362
-3.7298 8.3896 2.6362
-5.9485 7.6692 2.7886
-7.6062 6.0223 2.7886
-8.8240 4.0287 2.7886
-9.5323 1.8026 2.7886
-9.6905 -0.5286 2.7886
-9.2889 -2.8315 2.7886
-8.3497 -4.9739 2.7886
-6.9257 -6.8322 2.7886
-5.0976 -8.2984 2.7886
-2.9701 -9.2867 2.7886
-0.6657 -9.7381 2.7886
1.3176 -7.5391 2.1843
3.3127 -7.5334 2.3467
5.9651 -7.7574 2.7886
7.6489 -6.1103 2.7886
8.8886 -4.1068 2.7886
9.1538 -1.7755 2.6558
9.2405 0.4592 2.6362
9.2524 2.7700 2.7536
4.5099 2.6554 1.4934
3.5928 3.5077 1.4342
3.6045 5.7994 1.9525
3.0159 9.2627 2.7886
0.7140 9.7044 2.7886
-1.5358 9.0603 2.6362
-3.6538 8.4233 2.6362
-5.8790 7.7229 2.7886
-7.5515 6.0910 2.7886
-8.7872 4.1084 2.7886
-9.5155 1.8888 2.7886
-9.6947 -0.4408 2.7886
-9.3139 -2.7472 2.7886
-8.3941 -4.8979 2.7886
-6.9869 -6.7689 2.7886
-5.1723 -8.2516 2.7886
-3.0539 -9.2590 2.7886
-0.7537 -9.7313 2.7886
1.2473 -7.5387 2.1809
3.2525 -7.5819 2.3526
5.8945 -7.8108 2.7886
7.5933 -6.1790 2.7886
8.8511 -4.1869 2.7886
9.1508 -1.8610 2.6597
9.2444 0.3757 2.6362
9.2515 2.6789 2.7460
4.6032 2.6546 1.5162
3.5925 3.4446 1.4215
3.6039 5.6833 1.9242
3.0997 9.2355 2.7886
0.8018 9.6979 2.7886
-1.4538 9.0742 2.6362
-3.5775 8.4563 2.6362
-5.8090 7.7759 2.7886
-7.4961 6.1591 2.7886
-8.7496 4.1878 2.7886
-9.4979 1.9749 2.7886
-9.6981 -0.3530 2.7886
-9.3381 -2.6627 2.7886
-8.4378 -4.8216 2.7886
-7.0477 -6.7051 2.7886
-5.2466 -8.2041 2.7886
-3.1374 -9.2306 2.7886
-0.8417 -9.7237 2.7886
1.1773 -7.5383 2.1777
3.2515 -7.7727 2.4027
5.8236 -7.8636 2.7886
7.5370 -6.2474 2.7886
8.8129 -4.2668 2.7886
9.1479 -1.9466 2.6639
9.2476 0.2920 2.6362
9.2505 2.5882 2.7385
4.6996 2.6539 1.5399
3.5922 3.3824 1.4092
3.6033 5.5703 1.8968
3.1833 9.2074 2.7886
0.8896 9.6907 2.7886
-1.3716 9.0873 2.6362
-3.5009 8.4886 2.6362
-5.7385 7.8284 2.7886
-7.4401 6.2268 2.7886
-8.7114 4.2668 2.7886
-9.4796 2.0608 2.7886
-9.7007 -0.2652 2.7886
-9.3616 -2.5780 2.7886
-8.4808 -4.7448 2.7886
-7.1078 -6.6408 2.7886
-5.3204 -8.1559 2.7886
-3.2206 -9.2015 2.7886
-0.9295 -9.7153 2.7886
1.1076 -7.5379 2.1746
3.2505 -7.9721 2.4552
5.7521 -7.9158 2.7886
7.4801 -6.3153 2.7886
8.7739 -4.3463 2.7886
9.1449 -2.0326 2.6682
9.2500 0.2084 2.6362
9.2495 2.4979 2.7314
4.7990 2.6531 1.5646
3.5919 3.3213 1.3972
3.6027 5.4604 1.8703
3.2667 9.1786 2.7886
0.9773 9.6826 2.7886
-1.2893 9.0996 2.6362
-3.4240 8.5202 2.6362
-5.6675 7.8802 2.7886
-7.3836 6.2940 2.7886
-8.6724 4.3455 2.7886
-9.4604 2.1465 2.7886
-9.7026 -0.1774 2.7886
-9.3843 -2.4931 2.7886
-8.5231 -4.6677 2.7886
-7.1672 -6.5761 2.7886
-5.3936 -8.1072 2.7886
-3.3036 -9.1716 2.7886
-1.0173 -9.7061 2.7886
1.0380 -7.5375 2.1718
3.1844 -8.0169 2.4601
5.6801 -7.9673 2.7886
7.4225 -6.3826 2.7886
8.7342 -4.4255 2.7886
9.1418 -2.1189 2.6728
9.2517 0.1247 2.6362
9.2485 2.4080 2.7245
4.9018 2.6522 1.5901
3.6166 3.2840 1.3951
3.6022 5.3536 1.8447
3.3497 9.1491 2.7886
1.0649 9.6738 2.7886
-1.2070 9.1112 2.6362
-3.3468 8.5510 2.6362
-5.5960 7.9313 2.7886
-7.3264 6.3607 2.7886
-8.6327 4.4239 2.7886
-9.4406 2.2320 2.7886
-9.7036 -0.0896 2.7886
-9.4062 -2.4081 2.7886
-8.5647 -4.5904 2.7886
-7.2262 -6.5107 2.7886
-5.4665 -8.0577 2.7886
-3.3863 -9.1409 2.7886
-1.1051 -9.6961 2.7886
0.9685 -7.5371 2.1692
3.1130 -8.0485 2.4611
5.6077 -8.0182 2.7886
7.3644 -6.4494 2.7886
8.6938 -4.5043 2.7886
9.1387 -2.2055 2.6776
9.2526 0.0410 2.6362
9.2474 2.3186 2.7178
5.0079 2.6513 1.6166
3.6452 3.2503 1.3947
3.6017 5.2496 1.8200
3.4325 9.1188 2.7886
1.1525 9.6641 2.7886
-1.1245 9.1221 2.6362
-3.2694 8.5813 2.6362
-5.5241 7.9819 2.7886
-7.2686 6.4268 2.7886
-8.5923 4.5019 2.7886
-9.4199 2.3172 2.7886
-9.7038 -0.0019 2.7886
-9.4274 -2.3228 2.7886
-8.6056 -4.5125 2.7886
-7.2845 -6.4448 2.7886
-5.5390 -8.0076 2.7886
-3.2792 -8.6117 2.6362
-1.1927 -9.6853 2.7886
0.8992 -7.5367 2.1667
3.0479 -8.0973 2.4676
5.5348 -8.0684 2.7886
7.3056 -6.5157 2.7886
8.6526 -4.5828 2.7886
9.1355 -2.2923 2.6826
9.2528 -0.0428 2.6362
9.2463 2.2296 2.7114
5.1176 2.6504 1.6442
3.6735 3.2163 1.3943
3.6012 5.1483 1.7960
3.5151 9.0877 2.7886
1.2400 9.6537 2.7886
-1.0538 9.2364 2.6662
-3.1917 8.6108 2.6362
-5.4518 8.0318 2.7886
-7.2103 6.4923 2.7886
-8.5513 4.5794 2.7886
-9.3985 2.4024 2.7886
-9.7033 0.0860 2.7886
-9.4478 -2.2373 2.7886
-8.6458 -4.4343 2.7886
-7.3423 -6.3783 2.7886
-5.6110 -7.9568 2.7886
-3.3568 -8.5813 2.6362
-1.2803 -9.6737 2.7886
0.8301 -7.5363 2.1644
2.9906 -8.1685 2.4810
5.4614 -8.1180 2.7886
7.2463 -6.5814 2.7886
8.6108 -4.6608 2.7886
9.1323 -2.3796 2.6878
9.2521 -0.1265 2.6362
9.2452 2.1410 2.7052
5.2312 2.6495 1.6729
3.7015 3.1821 1.3938
3.6007 5.0497 1.7729
3.5973 9.0559 2.7886
1.3274 9.6425 2.7886
-1.0149 9.6702 2.7886
-3.1138 8.6395 2.6362
-5.3791 8.0807 2.7886
-7.1513 6.5574 2.7886
-8.5095 4.6566 2.7886
-9.3763 2.4874 2.7886
-9.7020 0.1738 2.7886
-9.4674 -2.1516 2.7886
-8.6853 -4.3557 2.7886
-7.3994 -6.3114 2.7886
-5.6826 -7.9053 2.7886
-3.4342 -8.5502 2.6362
-1.3677 -9.6613 2.7886
0.7611 -7.5360 2.1623
2.9479 -8.2832 2.5077
4.9772 -7.5447 2.5761
7.1863 -6.6466 2.7886
8.5682 -4.7386 2.7886
9.1290 -2.4671 2.6933
9.2508 -0.2102 2.6362
9.2441 2.0528 2.6992
5.3488 2.6485 1.7027
3.7291 3.1476 1.3934
3.6002 4.9536 1.7504
3.6792 9.0234 2.7886
1.4145 9.6305 2.7886
-0.9273 9.6793 2.7886
-3.0356 8.6676 2.6362
-5.3058 8.1294 2.7886
-7.0918 6.6220 2.7886
-8.4671 4.7335 2.7886
-9.3533 2.5722 2.7886
-9.6998 0.2617 2.7886
-9.4863 -2.0658 2.7886
-8.7241 -4.2767 2.7886
-7.4560 -6.2439 2.7886
-5.7537 -7.8533 2.7886
-3.5113 -8.5184 2.6362
-1.4550 -9.6481 2.7886
0.6922 -7.5356 2.1604
3.1945 -9.2399 2.7886
4.8793 -7.5440 2.5608
7.1258 -6.7113 2.7886
8.5250 -4.8158 2.7886
9.1257 -2.5550 2.6990
9.2486 -0.2939 2.6362
9.2429 1.9650 2.6935
5.4707 2.6475 1.7337
3.7564 3.1130 1.3930
3.5997 4.8600 1.7287
3.7608 8.9901 2.7886
1.5016 9.6177 2.7886
-0.8397 9.6877 2.7886
-2.9571 8.6950 2.6362
-5.2321 8.1773 2.7886
-7.0316 6.6860 2.7886
-8.4239 4.8100 2.7886
-9.3296 2.6567 2.7886
-9.6969 0.3495 2.7886
-9.5044 -1.9798 2.7886
-8.7622 -4.1975 2.7886
-7.5119 -6.1759 2.7886
-5.8243 -7.8005 2.7886
-3.5881 -8.4859 2.6362
-1.5422 -9.6342 2.7886
0.6235 -7.5352 2.1587
3.1106 -9.2681 2.7886
4.7827 -7.5433 2.5458
7.0647 -6.7754 2.7886
8.4810 -4.8928 2.7886
9.1224 -2.6433 2.7050
9.2457 -0.3775 2.6362
9.2416 1.8776 2.6880
8.8376 4.1789 2.7886
3.7834 3.0780 1.3925
3.5992 4.7685 1.7076
3.8422 8.9561 2.7886
1.5887 9.6041 2.7886
-0.7520 9.6952 2.7886
-2.8784 8.7217 2.6362
-5.1580 8.2245 2.7886
-2.8558 2.7651 1.1424
-8.3801 4.8861 2.7886
-9.3051 2.7411 2.7886
-9.6932 0.4372 2.7886
-9.5217 -1.8936 2.7886
-8.7995 -4.1178 2.7886
-7.5672 -6.1074 2.7886
-5.8944 -7.7472 2.7886
-3.6646 -8.4527 2.6362
-1.6293 -9.6194 2.7886
0.5548 -7.5348 2.1571
3.0266 -9.2956 2.7886
4.6871 -7.5427 2.5312
7.0030 -6.8389 2.7886
8.4363 -4.9692 2.7886
9.1189 -2.7318 2.7112
9.2421 -0.4610 2.6362
9.2404 1.7905 2.6828
8.8754 4.0988 2.7886
3.8100 3.0428 1.3921
3.5988 4.6792 1.6871
3.9233 8.9213 2.7886
1.6756 9.5897 2.7886
-0.6642 9.7020 2.7886
-2.7994 8.7477 2.6362
-5.0835 8.2711 2.7886
-2.8103 2.7708 1.1342
-8.3355 4.9618 2.7886
-9.2799 2.8252 2.7886
-9.6887 0.5249 2.7886
-9.5382 -1.8073 2.7886
-8.8362 -4.0379 2.7886
-7.6219 -6.0385 2.7886
-5.9640 -7.6932 2.7886
-3.7408 -8.4188 2.6362
-1.7162 -9.6039 2.7886
0.4863 -7.5345 2.1558
2.9422 -9.3223 2.7886
4.5926 -7.5420 2.5170
6.9409 -6.9018 2.7886
8.3911 -5.0452 2.7886
9.1155 -2.8209 2.7176
9.2377 -0.5446 2.6362
9.2391 1.7037 2.6777
8.9124 4.0185 2.7886
3.8363 3.0074 1.3917
3.5983 4.5921 1.6673
4.0040 8.8858 2.7886
1.7624 9.5745 2.7886
-0.5764 9.7080 2.7886
-2.7202 8.7729 2.6362
-5.0085 8.3172 2.7886
-2.7870 2.7980 1.1349
-8.2903 5.0370 2.7886
-9.2539 2.9091 2.7886
-9.6834 0.6126 2.7886
-9.5539 -1.7208 2.7886
-8.8721 -3.9576 2.7886
-7.6760 -5.9690 2.7886
-6.0332 -7.6386 2.7886
-3.8167 -8.3843 2.6362
-1.8029 -9.5876 2.7886
0.4180 -7.5341 2.1546
2.8578 -9.3482 2.7886
4.4994 -7.5414 2.5032
6.8780 -6.9642 2.7886
8.3450 -5.1209 2.7886
9.1119 -2.9104 2.7243
9.2325 -0.6282 2.6362
9.2377 1.6171 2.6729
8.9487 3.9378 2.7886
3.8623 2.9717 1.3912
3.5979 4.5069 1.6481
4.0844 8.8496 2.7886
1.8491 9.5586 2.7886
-0.4885 9.7132 2.7886
-2.6407 8.7975 2.6362
-4.9331 8.3622 2.7886
-2.7897 2.8519 1.1465
-8.2444 5.1119 2.7886
-9.2271 2.9927 2.7886
-9.6773 0.7003 2.7886
-9.5689 -1.6342 2.7886
-8.9073 -3.8770 2.7886
-7.7294 -5.8990 2.7886
-6.1018 -7.5834 2.7886
-3.8921 -8.3491 2.6362
-1.8894 -9.5705 2.7886
0.3496 -7.5338 2.1536
2.7730 -9.3733 2.7886
4.4070 -7.5407 2.4897
6.8146 -7.0260 2.7886
8.2983 -5.1962 2.7886
9.1083 -3.0003 2.7312
9.2266 -0.7117 2.6362
9.2364 1.5309 2.6684
8.9842 3.8568 2.7886
3.8879 2.9358 1.3908
3.5975 4.4237 1.6294
4.1646 8.8127 2.7886
1.9356 9.5419 2.7886
-0.4006 9.7176 2.7886
-2.5611 8.8213 2.6362
-4.8573 8.4067 2.7886
-6.7224 6.9979 2.7886
-8.1978 5.1864 2.7886
-9.1996 3.0761 2.7886
-9.6705 0.7879 2.7886
-9.5831 -1.5475 2.7886
-8.9417 -3.7961 2.7886
-7.7821 -5.8288 2.7886
-6.1698 -7.5276 2.7886
-3.9673 -8.3132 2.6362
-1.9758 -9.5526 2.7886
0.2813 -7.5334 2.1527
2.6880 -9.3977 2.7886
4.3156 -7.5401 2.4766
6.7507 -7.0873 2.7886
8.2509 -5.2710 2.7886
9.1047 -3.0907 2.7384
9.2199 -0.7952 2.6362
9.2350 1.4451 2.6640
9.0190 3.7755 2.7886
3.9132 2.8997 1.3903
3.5971 4.3423 1.6113
4.2443 8.7750 2.7886
2.0220 9.5243 2.7886
-0.3126 9.7212 2.7886
-2.4812 8.8444 2.6362
-4.5199 7.9887 2.6362
-6.6589 7.0586 2.7886
-8.1506 5.2604 2.7886
-9.1714 3.1593 2.7886
-9.6628 0.8754 2.7886
-9.5965 -1.4608 2.7886
-8.9754 -3.7150 2.7886
-7.8342 -5.7579 2.7886
-6.2374 -7.4712 2.7886
-4.0422 -8.2766 2.6362
-2.0621 -9.5339 2.7886
0.2130 -7.5330 2.1521
2.6028 -9.4214 2.7886
4.2251 -7.5395 2.4638
6.6861 -7.1479 2.7886
8.2028 -5.3454 2.7886
9.1010 -3.1816 2.7458
9.2124 -0.8785 2.6362
9.2335 1.3593 2.6599
9.0531 3.6939 2.7886
3.9382 2.8633 1.3899
3.5967 4.2627 1.5937
4.3237 8.7366 2.7886
2.1082 9.5060 2.7886
-0.2246 9.7240 2.7886
-2.4011 8.8668 2.6362
-4.4475 8.0292 2.6362
-6.5948 7.1187 2.7886
-8.1027 5.3340 2.7886
-9.1424 3.2420 2.7886
-9.6544 0.9626 2.7886
-9.6091 -1.3738 2.7886
-9.0084 -3.6335 2.7886
-7.8858 -5.6865 2.7886
-6.3046 -7.4141 2.7886
-4.1168 -8.2393 2.6362
-2.1482 -9.5145 2.7886
0.1448 -7.5327 2.1516
2.5174 -9.4442 2.7886
4.1356 -7.5389 2.4513
6.6211 -7.2080 2.7886
8.1541 -5.4193 2.7886
9.0972 -3.2729 2.7534
9.2042 -0.9619 2.6362
9.2321 1.2738 2.6560
9.0864 3.6119 2.7886
3.9628 2.8268 1.3894
3.5963 4.1848 1.5766
3.6112 7.1338 2.2872
2.1942 9.4870 2.7886
-0.1366 9.7258 2.7886
-2.3208 8.8885 2.6362
-4.3748 8.0696 2.6362
-6.5303 7.1781 2.7886
-8.0542 5.4071 2.7886
-9.1127 3.3246 2.7886
-9.6452 1.0500 2.7886
-9.6209 -1.2868 2.7886
-9.0406 -3.5517 2.7886
-7.9366 -5.6147 2.7886
-6.3711 -7.3564 2.7886
-4.1910 -8.2014 2.6362
-2.2342 -9.4943 2.7886
0.0767 -7.5323 2.1513
2.4317 -9.4663 2.7886
4.0470 -7.5383 2.4392
6.5555 -7.2675 2.7886
8.1047 -5.4928 2.7886
9.0934 -3.3648 2.7614
9.1953 -1.0451 2.6362
9.2305 1.1885 2.6523
9.1190 3.5296 2.7886
3.9870 2.7900 1.3890
3.5959 4.1085 1.5600
3.6104 6.9748 2.2465
2.2801 9.4671 2.7886
-0.0487 9.7272 2.7886
-2.2405 8.9094 2.6362
-4.3017 8.1090 2.6362
-6.4652 7.2371 2.7886
-8.0050 5.4798 2.7886
-9.0822 3.4070 2.7886
-9.6351 1.1372 2.7886
-9.6320 -1.1996 2.7886
-9.0722 -3.4696 2.7886
-7.9868 -5.5424 2.7886
-6.4372 -7.2982 2.7886
-2.9483 -5.6430 1.8226
-2.3199 -9.4733 2.7886
0.0085 -7.5320 2.1512
2.3459 -9.4876 2.7886
3.9592 -7.5377 2.4274
6.4894 -7.3264 2.7886
8.0546 -5.5659 2.7886
9.0895 -3.4571 2.7696
9.1862 -1.1290 2.6364
9.2307 1.1038 2.6493
9.1508 3.4471 2.7886
4.0109 2.7530 1.3885
3.5955 4.0338 1.5439
3.4799 6.5764 2.1282
2.3656 9.4465 2.7886
0.0393 9.7273 2.7886
-2.1598 8.9296 2.6362
-4.2283 8.1479 2.6362
-6.3995 7.2955 2.7886
-7.9551 5.5521 2.7886
-9.0509 3.4891 2.7886
-9.6243 1.2244 2.7886
-9.6422 -1.1123 2.7886
-9.1029 -3.3873 2.7886
-8.0364 -5.4697 2.7886
-6.5027 -7.2393 2.7886
-2.9739 -5.5685 1.8070
-2.4054 -9.4515 2.7886
-0.0597 -7.5317 2.1512
1.9223 -8.0878 2.3720
3.8723 -7.5371 2.4158
6.4227 -7.3846 2.7886
8.0038 -5.6385 2.7886
9.0855 -3.5501 2.7780
9.1822 -1.2123 2.6382
9.2312 1.0192 2.6466
9.1819 3.3642 2.7886
4.0345 2.7158 1.3881
3.5951 3.9608 1.5283
3.4851 6.4444 2.0955
2.4511 9.4251 2.7886
0.1274 9.7272 2.7886
-2.0790 8.9491 2.6362
-4.1544 8.1860 2.6362
-6.3333 7.3532 2.7886
-7.9046 5.6240 2.7886
-9.0190 3.5709 2.7886
-9.6127 1.3115 2.7886
-9.6517 -1.0250 2.7886
-9.1330 -3.3046 2.7886
-8.0853 -5.3965 2.7886
-6.5677 -7.1799 2.7886
-3.0403 -5.5709 1.8168
-2.4908 -9.4290 2.7886
-0.1278 -7.5313 2.1514
1.7205 -7.5414 2.2072
3.7862 -7.5365 2.4046
6.3555 -7.4423 2.7886
7.9524 -5.7106 2.7886
9.0815 -3.6435 2.7868
9.1780 -1.2963 2.6403
9.2315 0.9350 2.6441
9.2122 3.2813 2.7886
4.0577 2.6784 1.3876
3.5948 3.8891 1.5130
3.5239 6.3776 2.0839
2.5365 9.4029 2.7886
0.2154 9.7261 2.7886
-1.9979 8.9679 2.6362
-4.0803 8.2235 2.6362
-6.2666 7.4104 2.7886
-7.8535 5.6954 2.7886
-8.9863 3.6524 2.7886
-9.6004 1.3984 2.7886
-9.6604 -0.9375 2.7886
-9.1622 -3.2217 2.7886
-8.1335 -5.3229 2.7886
-6.6322 -7.1199 2.7886
-4.7436 -8.5079 2.7886
-2.5759 -9.4056 2.7886
-0.1960 -7.5310 2.1519
1.6487 -7.5410 2.2027
3.7009 -7.5360 2.3938
6.2878 -7.4994 2.7886
7.9004 -5.7821 2.7886
9.0541 -3.7278 2.7886
9.1737 -1.3803 2.6424
9.2316 0.8507 2.6418
9.2418 3.1980 2.7886
4.1081 2.6586 1.3965
3.5944 3.8188 1.4982
3.5743 6.3327 2.0797
2.6216 9.3800 2.7886
0.3035 9.7241 2.7886
-1.9169 8.9859 2.6362
-4.0056 8.2604 2.6362
-6.1995 7.4669 2.7886
-7.8015 5.7664 2.7886
-8.9529 3.7334 2.7886
-9.5872 1.4855 2.7886
-9.6683 -0.8502 2.7886
-9.1908 -3.1384 2.7886
-8.1810 -5.2490 2.7886
-6.6962 -7.0591 2.7886
-4.8201 -8.4644 2.7886
-2.6609 -9.3815 2.7886
-0.2815 -8.0287 2.2948
1.5772 -7.5405 2.1984
3.6166 -7.5354 2.3832
6.2197 -7.5557 2.7886
7.8477 -5.8533 2.7886
9.0200 -3.8095 2.7886
9.1691 -1.4646 2.6448
9.2316 0.7665 2.6396
9.2555 3.1090 2.7840
4.1897 2.6580 1.4160
3.5941 3.7499 1.4838
3.6068 6.2573 2.0655
2.7065 9.3563 2.7886
0.3915 9.7213 2.7886
-1.8354 9.0032 2.6362
-3.9309 8.2965 2.6362
-6.1316 7.5229 2.7886
-7.7492 5.8367 2.7886
-8.9186 3.8145 2.7886
-9.5733 1.5720 2.7886
-9.6754 -0.7624 2.7886
-9.2185 -3.0551 2.7886
-8.2280 -5.1745 2.7886
-6.7595 -6.9981 2.7886
-4.8964 -8.4200 2.7886
-2.7455 -9.3567 2.7886
-0.3555 -8.0517 2.3023
1.5061 -7.5401 2.1943
3.5326 -7.5348 2.3728
6.1508 -7.6116 2.7886
7.7943 -5.9242 2.7886
8.9851 -3.8911 2.7886
9.1644 -1.5492 2.6474
9.2315 0.6825 2.6377
9.2547 3.0157 2.7754
4.2738 2.6573 1.4362
3.5937 3.6821 1.4697
3.6061 6.1271 2.0331
2.7910 9.3318 2.7886
0.4793 9.7178 2.7886
-1.7540 9.0197 2.6362
-3.8559 8.3319 2.6362
-6.0635 7.5782 2.7886
-7.6962 5.9066 2.7886
-8.8838 3.8949 2.7886
-9.5586 1.6584 2.7886
-9.6817 -0.6749 2.7886
-9.2455 -2.9716 2.7886
-8.2741 -5.0997 2.7886
-6.8221 -6.9364 2.7886
-4.9721 -8.3750 2.7886
-2.8297 -9.3311 2.7886
-0.4307 -8.0950 2.3158
1.4354 -7.5397 2.1904
3.4497 -7.5343 2.3628
6.0817 -7.6667 2.7886
7.7404 -5.9942 2.7886
8.9496 -3.9721 2.7886
9.1595 -1.6335 2.6501
9.2322 0.5986 2.6362
9.2539 2.9234 2.7670
4.3600 2.6566 1.4569
3.5934 3.6158 1.4561
3.6055 6.0013 2.0020
2.8756 9.3065 2.7886
0.5675 9.7138 2.7886
-1.6722 9.0356 2.6362
-3.7803 8.3668 2.6362
-5.9947 7.6331 2.7886
-7.6424 5.9762 2.7886
-8.8481 3.9753 2.7886
-9.5430 1.7450 2.7886
-9.6872 -0.5871 2.7886
-9.2718 -2.8876 2.7886
-8.3197 -5.0243 2.7886
-6.8845 -6.8740 2.7886
-5.0476 -8.3293 2.7886
-2.9141 -9.3047 2.7886
-0.5094 -8.1762 2.3403
1.3646 -7.5393 2.1866
3.3672 -7.5338 2.3530
6.0118 -7.7213 2.7886
7.6856 -6.0641 2.7886
8.9132 -4.0531 2.7886
9.1557 -1.7185 2.6533
9.2374 0.5149 2.6362
9.2530 2.8314 2.7589
4.4488 2.6559 1.4785
3.5930 3.5508 1.4429
3.6049 5.8793 1.9720
2.9597 9.2806 2.7886
0.6552 9.7083 2.7886
-1.5906 9.0506 2.6362
-3.7046 8.4009 2.6362
-5.9256 7.6870 2.7886
-7.5882 6.0451 2.7886
-8.8118 4.0551 2.7886
-9.5268 1.8312 2.7886
-9.6920 -0.4995 2.7886
-9.2973 -2.8036 2.7886
-8.3645 -4.9488 2.7886
-6.9460 -6.8113 2.7886
-5.1224 -8.2830 2.7886
-2.9979 -9.2776 2.7886
-0.6949 -9.7359 2.7886
1.2943 -7.5389 2.1831
3.2857 -7.5332 2.3436
5.9417 -7.7752 2.7886
7.6305 -6.1332 2.7886
8.8762 -4.1334 2.7886
9.1528 -1.8036 2.6571
9.2419 0.4314 2.6362
9.2521 2.7397 2.7511
4.5405 2.6552 1.5009
3.5927 3.4866 1.4299
3.6043 5.7605 1.9430
3.0439 9.2538 2.7886
0.7432 9.7023 2.7886
-1.5085 9.0650 2.6362
-3.6284 8.4344 2.6362
-5.8557 7.7406 2.7886
-7.5331 6.1137 2.7886
-8.7747 4.1349 2.7886
-9.5097 1.9175 2.7886
-9.6959 -0.4116 2.7886
-9.3221 -2.7191 2.7886
-8.4087 -4.8725 2.7886
-7.0072 -6.7477 2.7886
-5.1971 -8.2358 2.7886
-3.0818 -9.2496 2.7886
-0.7831 -9.7288 2.7886
1.2240 -7.5385 2.1798
3.2521 -7.6448 2.3691
5.8712 -7.8283 2.7886
7.5747 -6.2017 2.7886
8.8385 -4.2134 2.7886
9.1499 -1.8891 2.6611
9.2455 0.3480 2.6362
9.2512 2.6488 2.7435
4.6348 2.6544 1.5240
3.5924 3.4239 1.4174
3.6037 5.6455 1.9150
3.1275 9.2263 2.7886
0.8309 9.6958 2.7886
-1.4266 9.0786 2.6362
-3.5521 8.4670 2.6362
-5.7856 7.7934 2.7886
-7.4776 6.1816 2.7886
-8.7370 4.2140 2.7886
-9.4919 2.0034 2.7886
-9.6990 -0.3239 2.7886
-9.3460 -2.6347 2.7886
-8.4521 -4.7962 2.7886
-7.0676 -6.6839 2.7886
-5.2711 -8.1882 2.7886
-3.1651 -9.2210 2.7886
-0.8709 -9.7210 2.7886
1.1541 -7.5381 2.1766
3.2512 -7.8382 2.4199
5.7998 -7.8811 2.7886
7.5181 -6.2701 2.7886
8.7999 -4.2933 2.7886
9.1469 -1.9752 2.6653
9.2485 0.2642 2.6362
9.2502 2.5580 2.7361
4.7324 2.6536 1.5480
3.5921 3.3619 1.4051
3.6031 5.5333 1.8879
3.2111 9.1979 2.7886
0.9188 9.6881 2.7886
-1.3442 9.0915 2.6362
-3.4753 8.4992 2.6362
-5.7148 7.8457 2.7886
-7.4213 6.2493 2.7886
-8.6984 4.2931 2.7886
-9.4733 2.0893 2.7886
-9.7014 -0.2360 2.7886
-9.3693 -2.5497 2.7886
-8.4950 -4.7192 2.7886
-7.1277 -6.6193 2.7886
-5.3449 -8.1397 2.7886
-3.2481 -9.1917 2.7886
-0.9586 -9.7123 2.7886
1.0845 -7.5377 2.1737
3.2359 -8.0049 2.4623
5.7283 -7.9330 2.7886
7.4611 -6.3376 2.7886
8.7608 -4.3726 2.7886
9.1439 -2.0611 2.6697
9.2507 0.1806 2.6362
9.2492 2.4680 2.7291
4.8327 2.6528 1.5729
3.5973 3.3063 1.3954
3.6026 5.4247 1.8618
3.2942 9.1689 2.7886
1.0064 9.6798 2.7886
-1.2621 9.1036 2.6362
-3.3985 8.5305 2.6362
-5.6438 7.8972 2.7886
-7.3647 6.3162 2.7886
-8.6593 4.3716 2.7886
-9.4539 2.1749 2.7886
-9.7030 -0.1483 2.7886
-9.3917 -2.4649 2.7886
-8.5370 -4.6421 2.7886
-7.1869 -6.5543 2.7886
-5.4180 -8.0908 2.7886
-3.3312 -9.1614 2.7886
-1.0466 -9.7028 2.7886
1.0148 -7.5373 2.1709
3.1599 -8.0256 2.4599
5.6560 -7.9844 2.7886
7.4032 -6.4049 2.7886
8.7208 -4.4518 2.7886
9.1408 -2.1477 2.6743
9.2521 0.0968 2.6362
9.2481 2.3782 2.7222
4.9367 2.6519 1.5988
3.6262 3.2727 1.3950
3.6020 5.3186 1.8364
3.3774 9.1390 2.7886
1.0941 9.6706 2.7886
-1.1795 9.1150 2.6362
-3.3211 8.5612 2.6362
-5.5721 7.9481 2.7886
-7.3072 6.3828 2.7886
-8.6193 4.4499 2.7886
-9.4338 2.2605 2.7886
-9.7038 -0.0603 2.7886
-9.4133 -2.3799 2.7886
-8.5783 -4.5646 2.7886
-7.2456 -6.4889 2.7886
-5.4906 -8.0412 2.7886
-3.2271 -8.6316 2.6362
-1.1341 -9.6926 2.7886
0.9455 -7.5370 2.1683
3.0907 -8.0626 2.4626
5.5836 -8.0349 2.7886
7.3450 -6.4714 2.7886
8.6802 -4.5304 2.7886
9.1376 -2.2342 2.6792
9.2527 0.0132 2.6362
9.2471 2.2891 2.7156
5.0439 2.6511 1.6256
3.6546 3.2390 1.3945
3.6015 5.2157 1.8120
3.4599 9.1086 2.7886
1.1815 9.6608 2.7886
-1.0971 9.1256 2.6362
-3.2437 8.5911 2.6362
-5.5002 7.9984 2.7886
-7.2493 6.4486 2.7886
-8.5788 4.5276 2.7886
-9.4129 2.3456 2.7886
-9.7037 0.0274 2.7886
-9.4343 -2.2943 2.7886
-8.6191 -4.4865 2.7886
-7.3038 -6.4227 2.7886
-5.5631 -7.9907 2.7886
-3.3051 -8.6016 2.6362
-1.2219 -9.6815 2.7886
0.8761 -7.5366 2.1659
3.0278 -8.1180 2.4711
5.5104 -8.0850 2.7886
7.2859 -6.5377 2.7886
8.6388 -4.6088 2.7886
9.1345 -2.3214 2.6843
9.2526 -0.0707 2.6362
9.2460 2.2000 2.7093
5.1551 2.6501 1.6536
3.6829 3.2049 1.3941
3.6010 5.1152 1.7882
3.5425 9.0772 2.7886
1.2691 9.6500 2.7886
-1.0426 9.3900 2.7096
-3.1657 8.6204 2.6362
-5.4278 8.0481 2.7886
-7.1908 6.5140 2.7886
-8.5376 4.6050 2.7886
-9.3912 2.4306 2.7886
-9.7029 0.1151 2.7886
-9.4544 -2.2089 2.7886
-8.6590 -4.4083 2.7886
-7.3613 -6.3562 2.7886
-5.6348 -7.9398 2.7886
-3.3825 -8.5710 2.6362
-1.3093 -9.6697 2.7886
0.8072 -7.5362 2.1637
2.9741 -8.1995 2.4877
5.0433 -7.5452 2.5866
7.2265 -6.6031 2.7886
8.5967 -4.6866 2.7886
9.1312 -2.4086 2.6896
9.2518 -0.1542 2.6362
9.2448 2.1117 2.7032
5.2697 2.6492 1.6826
3.7107 3.1707 1.3937
3.6005 5.0176 1.7653
3.6245 9.0452 2.7886
1.3563 9.6386 2.7886
-0.9857 9.6733 2.7886
-3.0878 8.6490 2.6362
-5.3547 8.0969 2.7886
-7.1315 6.5790 2.7886
-8.4955 4.6823 2.7886
-9.3687 2.5157 2.7886
-9.7013 0.2031 2.7886
-9.4738 -2.1230 2.7886
-8.6983 -4.3294 2.7886
-7.4183 -6.2889 2.7886
-5.7063 -7.8880 2.7886
-3.4599 -8.5397 2.6362
-1.3968 -9.6570 2.7886
0.7381 -7.5358 2.1617
2.9437 -8.3509 2.5255
4.9444 -7.5445 2.5709
7.1662 -6.6682 2.7886
8.5539 -4.7643 2.7886
9.1279 -2.4964 2.6952
9.2501 -0.2381 2.6362
9.2437 2.0235 2.6973
5.3890 2.6482 1.7129
3.7383 3.1361 1.3933
3.6000 4.9221 1.7431
3.7063 9.0125 2.7886
1.4434 9.6263 2.7886
-0.8983 9.6822 2.7886
-3.0096 8.6768 2.6362
-5.2814 8.1453 2.7886
-7.0719 6.6433 2.7886
-8.4528 4.7589 2.7886
-9.3456 2.6002 2.7886
-9.6990 0.2908 2.7886
-9.4924 -2.0373 2.7886
-8.7368 -4.2505 2.7886
-7.4746 -6.2214 2.7886
-5.7771 -7.8359 2.7886
-3.5368 -8.5077 2.6362
-1.4839 -9.6436 2.7886
0.6694 -7.5355 2.1598
3.1667 -9.2493 2.7886
4.8472 -7.5438 2.5558
7.1056 -6.7326 2.7886
8.5105 -4.8414 2.7886
9.1246 -2.5843 2.7010
9.2478 -0.3216 2.6362
9.2425 1.9359 2.6916
5.5121 2.6472 1.7443
3.7654 3.1013 1.3928
3.5995 4.8292 1.7216
3.7880 8.9789 2.7886
1.5307 9.6132 2.7886
-0.8105 9.6903 2.7886
-2.9309 8.7040 2.6362
-5.2075 8.1931 2.7886
-7.0114 6.7073 2.7886
-8.4094 4.8354 2.7886
-9.3215 2.6849 2.7886
-9.6958 0.3787 2.7886
-9.5102 -1.9511 2.7886
-8.7747 -4.1710 2.7886
-7.5304 -6.1531 2.7886
-5.8477 -7.7828 2.7886
-3.6136 -8.4749 2.6362
-1.5712 -9.6294 2.7886
0.6006 -7.5351 2.1582
3.0826 -9.2773 2.7886
4.7507 -7.5431 2.5409
7.0442 -6.7966 2.7886
8.4662 -4.9183 2.7886
9.1212 -2.6729 2.7070
9.2446 -0.4051 2.6362
9.2412 1.8487 2.6862
8.8502 4.1524 2.7886
3.7922 3.0664 1.3924
3.5991 4.7387 1.7007
3.8691 8.9447 2.7886
1.6175 9.5994 2.7886
-0.7229 9.6976 2.7886
-2.8522 8.7304 2.6362
-5.1333 8.2400 2.7886
-2.8347 2.7612 1.1373
-8.3654 4.9112 2.7886
-9.2969 2.7690 2.7886
-9.6918 0.4663 2.7886
-9.5272 -1.8650 2.7886
-8.8118 -4.0914 2.7886
-7.5854 -6.0846 2.7886
-5.9175 -7.7294 2.7886
-3.6899 -8.4416 2.6362
-1.6581 -9.6144 2.7886
0.5321 -7.5347 2.1567
2.9986 -9.3045 2.7886
4.6557 -7.5424 2.5265
6.9824 -6.8598 2.7886
8.4214 -4.9946 2.7886
9.1178 -2.7615 2.7133
9.2407 -0.4889 2.6362
9.2399 1.7615 2.6811
8.8878 4.0723 2.7886
3.8188 3.0310 1.3920
3.5986 4.6500 1.6805
3.9502 8.9096 2.7886
1.7046 9.5847 2.7886
-0.6350 9.7041 2.7886
-2.7730 8.7562 2.6362
-5.0585 8.2864 2.7886
-2.7982 2.7755 1.1326
-8.3205 4.9869 2.7886
-9.2713 2.8532 2.7886
-9.6870 0.5542 2.7886
-9.5435 -1.7785 2.7886
-8.8482 -4.0111 2.7886
-7.6400 -6.0154 2.7886
-5.9871 -7.6751 2.7886
-3.7661 -8.4074 2.6362
-1.7451 -9.5986 2.7886
0.4635 -7.5344 2.1554
2.9141 -9.3310 2.7886
4.5617 -7.5418 2.5124
6.9201 -6.9225 2.7886
8.3759 -5.0703 2.7886
9.1143 -2.8505 2.7198
9.2360 -0.5723 2.6362
9.2386 1.6749 2.6761
8.9245 3.9918 2.7886
3.8450 2.9956 1.3915
3.5982 4.5636 1.6609
4.0307 8.8739 2.7886
1.7912 9.5693 2.7886
-0.5473 9.7098 2.7886
-2.6939 8.7812 2.6362
-4.9836 8.3320 2.7886
-2.7818 2.8096 1.1362
-8.2752 5.0619 2.7886
-9.2451 2.9368 2.7886
-9.6815 0.6417 2.7886
-9.5590 -1.6921 2.7886
-8.8838 -3.9309 2.7886
-7.6937 -5.9459 2.7886
-6.0560 -7.6204 2.7886
-3.8417 -8.3727 2.6362
-1.8317 -9.5820 2.7886
0.3952 -7.5340 2.1542
2.8296 -9.3566 2.7886
4.4685 -7.5412 2.4987
6.8570 -6.9848 2.7886
8.3295 -5.1460 2.7886
9.1107 -2.9403 2.7265
9.2306 -0.6560 2.6362
9.2373 1.5884 2.6714
8.9606 3.9109 2.7886
3.8709 2.9598 1.3911
3.5978 4.4790 1.6418
4.1112 8.8374 2.7886
1.8780 9.5531 2.7886
-0.4592 9.7147 2.7886
-2.6142 8.8055 2.6362
-4.9079 8.3771 2.7886
-6.7644 6.9571 2.7886
-8.2290 5.1368 2.7886
-9.2181 3.0205 2.7886
-9.6751 0.7295 2.7886
-9.5737 -1.6053 2.7886
-8.9188 -3.8501 2.7886
-7.7471 -5.8756 2.7886
-6.1246 -7.5648 2.7886
-3.9170 -8.3373 2.6362
-1.9181 -9.5647 2.7886
0.3270 -7.5336 2.1533
2.7449 -9.3815 2.7886
4.3766 -7.5405 2.4853
6.7935 -7.0464 2.7886
8.2827 -5.2210 2.7886
9.1071 -3.0303 2.7335
9.2244 -0.7394 2.6362
9.2359 1.5023 2.6669
8.9958 3.8299 2.7886
3.8964 2.9238 1.3906
3.5973 4.3965 1.6234
4.1910 8.8003 2.7886
1.9643 9.5361 2.7886
-0.3714 9.7188 2.7886
-2.5346 8.8291 2.6362
-4.8321 8.4213 2.7886
-6.7014 7.0181 2.7886
-8.1823 5.2110 2.7886
-9.1903 3.1037 2.7886
-9.6680 0.8169 2.7886
-9.5876 -1.5187 2.7886
-8.9530 -3.7692 2.7886
-7.7995 -5.8052 2.7886
-6.1924 -7.5089 2.7886
-3.9923 -8.3011 2.6362
-2.0046 -9.5465 2.7886
0.2585 -7.5333 2.1525
2.6596 -9.4057 2.7886
4.2853 -7.5399 2.4723
6.7292 -7.1075 2.7886
8.2350 -5.2958 2.7886
9.1035 -3.1210 2.7408
9.2175 -0.8230 2.6362
9.2345 1.4165 2.6626
9.0305 3.7483 2.7886
3.9216 2.8876 1.3902
3.5969 4.3156 1.6054
4.2708 8.7623 2.7886
2.0507 9.5183 2.7886
-0.2833 9.7222 2.7886
-2.4545 8.8520 2.6362
-4.4958 8.0024 2.6362
-6.6376 7.0787 2.7886
-8.1347 5.2850 2.7886
-9.1618 3.1869 2.7886
-9.6601 0.9042 2.7886
-9.6007 -1.4320 2.7886
-8.9864 -3.6880 2.7886
-7.8514 -5.7343 2.7886
-6.2597 -7.4523 2.7886
-4.0670 -8.2643 2.6362
-2.0907 -9.5276 2.7886
0.1904 -7.5329 2.1519
2.5745 -9.4290 2.7886
4.1954 -7.5393 2.4596
6.6646 -7.1679 2.7886
8.1867 -5.3699 2.7886
9.0997 -3.2118 2.7483
9.2098 -0.9062 2.6362
9.2330 1.3310 2.6586
9.0642 3.6667 2.7886
3.9464 2.8512 1.3897
3.5965 4.2367 1.5880
3.6118 7.2433 2.3153
2.1367 9.4998 2.7886
-0.1955 9.7247 2.7886
-2.3745 8.8741 2.6362
-4.4234 8.0428 2.6362
-6.5734 7.1385 2.7886
-8.0867 5.3584 2.7886
-9.1326 3.2696 2.7886
-9.6514 0.9917 2.7886
-9.6131 -1.3448 2.7886
-9.0192 -3.6063 2.7886
-7.9028 -5.6626 2.7886
-6.3268 -7.3949 2.7886
-4.1416 -8.2268 2.6362
-2.1769 -9.5078 2.7886
0.1221 -7.5326 2.1515
2.4888 -9.4516 2.7886
4.1060 -7.5387 2.4472
6.5993 -7.2279 2.7886
8.1377 -5.4439 2.7886
9.0959 -3.3035 2.7561
9.2013 -0.9896 2.6362
9.2316 1.2454 2.6547
9.0974 3.5845 2.7886
3.9709 2.8145 1.3893
3.5961 4.1592 1.5710
3.6110 7.0801 2.2735
2.2229 9.4804 2.7886
-0.1073 9.7265 2.7886
-2.2940 8.8956 2.6362
-4.3507 8.0827 2.6362
-6.5088 7.1978 2.7886
-8.0380 5.4312 2.7886
-9.1026 3.3520 2.7886
-9.6419 1.0789 2.7886
-9.6247 -1.2579 2.7886
-9.0512 -3.5245 2.7886
-7.9533 -5.5908 2.7886
-6.3931 -7.3372 2.7886
-4.2155 -8.1887 2.6362
-2.2626 -9.4874 2.7886
0.0541 -7.5322 2.1512
2.4033 -9.4734 2.7886
4.0178 -7.5381 2.4352
6.5336 -7.2871 2.7886
8.0881 -5.5171 2.7886
9.0921 -3.3953 2.7641
9.1921 -1.0727 2.6362
9.2302 1.1606 2.6512
9.1296 3.5023 2.7886
3.9950 2.7777 1.3888
3.5957 4.0836 1.5546
3.6102 6.9233 2.2334
2.3085 9.4604 2.7886
-0.0194 9.7273 2.7886
-2.2136 8.9162 2.6362
-4.2773 8.1221 2.6362
-6.4433 7.2566 2.7886
-7.9885 5.5040 2.7886
-9.0718 3.4344 2.7886
-9.6316 1.1663 2.7886
-9.6355 -1.1705 2.7886
-9.0825 -3.4422 2.7886
-8.0034 -5.5182 2.7886
-6.4591 -7.2786 2.7886
-2.9476 -5.6003 1.8115
-2.3484 -9.4661 2.7886
-0.0142 -7.5319 2.1512
1.9923 -8.1633 2.3976
3.9302 -7.5375 2.4235
6.4672 -7.3458 2.7886
8.0377 -5.5901 2.7886
9.0882 -3.4881 2.7724
9.1849 -1.1564 2.6370
9.2308 1.0756 2.6484
9.1613 3.4195 2.7886
4.0188 2.7406 1.3884
3.5954 4.0093 1.5386
3.4718 6.5137 2.1112
2.3940 9.4395 2.7886
0.0685 9.7273 2.7886
-2.1330 8.9361 2.6362
-4.2038 8.1606 2.6362
-6.3776 7.3147 2.7886
-7.9385 5.5760 2.7886
-9.0404 3.5162 2.7886
-9.6206 1.2533 2.7886
-9.6455 -1.0834 2.7886
-9.1130 -3.3599 2.7886
-8.0527 -5.4455 2.7886
-6.5243 -7.2197 2.7886
-2.9913 -5.5609 1.8075
-2.4337 -9.4441 2.7886
-0.0823 -7.5315 2.1513
1.8915 -8.0657 2.3639
3.8437 -7.5369 2.4121
6.4005 -7.4038 2.7886
7.9868 -5.6624 2.7886
9.0842 -3.5812 2.7809
9.1809 -1.2401 2.6389
9.2313 0.9912 2.6458
9.1920 3.3367 2.7886
4.0422 2.7034 1.3879
3.5950 3.9368 1.5231
3.4963 6.4189 2.0906
2.4796 9.4178 2.7886
0.1567 9.7269 2.7886
-2.0520 8.9554 2.6362
-4.1297 8.1986 2.6362
-6.3111 7.3724 2.7886
-7.8876 5.6478 2.7886
-9.0081 3.5981 2.7886
-9.6087 1.3405 2.7886
-9.6547 -0.9958 2.7886
-9.1428 -3.2770 2.7886
-8.1014 -5.3721 2.7886
-6.5893 -7.1599 2.7886
-4.6923 -8.5366 2.7886
-2.5192 -9.4213 2.7886
-0.1506 -7.5312 2.1516
1.6965 -7.5412 2.2057
3.7577 -7.5363 2.4010
6.3330 -7.4614 2.7886
7.9351 -5.7345 2.7886
9.0763 -3.6732 2.7886
9.1766 -1.3241 2.6410
9.2316 0.9070 2.6433
9.2221 3.2536 2.7886
4.0653 2.6660 1.3875
3.5946 3.8657 1.5081
3.5395 6.3607 2.0819
2.5647 9.3954 2.7886
0.2446 9.7255 2.7886
-1.9710 8.9739 2.6362
-4.0556 8.2358 2.6362
-6.2444 7.4292 2.7886
-7.8363 5.7189 2.7886
-8.9753 3.6793 2.7886
-9.5961 1.4272 2.7886
-9.6631 -0.9085 2.7886
-9.1718 -3.1942 2.7886
-8.1494 -5.2984 2.7886
-6.6534 -7.0998 2.7886
-4.7690 -8.4935 2.7886
-2.6040 -9.3977 2.7886
-0.2186 -7.5309 2.1520
1.6250 -7.5408 2.2012
3.6728 -7.5358 2.3902
6.2652 -7.5181 2.7886
7.8829 -5.8059 2.7886
9.0428 -3.7551 2.7886
9.1722 -1.4084 2.6432
9.2317 0.8226 2.6411
9.2515 3.1700 2.7886
4.1350 2.6584 1.4029
3.5943 3.7957 1.4934
3.5932 6.3215 2.0795
2.6499 9.3722 2.7886
0.3328 9.7233 2.7886
-1.8896 8.9917 2.6362
-3.9808 8.2725 2.6362
-6.1768 7.4857 2.7886
-7.7842 5.7898 2.7886
-8.9415 3.7606 2.7886
-9.5826 1.5142 2.7886
-9.6707 -0.8208 2.7886
-9.2001 -3.1108 2.7886
-8.1968 -5.2241 2.7886
-6.7173 -7.0389 2.7886
-4.8457 -8.4496 2.7886
-2.6890 -9.3733 2.7886
-0.3062 -8.0345 2.2967
1.5535 -7.5404 2.1970
3.5887 -7.5352 2.3797
6.1970 -7.5743 2.7886
7.8301 -5.8768 2.7886
9.0085 -3.8366 2.7886
9.1676 -1.4926 2.6456
9.2316 0.7386 2.6390
9.2552 3.0781 2.7811
4.2173 2.6578 1.4226
3.5939 3.7273 1.4791
3.6066 6.2138 2.0546
2.7346 9.3482 2.7886
0.4207 9.7203 2.7886
-1.8084 9.0088 2.6362
-3.9060 8.3084 2.6362
-6.1091 7.5414 2.7886
-7.7317 5.8600 2.7886
-8.9072 3.8412 2.7886
-9.5685 1.6007 2.7886
-9.6776 -0.7334 2.7886
-9.2276 -3.0274 2.7886
-8.2434 -5.1497 2.7886
-6.7803 -6.9777 2.7886
-4.9216 -8.4051 2.7886
-2.7735 -9.3483 2.7886
-0.3802 -8.0634 2.3060
1.4826 -7.5400 2.1929
3.5050 -7.5347 2.3695
6.1279 -7.6300 2.7886
7.7764 -5.9475 2.7886
8.9734 -3.9181 2.7886
9.1628 -1.5772 2.6483
9.2314 0.6548 2.6370
9.2544 2.9851 2.7726
4.3022 2.6571 1.4430
3.5936 3.6599 1.4652
3.6059 6.0849 2.0227
2.8193 9.3235 2.7886
0.5088 9.7164 2.7886
-1.7267 9.0251 2.6362
-3.8306 8.3437 2.6362
-6.0405 7.5967 2.7886
-7.6783 5.9299 2.7886
-8.8720 3.9219 2.7886
-9.5535 1.6874 2.7886
-9.6836 -0.6456 2.7886
-9.2544 -2.9435 2.7886
-8.2894 -5.0745 2.7886
-6.8428 -6.9159 2.7886
-4.9971 -8.3600 2.7886
-2.8577 -9.3224 2.7886
-0.4562 -8.1160 2.3222
1.4119 -7.5396 2.1891
3.4223 -7.5341 2.3596
6.0587 -7.6848 2.7886
7.7223 -6.0174 2.7886
8.9376 -3.9989 2.7886
9.1579 -1.6618 2.6510
9.2340 0.5709 2.6362
9.2536 2.8928 2.7643
4.3892 2.6564 1.4640
3.5933 3.5941 1.4517
3.6053 5.9604 1.9919
2.9036 9.2980 2.7886
0.5967 9.7126 2.7886
-1.6451 9.0407 2.6362
-3.7552 8.3782 2.6362
-5.9718 7.6510 2.7886
-7.6245 5.9991 2.7886
-8.8362 4.0019 2.7886
-9.5377 1.7737 2.7886
-9.6889 -0.5580 2.7886
-9.2804 -2.8597 2.7886
-8.3347 -4.9993 2.7886
-6.9050 -6.8532 2.7886
-5.0725 -8.3140 2.7886
-2.9420 -9.2958 2.7886
-0.5371 -8.2236 2.3544
1.3412 -7.5392 2.1854
3.3400 -7.5336 2.3499
5.9886 -7.7393 2.7886
7.6674 -6.0871 2.7886
8.9010 -4.0798 2.7886
9.1547 -1.7469 2.6546
9.2390 0.4872 2.6362
9.2527 2.8007 2.7563
4.4792 2.6557 1.4859
3.5929 3.5292 1.4385
3.6047 5.8392 1.9622
2.9879 9.2717 2.7886
0.6847 9.7064 2.7886
-1.5631 9.0555 2.6362
-3.6792 8.4121 2.6362
-5.9022 7.7050 2.7886
-7.5698 6.0681 2.7886
-8.7995 4.0819 2.7886
-9.5212 1.8598 2.7886
-9.6933 -0.4704 2.7886
-9.3056 -2.7757 2.7886
-8.3792 -4.9236 2.7886
-6.9663 -6.7903 2.7886
-5.1472 -8.2675 2.7886
-3.0257 -9.2684 2.7886
-0.7241 -9.7336 2.7886
1.2710 -7.5388 2.1820
3.2587 -7.5331 2.3405
5.9184 -7.7929 2.7886
7.6120 -6.1560 2.7886
8.8638 -4.1600 2.7886
9.1518 -1.8321 2.6584
9.2432 0.4037 2.6362
9.2518 2.7095 2.7485
4.5715 2.6549 1.5084
3.5926 3.4657 1.4257
3.6041 5.7219 1.9336
3.0716 9.2447 2.7886
0.7724 9.7002 2.7886
-1.4813 9.0696 2.6362
-3.6031 8.4453 2.6362
-5.8325 7.7582 2.7886
-7.5147 6.1363 2.7886
-8.7623 4.1612 2.7886
-9.5039 1.9460 2.7886
-9.6970 -0.3825 2.7886
-9.3301 -2.6911 2.7886
-8.4232 -4.8472 2.7886
-7.0274 -6.7266 2.7886
-5.2217 -8.2201 2.7886
-3.1095 -9.2402 2.7886
-0.8122 -9.7263 2.7886
1.2008 -7.5384 2.1787
3.2518 -7.7081 2.3857
5.8474 -7.8460 2.7886
7.5558 -6.2247 2.7886
8.8257 -4.2402 2.7886
9.1489 -1.9180 2.6625
9.2466 0.3199 2.6362
9.2508 2.6184 2.7410
4.6671 2.6541 1.5319
3.5923 3.4030 1.4133
3.6035 5.6076 1.9058
3.1555 9.2169 2.7886
0.8603 9.6932 2.7886
-1.3990 9.0830 2.6362
-3.5268 8.4777 2.6362
-5.7623 7.8108 2.7886
-7.4591 6.2041 2.7886
-8.7243 4.2402 2.7886
-9.4858 2.0318 2.7886
-9.6999 -0.2948 2.7886
-9.3538 -2.6066 2.7886
-8.4664 -4.7708 2.7886
-7.0876 -6.6626 2.7886
-5.2955 -8.1722 2.7886
-3.1927 -9.2113 2.7886
-0.9000 -9.7182 2.7886
1.1310 -7.5380 2.1756
3.2508 -7.9043 2.4373
5.7761 -7.8984 2.7886
7.4992 -6.2926 2.7886
8.7870 -4.3197 2.7886
9.1459 -2.0037 2.6667
9.2493 0.2364 2.6362
9.2499 2.5281 2.7338
4.7653 2.6533 1.5562
3.5920 3.3417 1.4011
3.6029 5.4969 1.8791
3.2388 9.1884 2.7886
0.9479 9.6854 2.7886
-1.3169 9.0956 2.6362
-3.4498 8.5096 2.6362
-5.6913 7.8629 2.7886
-7.4026 6.2715 2.7886
-8.6855 4.3192 2.7886
-9.4669 2.1178 2.7886
-9.7020 -0.2068 2.7886
-9.3768 -2.5216 2.7886
-8.5090 -4.6936 2.7886
-7.1474 -6.5978 2.7886
-5.3692 -8.1236 2.7886
-3.2759 -9.1816 2.7886
-0.9881 -9.7092 2.7886
1.0611 -7.5376 2.1727
3.2097 -8.0100 2.4609
5.7042 -7.9502 2.7886
7.4418 -6.3602 2.7886
8.7475 -4.3991 2.7886
9.1428 -2.0901 2.6712
9.2512 0.1526 2.6362
9.2488 2.4379 2.7267
4.8671 2.6525 1.5815
3.6069 3.2953 1.3952
3.6024 5.3893 1.8533
3.3218 9.1591 2.7886
1.0354 9.6768 2.7886
-1.2347 9.1074 2.6362
-3.3729 8.5407 2.6362
-5.6202 7.9142 2.7886
-7.3457 6.3383 2.7886
-8.6462 4.3975 2.7886
-9.4473 2.2032 2.7886
-9.7033 -0.1192 2.7886
-8.6591 -2.2447 2.7886
-7.8773 -4.2527 2.7886
-6.6384 -6.0177 2.7886
-4.7388 -7.0309 2.6362
-2.9243 -7.9680 2.6362
-0.9907 -8.9329 2.7886
0.9920 -7.5395 2.3571
3.1914 -8.1775 2.7187
5.1859 -7.3676 2.7886
6.7989 -5.9180 2.7886
8.0173 -4.1233 2.7886
8.7697 -2.0886 2.7886
9.0120 0.0669 2.7886
8.7304 2.2168 2.7886
4.9693 2.6500 1.7448
3.5914 3.2215 1.4961
3.6018 5.2835 1.9849
3.1365 8.4083 2.7886
1.0350 8.9050 2.7886
-1.0729 8.4946 2.6659
-3.0356 7.8964 2.6362
-5.1113 7.3383 2.7886
-6.7144 5.9010 2.7886
-7.9289 4.1238 2.7886
-8.6853 2.1088 2.7886
-8.9403 -0.0287 2.7886
-8.6788 -2.1662 2.7886
-7.9152 -4.1811 2.7886
-6.6924 -5.9571 2.7886
-4.8021 -6.9874 2.6362
-2.9962 -7.9409 2.6362
-1.0714 -8.9233 2.7886
0.9227 -7.5392 2.3544
3.1412 -8.2691 2.7396
5.1190 -7.4141 2.7886
6.7450 -5.9792 2.7886
7.9797 -4.1957 2.7886
8.7505 -2.1678 2.7886
9.0124 -0.0146 2.7886
8.7503 2.1377 2.7886
5.0777 2.6490 1.7743
3.5911 3.1631 1.4839
3.6013 5.1814 1.9586
3.2126 8.3799 2.7886
1.1156 8.8957 2.7886
-1.0419 8.8957 2.7886
-2.9640 7.9237 2.6362
-5.0448 7.3844 2.7886
-6.6608 5.9616 2.7886
-7.8913 4.1955 2.7886
-8.6658 2.1874 2.7886
-8.9400 0.0523 2.7886
-8.6979 -2.0875 2.7886
-7.9525 -4.1091 2.7886
-6.7458 -5.8961 2.7886
-4.8649 -6.9434 2.6362
-3.0678 -7.9132 2.6362
-1.1521 -8.9129 2.7886
0.8535 -7.5388 2.3519
3.1209 -8.4451 2.7886
5.0516 -7.4599 2.7886
6.6905 -6.0399 2.7886
7.9414 -4.2677 2.7886
8.7306 -2.2469 2.7886
9.0120 -0.0961 2.7886
8.7695 2.0586 2.7886
5.1899 2.6481 1.8050
3.5908 3.1056 1.4721
3.6008 5.0819 1.9332
3.2884 8.3508 2.7886
1.1961 8.8854 2.7886
-0.9613 8.9052 2.7886
-2.8923 7.9505 2.6362
-4.9778 7.4299 2.7886
-6.6067 6.0217 2.7886
-7.8530 4.2667 2.7886
-8.6456 2.2657 2.7886
-8.9391 0.1332 2.7886
-8.7162 -2.0086 2.7886
-7.9891 -4.0369 2.7886
-6.7986 -5.8346 2.7886
-5.2122 -7.2977 2.7886
-3.1391 -7.8848 2.6362
-1.2326 -8.9017 2.7886
0.7844 -7.5384 2.3495
3.0443 -8.4728 2.7886
4.9838 -7.5052 2.7886
6.6355 -6.1001 2.7886
7.9024 -4.3393 2.7886
8.7100 -2.3258 2.7886
9.0109 -0.1777 2.7886
8.7879 1.9791 2.7886
5.3059 2.6471 1.8369
3.5905 3.0490 1.4605
3.6003 4.9850 1.9085
3.3640 8.3210 2.7886
1.2765 8.8746 2.7886
-0.8807 8.9138 2.7886
-2.8203 7.9766 2.6362
-4.9105 7.4748 2.7886
-6.5520 6.0814 2.7886
-7.8141 4.3377 2.7886
-8.6247 2.3439 2.7886
-8.9374 0.2141 2.7886
-8.7338 -1.9296 2.7886
-8.0251 -3.9643 2.7886
-6.8509 -5.7726 2.7886
-5.2779 -7.2499 2.7886
-3.2103 -7.8557 2.6362
-1.3130 -8.8899 2.7886
0.7155 -7.5380 2.3474
2.9675 -8.4997 2.7886
4.9156 -7.5498 2.7886
6.5800 -6.1598 2.7886
7.8628 -4.4106 2.7886
8.6887 -2.4046 2.7886
9.0091 -0.2592 2.7886
8.8057 1.8997 2.7886
5.4262 2.6461 1.8701
3.5902 2.9933 1.4493
3.5998 4.8905 1.8847
3.4393 8.2906 2.7886
1.3568 8.8630 2.7886
-0.8000 8.9217 2.7886
-2.7481 8.0020 2.6362
-4.8428 7.5191 2.7886
-6.4968 6.1405 2.7886
-7.7745 4.4083 2.7886
-8.6031 2.4218 2.7886
-8.9349 0.2950 2.7886
-8.7507 -1.8504 2.7886
-8.0604 -3.8914 2.7886
-6.9026 -5.7102 2.7886
-5.3431 -7.2016 2.7886
-3.2811 -7.8260 2.6362
-1.3934 -8.8773 2.7886
0.6467 -7.5376 2.3454
2.8904 -8.5260 2.7886
4.8470 -7.5938 2.7886
6.5239 -6.2190 2.7886
7.8226 -4.4815 2.7886
8.6666 -2.4830 2.7886
9.0065 -0.3407 2.7886
8.8227 1.8199 2.7886
5.5510 2.6450 1.9047
3.5899 2.9384 1.4383
3.5994 4.7983 1.8615
3.5143 8.2594 2.7886
1.4370 8.8507 2.7886
-0.7193 8.9289 2.7886
-2.6756 8.0268 2.6362
-4.5136 7.1495 2.6362
-6.4410 6.1991 2.7886
-7.7343 4.4785 2.7886
-8.5807 2.4996 2.7886
-8.9318 0.3758 2.7886
-8.7669 -1.7711 2.7886
-8.0950 -3.8181 2.7886
-6.9537 -5.6473 2.7886
-5.4078 -7.1527 2.7886
-3.3516 -7.7957 2.6362
-1.4736 -8.8640 2.7886
0.5780 -7.5373 2.3436
2.8130 -8.5515 2.7886
4.7780 -7.6371 2.7886
6.4673 -6.2776 2.7886
7.7817 -4.5521 2.7886
8.6438 -2.5613 2.7886
9.0032 -0.4221 2.7886
8.8390 1.7401 2.7886
8.1616 3.7988 2.7886
3.5897 2.8844 1.4277
3.5989 4.7084 1.8391
3.5890 8.2276 2.7886
1.5171 8.8377 2.7886
-0.6385 8.9354 2.7886
-2.6029 8.0509 2.6362
-4.4489 7.1901 2.6362
-2.8222 2.7659 1.2326
-7.6935 4.5483 2.7886
-8.5577 2.5772 2.7886
-8.9279 0.4567 2.7886
-8.7824 -1.6917 2.7886
-8.1290 -3.7446 2.7886
-7.0043 -5.5839 2.7886
-5.4721 -7.1032 2.7886
-3.4219 -7.7648 2.6362
-1.5537 -8.8499 2.7886
0.5095 -7.5369 2.3421
2.7355 -8.5763 2.7886
4.7086 -7.6799 2.7886
6.4102 -6.3358 2.7886
7.7401 -4.6222 2.7886
8.6203 -2.6394 2.7886
8.9991 -0.5035 2.7886
8.8546 1.6601 2.7886
8.1959 3.7249 2.7886
3.5894 2.8311 1.4172
3.5985 4.6205 1.8174
3.6635 8.1951 2.7886
1.5971 8.8239 2.7886
-0.5576 8.9411 2.7886
-2.5300 8.0744 2.6362
-4.3837 7.2304 2.6362
-2.7919 2.7862 1.2303
-7.6520 4.6178 2.7886
-8.5340 2.6545 2.7886
-8.9232 0.5375 2.7886
-8.7972 -1.6120 2.7886
-8.1623 -3.6707 2.7886
-7.0544 -5.5201 2.7886
-5.5359 -7.0531 2.7886
-3.4919 -7.7332 2.6362
-1.6336 -8.8352 2.7886
0.4410 -7.5365 2.3407
2.6577 -8.6005 2.7886
4.6388 -7.7220 2.7886
6.3525 -6.3934 2.7886
7.6980 -4.6920 2.7886
8.5962 -2.7173 2.7886
8.9943 -0.5849 2.7886
8.8694 1.5800 2.7886
8.2295 3.6507 2.7886
3.5891 2.7786 1.4071
3.5980 4.5347 1.7963
3.7376 8.1620 2.7886
1.6770 8.8095 2.7886
-0.4767 8.9460 2.7886
-2.4569 8.0972 2.6362
-4.3182 7.2699 2.6362
-2.7783 2.8232 1.2355
-7.6100 4.6869 2.7886
-8.5096 2.7316 2.7886
-8.9179 0.6182 2.7886
-8.8112 -1.5324 2.7886
-8.1950 -3.5966 2.7886
-7.1038 -5.4559 2.7886
-5.5993 -7.0024 2.7886
