ply
format ascii 1.0
element vertex 2086
property float32 x
property float32 y
property float32 z
end_header
15.4939 0.9143 2.5841
14.8116 4.5852 2.5841
13.5579 8.1545 2.6404
11.1926 11.1341 2.6390
8.6575 14.2252 2.7886
4.9980 15.8529 2.7886
1.0626 16.5585 2.7886
-2.7614 15.4148 2.6362
-5.7031 12.8190 2.3651
-9.0754 11.6946 2.4980
-12.9492 10.2481 2.7886
-15.0195 6.8542 2.7886
-15.3387 2.8984 2.6362
-15.5964 -0.8524 2.6362
-15.3527 -4.6812 2.7062
-14.2277 -8.4764 2.7886
-11.8083 -11.6497 2.7886
-8.6973 -14.1591 2.7886
-5.0708 -15.8563 2.7886
-1.1368 -16.6384 2.7886
1.4785 -8.4573 1.4332
3.4776 -7.9071 1.4400
9.6514 -12.5488 2.6362
11.0439 -8.8200 2.3519
11.1487 -5.1488 2.0429
10.9292 -2.1176 1.8523
15.5021 0.7739 2.5841
14.8532 4.4510 2.5841
13.6322 8.0319 2.6405
11.2949 11.0341 2.6393
8.7866 14.1472 2.7886
5.1415 15.8082 2.7886
1.2124 16.5493 2.7886
-2.6219 15.4400 2.6362
-5.6940 13.1169 2.4103
-8.9801 11.7907 2.5009
-12.8561 10.3651 2.7886
-14.9569 6.9898 2.7886
-15.3116 3.0371 2.6362
-15.6030 -0.7112 2.6362
-15.3502 -4.5290 2.6985
-14.3030 -8.3468 2.7886
-11.9125 -11.5416 2.7886
-8.8245 -14.0789 2.7886
-5.2138 -15.8087 2.7886
-1.2873 -16.6264 2.7886
1.4017 -8.4690 1.4331
3.4049 -7.9359 1.4396
9.5372 -12.6352 2.6362
11.0407 -8.9820 2.3684
11.1463 -5.2703 2.0511
14.9415 -3.0352 2.5368
15.5089 0.6339 2.5841
14.8934 4.3169 2.5841
11.8639 6.8465 2.2858
11.3961 10.9335 2.6396
8.9146 14.0682 2.7886
5.2847 15.7621 2.7886
1.3622 16.5387 2.7886
-2.4822 15.4641 2.6362
-5.6845 13.4264 2.4575
-8.9258 11.9421 2.5157
-12.7620 10.4813 2.7886
-14.8931 7.1250 2.7886
-15.2833 3.1755 2.6362
-15.6083 -0.5699 2.6362
-15.3477 -4.3776 2.6911
-14.3772 -8.2165 2.7886
-12.0158 -11.4326 2.7886
-8.9510 -13.9975 2.7886
-5.3563 -15.7598 2.7886
-1.4376 -16.6130 2.7886
1.3248 -8.4800 1.4329
3.3321 -7.9639 1.4392
9.4223 -12.7203 2.6362
11.0376 -9.1466 2.3855
11.1440 -5.3931 2.0596
14.9137 -3.1704 2.5368
15.5144 0.4936 2.5841
14.9325 4.1821 2.5841
13.7770 7.7852 2.6405
11.4965 10.8318 2.6399
4.6833 7.2449 1.4443
5.4275 15.7147 2.7886
1.5119 16.5268 2.7886
-2.3422 15.4868 2.6362
-5.6746 13.7483 2.5068
-9.7739 13.3267 2.7886
-12.6668 10.5966 2.7886
-14.8280 7.2595 2.7886
-15.2537 3.3137 2.6362
-15.6124 -0.4286 2.6362
-15.3451 -4.2271 2.6840
-14.4502 -8.0856 2.7886
-12.1180 -11.3227 2.7886
-9.0767 -13.9150 2.7886
-5.4980 -15.7097 2.7886
-1.5796 -16.5153 2.7746
1.2479 -8.4903 1.4328
3.2590 -7.9915 1.4389
9.3065 -12.8046 2.6362
11.0676 -9.3417 2.4102
11.1416 -5.5169 2.0683
14.6821 -3.2603 2.5023
15.5187 0.3532 2.5841
14.9704 4.0470 2.5841
13.8478 7.6607 2.6405
11.5960 10.7291 2.6401
4.7472 7.1999 1.4438
5.5699 15.6660 2.7886
1.6616 16.5135 2.7886
-2.2021 15.5083 2.6362
-5.8811 14.6226 2.6563
-9.6532 13.4151 2.7886
-12.5706 10.7110 2.7886
-14.7617 7.3935 2.7886
-15.2229 3.4516 2.6362
-15.6152 -0.2872 2.6362
-15.3426 -4.0773 2.6771
-14.5220 -7.9541 2.7886
-12.2190 -11.2120 2.7886
-9.2014 -13.8315 2.7886
-5.6396 -15.6582 2.7886
-1.7113 -16.3315 2.7464
1.1709 -8.5000 1.4327
3.2494 -8.1789 1.4674
9.1899 -12.8879 2.6362
11.0643 -9.5117 2.4281
11.1057 -5.6249 2.0710
14.0239 -3.2475 2.3950
10.0496 0.1377 1.6731
15.0071 3.9116 2.5841
13.9175 7.5356 2.6406
11.6940 10.6250 2.6403
4.8106 7.1544 1.4432
5.7119 15.6160 2.7886
1.8111 16.4989 2.7886
-2.0617 15.5285 2.6362
-5.6951 14.5390 2.6315
-9.5317 13.5024 2.7886
-12.4734 10.8246 2.7886
-14.6942 7.5270 2.7886
-15.1908 3.5902 2.6362
-15.6167 -0.1459 2.6362
-15.3400 -3.9286 2.6704
-14.5925 -7.8221 2.7886
-12.3192 -11.1003 2.7886
-9.3256 -13.7467 2.7886
-5.7807 -15.6055 2.7886
-1.8440 -16.1840 2.7245
1.0938 -8.5091 1.4326
3.2483 -8.3968 1.5012
9.0726 -12.9700 2.6362
11.0609 -9.6842 2.4466
11.1033 -5.7505 2.0802
13.4197 -3.2358 2.2967
10.0233 0.0467 1.6685
15.0425 3.7758 2.5841
13.9861 7.4098 2.6406
11.7904 10.5194 2.6403
4.8736 7.1082 1.4426
5.8534 15.5647 2.7886
1.9605 16.4829 2.7886
-1.9212 15.5474 2.6362
-5.5571 14.5738 2.6285
-7.7091 11.1330 2.2846
-12.3752 10.9373 2.7886
-14.6256 7.6595 2.7886
-15.1614 3.7272 2.6368
-15.6169 -0.0048 2.6362
-15.3374 -3.7803 2.6640
-14.6619 -7.6893 2.7886
-12.4184 -10.9877 2.7886
-9.4489 -13.6608 2.7886
-5.9213 -15.5514 2.7886
-1.9773 -16.0604 2.7068
1.0166 -8.5175 1.4324
3.2472 -8.6249 1.5367
5.1682 -7.5326 1.5215
11.0575 -9.8595 2.4655
11.1008 -5.8772 2.0896
13.3917 -3.3576 2.2970
10.9300 -0.0480 1.8194
15.0766 3.6396 2.5841
14.0534 7.2834 2.6406
11.8859 10.4130 2.6403
4.9361 7.0615 1.4421
5.9944 15.5122 2.7886
2.1097 16.4655 2.7886
-1.7805 15.5651 2.6362
-5.4494 14.6893 2.6402
-7.5576 11.1282 2.2694
-12.2761 11.0489 2.7886
-14.5559 7.7914 2.7886
-15.1532 3.8710 2.6414
-15.6159 0.1366 2.6362
-15.3347 -3.6327 2.6578
-14.7301 -7.5559 2.7886
-12.5166 -10.8741 2.7886
-9.5716 -13.5738 2.7886
-6.0614 -15.4961 2.7886
-2.1113 -15.9562 2.6925
0.9393 -8.5252 1.4323
3.2459 -8.8641 1.5741
5.0682 -7.5320 1.5121
11.0209 -10.0073 2.4775
11.1318 -6.0232 2.1056
13.3892 -3.4860 2.3019
10.9310 -0.1469 1.8197
15.1096 3.5032 2.5841
14.1197 7.1564 2.6407
11.9804 10.3057 2.6403
4.9981 7.0142 1.4415
6.1350 15.4584 2.7886
2.2588 16.4469 2.7886
-1.6399 15.5815 2.6362
-5.6155 15.5671 2.7886
-7.4084 11.1234 2.2546
-12.1759 11.1599 2.7886
-14.4848 7.9229 2.7886
-15.1447 4.0152 2.6462
-15.6136 0.2780 2.6362
-15.3320 -3.4858 2.6519
-14.7972 -7.4218 2.7886
-12.6137 -10.7597 2.7886
-9.6934 -13.4857 2.7886
-6.2009 -15.4396 2.7886
-2.2459 -15.8680 2.6811
0.8620 -8.5323 1.4322
3.2447 -9.1153 1.6135
4.9693 -7.5313 1.5029
11.0174 -10.1875 2.4974
11.1293 -6.1526 2.1156
13.3867 -3.6150 2.3069
10.9320 -0.2459 1.8201
15.1413 3.3665 2.5841
14.1848 7.0288 2.6407
12.0740 10.1974 2.6403
5.0596 6.9663 1.4409
6.2748 15.4034 2.7886
2.4075 16.4269 2.7886
-1.4989 15.5966 2.6362
-5.4747 15.6180 2.7886
-7.2608 11.1187 2.2402
-12.0746 11.2699 2.7886
-14.4126 8.0538 2.7886
-15.1360 4.1595 2.6512
-15.6101 0.4193 2.6362
-15.3330 -3.3404 2.6468
-14.8630 -7.2872 2.7886
-12.7098 -10.6445 2.7886
-9.8144 -13.3966 2.7886
-6.3400 -15.3818 2.7886
-2.3813 -15.7936 2.6722
0.7847 -8.5387 1.4322
3.2433 -9.3793 1.6551
4.8717 -7.5307 1.4940
11.0139 -10.3707 2.5178
11.1267 -6.2834 2.1259
13.3842 -3.7446 2.3122
10.9331 -0.3449 1.8207
15.1717 3.2295 2.5841
14.2487 6.9006 2.6407
12.1664 10.0886 2.6403
5.1206 6.9179 1.4403
6.4144 15.3470 2.7886
2.5562 16.4055 2.7886
-1.3578 15.6105 2.6362
-5.3334 15.6677 2.7886
-7.1151 11.1140 2.2261
-11.9724 11.3791 2.7886
-14.3392 8.1840 2.7886
-15.1310 4.3062 2.6570
-15.6053 0.5605 2.6362
-15.3341 -3.1955 2.6420
-14.9275 -7.1520 2.7886
-12.8048 -10.5284 2.7886
-9.9346 -13.3063 2.7886
-6.4785 -15.3227 2.7886
-2.5178 -15.7313 2.6656
0.7073 -8.5445 1.4321
3.2419 -9.6573 1.6990
4.7752 -7.5301 1.4853
11.0434 -10.5886 2.5464
11.1242 -6.4154 2.1364
10.7880 -3.1238 1.8685
10.9341 -0.4440 1.8214
15.2009 3.0924 2.5841
14.3114 6.7720 2.6408
12.2580 9.9787 2.6403
5.1811 6.8688 1.4397
6.5535 15.2894 2.7886
2.7048 16.3828 2.7886
-1.2165 15.6231 2.6362
-5.1916 15.7162 2.7886
-6.9712 11.1094 2.2124
-2.8603 2.7683 0.6720
-14.2647 8.3135 2.7886
-15.1260 4.4532 2.6632
-15.5992 0.7017 2.6362
-15.3350 -3.0511 2.6374
-14.9909 -7.0162 2.7886
-10.3858 -8.3830 2.2453
-10.0539 -13.2149 2.7886
-6.6164 -15.2624 2.7886
-2.6553 -15.6801 2.6611
0.6299 -8.5496 1.4320
3.2404 -9.9504 1.7454
4.6799 -7.5295 1.4768
11.0397 -10.7785 2.5680
11.1216 -6.5487 2.1472
10.6139 -3.1776 1.8432
10.9351 -0.5430 1.8223
15.2289 2.9549 2.5841
14.3730 6.6427 2.6408
12.3485 9.8680 2.6403
5.2412 6.8192 1.4391
6.6920 15.2305 2.7886
2.8531 16.3587 2.7886
-1.0751 15.6344 2.6362
-5.0494 15.7633 2.7886
-6.8291 11.1049 2.1990
-2.8119 2.7711 0.6665
-14.1889 8.4424 2.7886
-15.1211 4.6009 2.6695
-15.5918 0.8429 2.6362
-15.3541 -2.9107 2.6362
-15.0530 -6.8799 2.7886
-10.3817 -8.2256 2.2283
-10.1724 -13.1225 2.7886
-6.7538 -15.2009 2.7886
-2.7942 -15.6391 2.6585
0.5524 -8.5541 1.4320
3.2389 -10.2600 1.7946
4.5856 -7.5290 1.4686
11.0360 -10.9713 2.5902
11.0856 -6.6631 2.1518
10.2857 -3.1810 1.7911
10.9362 -0.6423 1.8233
15.2556 2.8170 2.5841
14.1236 6.3730 2.5841
12.4381 9.7565 2.6403
5.3008 6.7690 1.4384
6.8301 15.1704 2.7886
3.0013 16.3333 2.7886
-0.9336 15.6444 2.6362
-4.9067 15.8096 2.7886
-6.6886 11.1004 2.1859
-2.7880 2.7978 0.6668
-14.1121 8.5706 2.7886
-15.1160 4.7493 2.6761
-15.5831 0.9840 2.6362
-15.3792 -2.7715 2.6362
-15.1139 -6.7430 2.7886
-10.3776 -8.0706 2.2118
-10.2901 -13.0291 2.7886
-6.8906 -15.1381 2.7886
-2.9350 -15.6098 2.6581
0.4751 -8.5579 1.4319
3.2372 -10.5869 1.8467
4.4925 -7.5284 1.4606
10.9991 -11.1343 2.6051
11.0830 -6.7988 2.1632
9.8178 -3.1339 1.7145
10.9372 -0.7418 1.8245
15.2810 2.6790 2.5841
14.1814 6.2452 2.5841
11.8820 9.1478 2.5044
5.3598 6.7183 1.4378
6.9675 15.1090 2.7886
3.1492 16.3066 2.7886
-0.8378 16.5581 2.7886
-4.7637 15.8538 2.7886
-6.5498 11.0960 2.1732
-2.7909 2.8518 0.6736
-14.0340 8.6980 2.7886
-15.1109 4.8984 2.6830
-15.5733 1.1250 2.6362
-15.4031 -2.6321 2.6362
-15.1736 -6.6056 2.7886
-10.3736 -7.9178 2.1957
-10.4069 -12.9345 2.7886
-7.0266 -15.0742 2.7886
-3.0774 -15.5905 2.6596
0.3976 -8.5610 1.4319
3.2354 -10.9340 1.9022
4.4003 -7.5278 1.4527
10.9952 -11.3337 2.6285
11.1137 -6.9568 2.1814
9.6419 -3.1741 1.6887
10.9382 -0.8413 1.8258
15.3052 2.5407 2.5841
14.2381 6.1169 2.5841
12.0111 9.0752 2.5141
5.4184 6.6670 1.4372
7.1045 15.0463 2.7886
3.2969 16.2785 2.7886
-0.6879 16.5660 2.7886
-4.6202 15.8971 2.7886
-6.4125 11.0916 2.1608
-11.4467 11.9105 2.7886
-13.9549 8.8248 2.7886
-15.1058 5.0483 2.6901
-15.5621 1.2660 2.6362
-15.4257 -2.4924 2.6362
-15.2320 -6.4677 2.7886
-10.3697 -7.7675 2.1801
-10.5226 -12.8392 2.7886
-7.1623 -15.0089 2.7886
-3.2222 -15.5805 2.6630
0.3201 -8.5635 1.4318
3.2336 -11.3027 1.9612
4.3091 -7.5273 1.4451
10.9239 -11.4660 2.6362
11.1110 -7.0958 2.1934
9.6155 -3.2622 1.6893
10.8896 -0.9368 1.8190
15.3282 2.4022 2.5841
14.2936 5.9881 2.5841
12.2340 9.0709 2.5433
5.4764 6.6152 1.4365
7.2409 14.9824 2.7886
3.4443 16.2491 2.7886
-0.5380 16.5726 2.7886
-4.2317 15.0683 2.6362
-6.2768 11.0873 2.1487
-11.3387 12.0139 2.7886
-13.8746 8.9509 2.7886
-15.1005 5.1990 2.6975
-15.5496 1.4067 2.6362
-15.4470 -2.3529 2.6362
-15.2890 -6.3295 2.7886
-10.3658 -7.6191 2.1648
-10.6377 -12.7425 2.7886
-7.2973 -14.9425 2.7886
-3.3697 -15.5812 2.6684
0.2426 -8.5654 1.4318
3.2316 -11.6949 2.0242
4.2382 -7.5614 1.4443
10.8194 -11.5640 2.6362
11.1083 -7.2364 2.2057
13.3663 -4.6700 2.3554
10.8906 -1.0362 1.8206
15.3498 2.2635 2.5841
14.3479 5.8588 2.5841
12.4622 9.0665 2.5734
5.5340 6.5629 1.4359
7.3767 14.9173 2.7886
3.5915 16.2183 2.7886
-0.3880 16.5778 2.7886
-4.0954 15.1065 2.6362
-6.1426 11.0830 2.1369
-10.3773 11.1966 2.5769
-13.7931 9.0762 2.7886
-15.0952 5.3502 2.7050
-15.5360 1.5471 2.6362
-15.4671 -2.2129 2.6362
-15.3449 -6.1905 2.7886
-10.3619 -7.4728 2.1499
-10.7519 -12.6449 2.7886
-7.4317 -14.8748 2.7886
-3.5202 -15.5927 2.6759
0.1650 -8.5666 1.4318
3.2295 -12.1131 2.0916
4.1682 -7.5968 1.4438
10.7140 -11.6611 2.6362
11.1055 -7.3786 2.2184
13.3637 -4.8052 2.3625
10.9414 -1.1410 1.8307
15.3702 2.1246 2.5841
14.4010 5.7290 2.5841
12.8707 9.1868 2.6404
5.5910 6.5100 1.4353
7.5119 14.8510 2.7886
3.7383 16.1863 2.7886
-0.2379 16.5817 2.7886
-3.9587 15.1438 2.6362
-6.0100 11.0788 2.1255
-10.1852 11.1904 2.5541
-13.7107 9.2006 2.7886
-15.0899 5.5025 2.7129
-15.5210 1.6876 2.6362
-15.4860 -2.0727 2.6362
-15.3732 -6.0407 2.7838
-10.3581 -7.3285 2.1354
-10.8652 -12.5463 2.7886
-7.5655 -14.8059 2.7886
-3.6744 -15.6165 2.6857
0.0875 -8.5671 1.4318
4.1591 -16.1870 2.7886
4.0978 -7.6316 1.4434
10.6077 -11.7573 2.6362
11.1028 -7.5225 2.2314
11.1684 -4.1303 1.9810
10.9424 -1.2413 1.8326
15.3894 1.9855 2.5841
14.4530 5.5988 2.5841
12.9542 9.0705 2.6404
10.3798 11.8671 2.6367
7.6465 14.7834 2.7886
3.8850 16.1529 2.7886
-0.0881 16.5842 2.7886
-3.8219 15.1798 2.6362
-5.8786 11.0746 2.1143
-9.9961 11.1843 2.5319
-13.6270 9.3244 2.7886
-15.0844 5.6558 2.7210
-15.5048 1.8280 2.6362
-15.5036 -1.9323 2.6362
-15.3710 -5.8798 2.7738
-10.3544 -7.1861 2.1213
-10.9776 -12.4466 2.7886
-2.9592 -5.6641 1.0720
-3.8330 -15.6537 2.6982
0.0100 -8.5670 1.4318
4.0122 -16.2231 2.7886
4.0272 -7.6657 1.4430
10.5006 -11.8524 2.6362
11.0999 -7.6680 2.2447
11.1662 -4.2448 1.9873
10.9434 -1.3419 1.8347
15.4072 1.8462 2.5841
14.5037 5.4680 2.5841
13.0365 8.9534 2.6404
10.4887 11.7748 2.6370
7.7803 14.7147 2.7886
4.0310 16.1182 2.7886
0.0620 16.5854 2.7886
-2.7161 11.2156 1.9433
-5.7565 11.0856 2.1062
-9.8101 11.1783 2.5102
-13.5423 9.4475 2.7886
-15.0789 5.8099 2.7294
-15.4873 1.9683 2.6362
-15.5199 -1.7919 2.6362
-15.3687 -5.7200 2.7640
-10.3507 -7.0456 2.1075
-11.0891 -12.3459 2.7886
-2.9748 -5.5705 1.0593
-3.9969 -15.7064 2.7136
-0.0676 -8.5662 1.4318
3.8650 -16.2579 2.7886
3.9564 -7.6993 1.4426
10.3926 -11.9466 2.6362
11.0638 -7.7919 2.2516
11.1640 -4.3599 1.9938
10.9445 -1.4426 1.8370
15.4239 1.7068 2.5841
14.5533 5.3368 2.5841
13.1176 8.8359 2.6404
10.5965 11.6816 2.6373
7.9137 14.6447 2.7886
4.1770 16.0821 2.7886
0.2121 16.5852 2.7886
-2.6171 11.2508 1.9451
-5.7492 11.3211 2.1409
-9.6273 11.1724 2.4892
-13.4564 9.5699 2.7886
-15.0733 5.9650 2.7381
-15.4686 2.1084 2.6362
-15.5350 -1.6512 2.6362
-15.3663 -5.5613 2.7546
-10.3471 -6.9069 2.0940
-11.1996 -12.2443 2.7886
-3.0418 -5.5741 1.0652
-4.1677 -15.7787 2.7326
-0.1451 -8.5648 1.4318
3.7175 -16.2913 2.7886
3.8853 -7.7322 1.4421
10.2838 -12.0398 2.6362
11.0609 -7.9405 2.2655
11.1282 -4.4624 1.9946
10.9455 -1.5437 1.8394
15.4392 1.5674 2.5841
14.6016 5.2054 2.5841
11.8565 7.8313 2.3720
10.7037 11.5873 2.6376
8.0464 14.5735 2.7886
4.3227 16.0449 2.7886
0.3622 16.5837 2.7886
-3.4089 15.2804 2.6362
-5.7417 11.5644 2.1769
-9.4476 11.1667 2.4687
-13.3694 9.6914 2.7886
-15.0677 6.1212 2.7470
-15.4486 2.2483 2.6362
-15.5487 -1.5105 2.6362
-15.3640 -5.4037 2.7454
-10.3697 -6.7871 2.0862
-11.3093 -12.1416 2.7886
-8.0943 -14.5184 2.7886
-4.3479 -15.8776 2.7566
-0.2226 -8.5627 1.4318
3.5698 -16.3233 2.7886
3.8139 -7.7645 1.4417
10.1741 -12.1320 2.6362
11.0913 -8.1151 2.2867
11.1260 -4.5786 2.0015
10.9466 -1.6448 1.8420
15.4532 1.4277 2.5841
14.6488 5.0733 2.5841
11.8651 7.6837 2.3596
10.8100 11.4920 2.6379
8.1786 14.5011 2.7886
4.4680 16.0061 2.7886
0.5123 16.5807 2.7886
-3.2704 15.3116 2.6362
-5.6555 11.6539 2.1840
-9.2704 11.1610 2.4486
-13.2815 9.8120 2.7886
-15.0619 6.2785 2.7562
-15.4274 2.3876 2.6362
-15.5613 -1.3694 2.6362
-15.3616 -5.2474 2.7365
-10.5697 -6.7819 2.1141
-11.4177 -12.0381 2.7886
-8.2250 -14.4434 2.7886
-4.5396 -16.0086 2.7866
-0.5846 -16.6709 2.7886
3.4220 -16.3540 2.7886
3.7424 -7.7962 1.4413
10.0638 -12.2230 2.6362
11.0883 -8.2680 2.3015
11.1237 -4.6958 2.0086
10.9477 -1.7464 1.8447
15.4660 1.2879 2.5841
14.6948 4.9408 2.5841
12.0967 7.6792 2.3916
10.9155 11.3957 2.6382
8.3100 14.4274 2.7886
4.6130 15.9661 2.7886
0.6624 16.5763 2.7886
-3.1321 15.3414 2.6362
-5.5594 11.7254 2.1877
-9.2501 11.3435 2.4702
-13.1922 9.9322 2.7886
-15.0561 6.4363 2.7657
-15.4048 2.5275 2.6362
-15.5725 -1.2287 2.6362
-15.3592 -5.0915 2.7279
-10.7744 -6.7767 2.1429
-11.5257 -11.9334 2.7886
-8.3546 -14.3675 2.7886
-4.6876 -15.9770 2.7886
-0.7351 -16.6639 2.7886
1.6829 -8.4230 1.4337
3.6704 -7.8273 1.4410
9.9523 -12.3133 2.6362
11.0853 -8.4232 2.3166
11.1549 -4.8286 2.0221
10.9487 -1.8485 1.8476
15.4776 1.1476 2.5841
14.7397 4.8075 2.5841
12.3352 7.6746 2.4248
11.0203 11.2983 2.6385
8.4411 14.3525 2.7886
4.7574 15.9248 2.7886
0.8122 16.5709 2.7886
-2.9936 15.3699 2.6362
-5.4885 11.8514 2.2018
-9.2438 11.5473 2.4962
-13.1021 10.0511 2.7886
-15.0502 6.5952 2.7755
-15.3811 2.6665 2.6362
-15.5825 -1.0879 2.6362
-15.3568 -4.9371 2.7195
-10.9848 -6.7712 2.1726
-11.6323 -11.8280 2.7886
-8.4835 -14.2905 2.7886
-4.8314 -15.9329 2.7886
-0.8856 -16.6555 2.7886
1.6065 -8.4364 1.4335
3.5985 -7.8577 1.4406
9.8404 -12.4023 2.6362
11.0823 -8.5799 2.3321
11.1526 -4.9477 2.0297
10.9498 -1.9505 1.8506
15.4878 1.0078 2.5841
14.7832 4.6744 2.5841
13.5079 8.2360 2.6404
11.1238 11.2002 2.6388
8.5710 14.2766 2.7886
4.9019 15.8821 2.7886
0.9625 16.5639 2.7886
-2.8542 15.3973 2.6362
-5.7091 12.6266 2.3360
-9.1571 11.6541 2.5011
-13.0106 10.1697 2.7886
-15.0442 6.7560 2.7855
-15.3561 2.8059 2.6362
-15.5912 -0.9465 2.6362
-15.3543 -4.7831 2.7114
-14.1768 -8.5624 2.7886
-11.7383 -11.7213 2.7886
-8.6121 -14.2120 2.7886
-4.9753 -15.8874 2.7886
-1.0365 -16.6457 2.7886
1.5297 -8.4492 1.4333
3.5260 -7.8875 1.4402
9.7272 -12.4906 2.6362
11.0792 -8.7393 2.3481
11.1503 -5.0681 2.0376
10.9011 -2.0440 1.8454
15.4968 0.8674 2.5841
14.8254 4.5409 2.5841
13.5826 8.1141 2.6404
11.2265 11.1011 2.6391
8.7002 14.1996 2.7886
5.0455 15.8383 2.7886
1.1122 16.5556 2.7886
-2.7152 15.4233 2.6362
-5.7001 12.9165 2.3799
-9.0402 11.7217 2.4979
-12.9184 10.2870 2.7886
-14.9989 6.8992 2.7886
-15.3339 2.9452 2.6369
-15.5987 -0.8056 2.6362
-15.3519 -4.6306 2.7036
-14.2528 -8.4335 2.7886
-11.8430 -11.6140 2.7886
-8.7395 -14.1327 2.7886
-5.1183 -15.8407 2.7886
-1.1867 -16.6346 2.7886
1.4531 -8.4612 1.4332
3.4536 -7.9167 1.4398
9.6136 -12.5775 2.6362
11.0428 -8.8736 2.3573
11.1479 -5.1890 2.0456
10.9022 -2.1463 1.8488
15.5045 0.7274 2.5841
14.8667 4.4065 2.5841
11.8455 6.9314 2.2903
11.3286 11.0008 2.6394
8.8292 14.1211 2.7886
5.1893 15.7930 2.7886
1.2623 16.5459 2.7886
-2.5753 15.4482 2.6362
-5.6908 13.2187 2.4258
-8.9563 11.8333 2.5042
-12.8249 10.4039 2.7886
-14.9358 7.0349 2.7886
-15.3023 3.0833 2.6362
-15.6049 -0.6641 2.6362
-15.3494 -4.4784 2.6960
-14.3279 -8.3035 2.7886
-11.9470 -11.5054 2.7886
-8.8667 -14.0519 2.7886
-5.2613 -15.7925 2.7886
-1.3374 -16.6221 2.7886
1.3761 -8.4727 1.4330
3.3806 -7.9453 1.4395
9.4993 -12.6634 2.6362
11.0397 -9.0363 2.3740
11.1456 -5.3109 2.0539
14.9324 -3.0801 2.5368
15.5109 0.5874 2.5841
14.9065 4.2723 2.5841
11.9332 6.8388 2.2951
11.4295 10.8999 2.6397
4.6404 7.2746 1.4447
5.3321 15.7465 2.7886
1.4119 16.5349 2.7886
-2.4358 15.4717 2.6362
-5.6812 13.5317 2.4736
-8.9263 12.0178 2.5260
-12.7306 10.5196 2.7886
-14.8716 7.1696 2.7886
-15.2736 3.2214 2.6362
-15.6098 -0.5230 2.6362
-15.3468 -4.3276 2.6887
-14.4015 -8.1732 2.7886
-12.0498 -11.3963 2.7886
-8.9927 -13.9703 2.7886
-5.4034 -15.7433 2.7886
-1.4874 -16.6082 2.7886
1.2993 -8.4835 1.4329
3.3078 -7.9732 1.4391
9.3838 -12.7486 2.6362
11.0697 -9.2298 2.3984
11.1432 -5.4343 2.0625
14.9041 -3.2153 2.5368
15.5160 0.4468 2.5841
14.9453 4.1371 2.5841
13.8008 7.7438 2.6405
11.5298 10.7977 2.6399
4.7047 7.2300 1.4441
5.4750 15.6986 2.7886
1.5618 16.5225 2.7886
-2.2955 15.4941 2.6362
-5.6712 13.8585 2.5238
-9.7338 13.3563 2.7886
-12.6349 10.6348 2.7886
-14.8060 7.3042 2.7886
-15.2436 3.3597 2.6362
-15.6134 -0.3814 2.6362
-15.3443 -4.1771 2.6816
-14.4743 -8.0418 2.7886
-12.1518 -11.2858 2.7886
-9.1184 -13.8872 2.7886
-5.5450 -15.6928 2.7886
-1.6231 -16.4496 2.7645
1.2224 -8.4936 1.4328
3.2501 -8.0386 1.4456
9.2680 -12.8323 2.6362
11.0665 -9.3978 2.4161
11.1073 -5.5415 2.0650
14.4575 -3.2559 2.4657
15.5199 0.3066 2.5841
15.0335 4.0157 2.5929
13.8711 7.6193 2.6406
11.6288 10.6949 2.6402
4.7683 7.1849 1.4436
5.6170 15.6496 2.7886
1.7111 16.5088 2.7886
-2.1556 15.5151 2.6362
-5.8082 14.5674 2.6431
-9.6130 13.4442 2.7886
-12.5385 10.7488 2.7886
-14.7395 7.4378 2.7886
-15.2124 3.4973 2.6362
-15.6158 -0.2404 2.6362
-15.3417 -4.0278 2.6748
-14.5456 -7.9103 2.7886
-12.2525 -11.1749 2.7886
-9.2429 -13.8033 2.7886
-5.6867 -15.6408 2.7886
-1.7555 -16.2800 2.7387
1.1452 -8.5031 1.4326
3.2491 -8.2504 1.4784
9.1509 -12.9154 2.6362
11.0632 -9.5689 2.4342
11.1049 -5.6666 2.0740
13.8168 -3.2435 2.3613
10.0499 0.1074 1.6731
15.0190 3.8663 2.5841
13.9405 7.4937 2.6406
11.7262 10.5899 2.6403
4.8317 7.1391 1.4430
5.7591 15.5991 2.7886
1.8609 16.4937 2.7886
-2.0149 15.5349 2.6362
-5.6459 14.5424 2.6290
-9.4911 13.5313 2.7886
-12.4408 10.8623 2.7886
-14.6715 7.5712 2.7886
-15.1799 3.6352 2.6362
-15.6169 -0.0987 2.6362
-15.3391 -3.8794 2.6683
-14.6156 -7.7782 2.7886
-12.3522 -11.0631 2.7886
-9.3665 -13.7184 2.7886
-5.8273 -15.5877 2.7886
-1.8881 -16.1403 2.7181
1.0682 -8.5119 1.4325
3.2479 -8.4712 1.5128
5.2358 -7.5330 1.5279
11.0598 -9.7420 2.4528
11.1025 -5.7924 2.0833
13.3933 -3.2720 2.2939
10.9181 0.0181 1.8175
15.0539 3.7307 2.5841
14.0085 7.3680 2.6406
11.8222 10.4842 2.6403
4.8943 7.0928 1.4424
5.9002 15.5475 2.7886
2.0100 16.4773 2.7886
-1.8746 15.5534 2.6362
-5.5175 14.6014 2.6304
-7.6587 11.1314 2.2796
-12.3424 10.9744 2.7886
-14.6026 7.7031 2.7886
-15.1587 3.7754 2.6383
-15.6167 0.0424 2.6362
-15.3365 -3.7310 2.6619
-14.6848 -7.6449 2.7886
-12.4513 -10.9499 2.7886
-9.4899 -13.6319 2.7886
-5.9680 -15.5331 2.7886
-2.0218 -16.0230 2.7015
0.9908 -8.5201 1.4324
3.2468 -8.7034 1.5490
5.1347 -7.5324 1.5183
11.0564 -9.9185 2.4719
11.1334 -5.9375 2.0991
13.3909 -3.4003 2.2986
10.9303 -0.0810 1.8195
15.0878 3.5942 2.5841
14.0757 7.2411 2.6406
11.9175 10.3773 2.6403
4.9568 7.0458 1.4419
6.0413 15.4944 2.7886
2.1594 16.4595 2.7886
-1.7336 15.5707 2.6362
-5.4265 14.7641 2.6506
-7.5081 11.1266 2.2645
-12.2430 11.0857 2.7886
-14.5324 7.8351 2.7886
-15.1504 3.9187 2.6430
-15.6153 0.1835 2.6362
-15.3338 -3.5840 2.6558
-14.7525 -7.5115 2.7886
-12.5489 -10.8363 2.7886
-9.6120 -13.5448 2.7886
-6.1077 -15.4775 2.7886
-2.1557 -15.9245 2.6883
0.9137 -8.5276 1.4323
3.2455 -8.9460 1.5870
5.0353 -7.5318 1.5090
11.0198 -10.0667 2.4840
11.1310 -6.0659 2.1089
13.3884 -3.5287 2.3035
10.9313 -0.1797 1.8198
15.1202 3.4579 2.5841
14.1414 7.1142 2.6407
12.0115 10.2698 2.6403
5.0185 6.9983 1.4413
6.1814 15.4403 2.7886
2.3082 16.4404 2.7886
-1.5929 15.5866 2.6362
-5.5686 15.5841 2.7886
-7.3590 11.1218 2.2498
-12.1422 11.1966 2.7886
-14.4609 7.9667 2.7886
-15.1418 4.0634 2.6478
-15.6126 0.3251 2.6362
-15.3321 -3.4372 2.6502
-14.8192 -7.3770 2.7886
-12.6459 -10.7214 2.7886
-9.7338 -13.4561 2.7886
-6.2473 -15.4205 2.7886
-2.2909 -15.8412 2.6778
0.8363 -8.5345 1.4322
3.2442 -9.2018 1.6271
4.9367 -7.5311 1.4999
11.0162 -10.2482 2.5041
11.1284 -6.1961 2.1190
13.3859 -3.6582 2.3087
10.9324 -0.2789 1.8203
15.1516 3.3208 2.5841
14.2062 6.9861 2.6407
12.1049 10.1612 2.6403
5.0800 6.9502 1.4407
6.3211 15.3848 2.7886
2.4568 16.4199 2.7886
-1.4521 15.6013 2.6362
-5.4279 15.6346 2.7886
-7.2124 11.1171 2.2355
-12.0408 11.3061 2.7886
-14.3884 8.0970 2.7886
-15.1342 4.2083 2.6531
-15.6086 0.4661 2.6362
-15.3334 -3.2923 2.6452
-14.8845 -7.2425 2.7886
-12.7414 -10.6061 2.7886
-9.8543 -13.3668 2.7886
-6.3859 -15.3623 2.7886
-2.4264 -15.7715 2.6698
0.7591 -8.5407 1.4321
3.2429 -9.4698 1.6694
4.8396 -7.5305 1.4911
11.0458 -10.4635 2.5323
11.1259 -6.3270 2.1293
13.3834 -3.7877 2.3140
10.9334 -0.3778 1.8209
15.1816 3.1840 2.5841
14.2697 6.8580 2.6407
12.1970 10.0521 2.6403
5.1408 6.9016 1.4401
6.4608 15.3279 2.7886
2.6057 16.3981 2.7886
-1.3107 15.6148 2.6362
-5.2861 15.6840 2.7886
-7.0670 11.1125 2.2215
-11.9381 11.4154 2.7886
-14.3145 8.2272 2.7886
-15.1293 4.3551 2.6590
-15.6034 0.6077 2.6362
-15.3344 -3.1473 2.6405
-14.9488 -7.1068 2.7886
-12.8363 -10.4895 2.7886
-9.9744 -13.2759 2.7886
-6.5245 -15.3027 2.7886
-2.5635 -15.7135 2.6640
0.6815 -8.5463 1.4321
3.2414 -9.7533 1.7142
4.7433 -7.5299 1.4825
11.0422 -10.6516 2.5536
11.1233 -6.4597 2.1400
10.7673 -3.1530 1.8666
10.9344 -0.4767 1.8217
15.2103 3.0469 2.5841
14.3319 6.7292 2.6408
12.2881 9.9421 2.6403
5.2011 6.8524 1.4395
6.5994 15.2702 2.7886
2.7540 16.3749 2.7886
-1.1696 15.6270 2.6362
-5.1445 15.7319 2.7886
-6.9239 11.1079 2.2079
-2.8363 2.7616 0.6683
-14.2397 8.3563 2.7886
-15.1244 4.5021 2.6652
-15.5969 0.7485 2.6362
-15.3366 -3.0034 2.6362
-15.0116 -6.9711 2.7886
-10.3845 -8.3306 2.2396
-10.0933 -13.1844 2.7886
-6.6620 -15.2421 2.7886
-2.7014 -15.6664 2.6602
0.6042 -8.5512 1.4320
3.2399 -10.0512 1.7614
4.6485 -7.5294 1.4741
11.0385 -10.8422 2.5753
11.0874 -6.5734 2.1444
10.5024 -3.1787 1.8255
10.9355 -0.5761 1.8226
15.2379 2.9089 2.5841
14.3932 6.5994 2.6408
12.3785 9.8309 2.6403
5.2611 6.8025 1.4389
6.7381 15.2106 2.7886
2.9025 16.3504 2.7886
-1.0279 15.6378 2.6362
-5.0019 15.7788 2.7886
-6.7821 11.1034 2.1946
-2.7998 2.7759 0.6656
-14.1634 8.4852 2.7886
-15.1194 4.6503 2.6717
-15.5891 0.8900 2.6362
-15.3626 -2.8643 2.6362
-15.0734 -6.8343 2.7886
-10.3803 -8.1737 2.2228
-10.2117 -13.0915 2.7886
-6.7995 -15.1801 2.7886
-2.8411 -15.6293 2.6583
0.5266 -8.5554 1.4319
3.2383 -10.3671 1.8117
4.5547 -7.5288 1.4659
11.0318 -11.0331 2.5970
11.0848 -6.7079 2.1556
10.1809 -3.1821 1.7746
10.9365 -0.6753 1.8237
15.2641 2.7713 2.5841
14.1429 6.3307 2.5841
12.4676 9.7193 2.6403
5.3204 6.7523 1.4382
6.8757 15.1501 2.7886
3.0503 16.3246 2.7886
-0.8905 15.7152 2.6476
-4.8594 15.8241 2.7886
-6.6424 11.0989 2.1817
-2.7829 2.8095 0.6676
-14.0863 8.6129 2.7886
-15.1144 4.7986 2.6784
-15.5800 1.0308 2.6362
-15.3873 -2.7253 2.6362
-15.1338 -6.6976 2.7886
-10.3763 -8.0197 2.2065
-10.3289 -12.9978 2.7886
-6.9359 -15.1170 2.7886
-2.9820 -15.6021 2.6584
0.4493 -8.5590 1.4319
3.2366 -10.7004 1.8648
4.4617 -7.5282 1.4579
10.9978 -11.2004 2.6128
11.0821 -6.8443 2.1670
9.7348 -3.1398 1.7017
10.9375 -0.7749 1.8249
15.2892 2.6329 2.5841
14.2004 6.2025 2.5841
11.8809 9.0899 2.4984
5.3794 6.7013 1.4376
7.0133 15.0882 2.7886
3.1984 16.2974 2.7886
-0.7878 16.5609 2.7886
-4.7159 15.8684 2.7886
-6.5038 11.0945 2.1690
-11.5182 11.8409 2.7886
-14.0078 8.7404 2.7886
-15.1092 4.9483 2.6853
-15.5697 1.1720 2.6362
-15.4108 -2.5855 2.6362
-15.1932 -6.5597 2.7886
-10.3723 -7.8674 2.1905
-10.4456 -12.9028 2.7886
-7.0717 -15.0527 2.7886
-3.1249 -15.5847 2.6603
0.3719 -8.5619 1.4318
3.2348 -11.0537 1.9213
4.3699 -7.5276 1.4502
10.9932 -11.3999 2.6362
11.1128 -7.0027 2.1853
9.6422 -3.2063 1.6905
10.9274 -0.8735 1.8244
15.3130 2.4948 2.5841
14.2566 6.0743 2.5841
12.0844 9.0738 2.5237
5.4377 6.6499 1.4370
7.1498 15.0253 2.7886
3.3458 16.2689 2.7886
-0.6382 16.5684 2.7886
-4.3227 15.0416 2.6362
-6.3673 11.0902 2.1567
-11.4110 11.9449 2.7886
-13.9284 8.8667 2.7886
-15.1040 5.0982 2.6925
-15.5581 1.3126 2.6362
-15.4329 -2.4461 2.6362
-15.2511 -6.4218 2.7886
-10.3684 -7.7179 2.1750
-10.5611 -12.8071 2.7886
-7.2074 -14.9869 2.7886
-3.2708 -15.5785 2.6644
0.2943 -8.5642 1.4318
3.2329 -11.4307 1.9818
4.2848 -7.5375 1.4446
10.8891 -11.4988 2.6362
11.1101 -7.1425 2.1975
13.3680 -4.5803 2.3508
10.8818 -0.9692 1.8181
15.3355 2.3560 2.5841
14.3118 5.9451 2.5841
12.3094 9.0694 2.5532
5.4957 6.5978 1.4363
7.2862 14.9609 2.7886
3.4934 16.2390 2.7886
-0.4880 16.5745 2.7886
-4.1863 15.0810 2.6362
-6.2319 11.0859 2.1447
-11.1447 11.8799 2.7496
-13.8475 8.9927 2.7886
-15.0988 5.2494 2.7000
-15.5453 1.4531 2.6362
-15.4538 -2.3065 2.6362
-15.3077 -6.2835 2.7886
-10.3645 -7.5704 2.1598
-10.6757 -12.7103 2.7886
-7.3419 -14.9202 2.7886
-3.4190 -15.5829 2.6705
0.2169 -8.5658 1.4318
3.2309 -11.8305 2.0460
4.2150 -7.5732 1.4441
10.7846 -11.5963 2.6362
11.1074 -7.2834 2.2099
13.3654 -4.7147 2.3578
10.9295 -1.0730 1.8276
15.3567 2.2174 2.5841
14.3656 5.8159 2.5841
12.8144 9.2641 2.6404
5.5529 6.5454 1.4357
7.4216 14.8955 2.7886
3.6402 16.2079 2.7886
-0.3383 16.5793 2.7886
-4.0501 15.1190 2.6362
-6.0984 11.0816 2.1331
-10.3131 11.1945 2.5692
-13.7659 9.1176 2.7886
-15.0935 5.4009 2.7076
-15.5311 1.5940 2.6362
-15.4736 -2.1662 2.6362
-15.3633 -6.1441 2.7886
-10.3607 -7.4245 2.1450
-10.7898 -12.6121 2.7886
-7.4764 -14.8519 2.7886
-3.5709 -15.5983 2.6787
0.1392 -8.5668 1.4318
4.2568 -16.1622 2.7886
4.1448 -7.6085 1.4437
10.6787 -11.6933 2.6362
11.1046 -7.4264 2.2227
11.3468 -4.1186 2.0082
10.9417 -1.1745 1.8313
15.3767 2.0782 2.5841
14.4185 5.6857 2.5841
12.8987 9.1481 2.6404
5.6098 6.4922 1.4350
7.5568 14.8286 2.7886
3.7872 16.1753 2.7886
-0.1879 16.5827 2.7886
-3.9131 15.1559 2.6362
-5.9663 11.0774 2.1217
-10.1221 11.1884 2.5467
-13.6831 9.2417 2.7886
-15.0881 5.5532 2.7156
-15.5158 1.7342 2.6362
-15.4919 -2.0262 2.6362
-15.3725 -5.9873 2.7804
-10.3569 -7.2811 2.1307
-10.9025 -12.5133 2.7886
-7.6098 -14.7828 2.7886
-3.7261 -15.6260 2.6893
0.0618 -8.5671 1.4318
4.1105 -16.1991 2.7886
4.0745 -7.6430 1.4433
10.5723 -11.7889 2.6362
11.1018 -7.5705 2.2357
11.1677 -4.1682 1.9830
10.9427 -1.2746 1.8333
15.3954 1.9393 2.5841
14.4699 5.5555 2.5841
12.9816 9.0318 2.6404
10.4160 11.8366 2.6368
7.6910 14.7607 2.7886
3.9335 16.1415 2.7886
-0.0381 16.5848 2.7886
-3.7762 15.1915 2.6362
-5.8351 11.0732 2.1106
-9.9337 11.1823 2.5246
-13.5989 9.3655 2.7886
-15.0826 5.7071 2.7238
-15.4991 1.8748 2.6362
-15.5092 -1.8855 2.6362
-15.3702 -5.8264 2.7705
-10.3532 -7.1390 2.1166
-11.0148 -12.4131 2.7886
-2.9486 -5.6025 1.0619
-3.8868 -15.6689 2.7028
-0.0159 -8.5668 1.4318
3.9632 -16.2348 2.7886
4.0037 -7.6770 1.4428
10.4647 -11.8839 2.6362
11.0762 -7.7010 2.2446
11.1655 -4.2831 1.9895
10.9438 -1.3754 1.8355
15.4129 1.7997 2.5841
14.5204 5.4243 2.5841
13.0637 8.9143 2.6404
10.5248 11.7438 2.6371
7.8246 14.6916 2.7886
4.0794 16.1064 2.7886
0.1117 16.5855 2.7886
-2.6767 11.1995 1.9391
-5.7541 11.1628 2.1176
-9.7492 11.1764 2.5032
-13.5139 9.4881 2.7886
-15.0771 5.8613 2.7323
-15.4812 2.0147 2.6362
-15.5250 -1.7452 2.6362
-15.3679 -5.6673 2.7609
-10.3495 -6.9994 2.1030
-11.1258 -12.3123 2.7886
-2.9922 -5.5628 1.0595
-4.0528 -15.7287 2.7195
-0.0933 -8.5658 1.4318
3.8162 -16.2691 2.7886
3.9328 -7.7103 1.4424
10.3567 -11.9776 2.6362
11.0628 -7.8409 2.2561
11.1632 -4.3983 1.9960
10.9448 -1.4761 1.8378
15.4291 1.6605 2.5841
14.5695 5.2932 2.5841
13.1445 8.7965 2.6404
10.6323 11.6503 2.6374
7.9580 14.6211 2.7886
4.2256 16.0698 2.7886
0.2621 16.5848 2.7886
-3.5010 15.2590 2.6362
-5.7468 11.4013 2.1528
-9.5671 11.1705 2.4823
-13.4275 9.6105 2.7886
-15.0715 6.0168 2.7410
-15.4620 2.1551 2.6362
-15.5397 -1.6043 2.6362
-15.3656 -5.5086 2.7515
-10.3459 -6.8610 2.0896
-11.2363 -12.2102 2.7886
-8.0069 -14.5676 2.7886
-4.2268 -15.8093 2.7402
-0.1709 -8.5642 1.4318
3.6683 -16.3021 2.7886
3.8615 -7.7430 1.4420
10.2473 -12.0706 2.6362
11.0599 -7.9905 2.2703
11.1275 -4.5011 1.9969
10.9459 -1.5770 1.8402
15.4440 1.5211 2.5841
14.6174 5.1617 2.5841
11.8555 7.7797 2.3671
10.7390 11.5558 2.6377
8.0903 14.5496 2.7886
4.3709 16.0321 2.7886
0.4119 16.5823 2.7886
-3.3631 15.2909 2.6362
-5.7301 11.6285 2.1857
-9.3886 11.1648 2.4620
-13.3403 9.7315 2.7886
-15.0658 6.1730 2.7500
-15.4417 2.2946 2.6362
-15.5530 -1.4638 2.6362
-15.3632 -5.3516 2.7424
-10.4353 -6.7854 2.0954
-11.3454 -12.1073 2.7886
-8.1376 -14.4937 2.7886
-4.4097 -15.9157 2.7656
-0.2482 -8.5619 1.4318
3.5207 -16.3337 2.7886
3.7902 -7.7751 1.4416
10.1376 -12.1623 2.6362
11.0903 -8.1659 2.2916
11.1252 -4.6176 2.0039
10.9470 -1.6786 1.8429
15.4576 1.3811 2.5841
14.6643 5.0292 2.5841
11.9416 7.6822 2.3702
10.8453 11.4600 2.6380
8.2225 14.4767 2.7886
4.5164 15.9929 2.7886
0.5624 16.5795 2.7886
-3.2245 15.3216 2.6362
-5.6212 11.6732 2.1843
-9.2542 11.2097 2.4532
-13.2517 9.8523 2.7886
-15.0600 6.3309 2.7593
-15.4200 2.4345 2.6362
-15.5652 -1.3227 2.6362
-15.3608 -5.1951 2.7336
-10.6371 -6.7802 2.1236
-11.4540 -12.0032 2.7886
-8.2681 -14.4183 2.7886
-4.5913 -16.0057 2.7886
-0.6346 -16.6687 2.7886
1.7339 -8.4137 1.4338
3.7186 -7.8065 1.4412
10.0270 -12.2530 2.6362
11.0873 -8.3192 2.3064
11.1229 -4.7348 2.0111
10.9480 -1.7801 1.8456
15.4700 1.2415 2.5841
14.7098 4.8967 2.5841
12.1749 7.6777 2.4025
10.9503 11.3636 2.6383
8.3535 14.4028 2.7886
4.6610 15.9525 2.7886
0.7122 16.5748 2.7886
-3.0861 15.3510 2.6362
-5.5323 11.7593 2.1909
-9.2480 11.4107 2.4787
-13.1624 9.9718 2.7886
-15.0542 6.4891 2.7689
-15.3971 2.5737 2.6362
-15.5760 -1.1820 2.6362
-15.3584 -5.0401 2.7251
-10.8436 -6.7749 2.1526
-11.5612 -11.8985 2.7886
-8.3975 -14.3421 2.7886
-4.7354 -15.9625 2.7886
-0.7851 -16.6613 2.7886
1.6575 -8.4275 1.4336
3.6465 -7.8374 1.4408
9.9152 -12.3430 2.6362
11.0843 -8.4750 2.3217
11.1541 -4.8680 2.0246
10.9491 -1.8823 1.8486
15.4811 1.1012 2.5841
14.7542 4.7634 2.5841
12.4156 7.6731 2.4360
11.0548 11.2658 2.6386
8.4843 14.3274 2.7886
4.8058 15.9107 2.7886
0.8625 16.5687 2.7886
-2.9470 15.3792 2.6362
-5.4768 11.9208 2.2116
-9.2417 11.6167 2.5051
-13.0716 10.0909 2.7886
-15.0482 6.6487 2.7788
-15.3729 2.7132 2.6362
-15.5856 -1.0407 2.6362
-15.3560 -4.8855 2.7168
-14.1254 -8.6481 2.7886
-11.6675 -11.7928 2.7886
-8.5261 -14.2647 2.7886
-4.8790 -15.9180 2.7886
-0.9355 -16.6524 2.7886
1.5811 -8.4407 1.4334
3.5745 -7.8676 1.4404
9.8030 -12.4316 2.6362
11.0813 -8.6324 2.3374
11.1518 -4.9874 2.0323
10.9390 -1.9825 1.8498
15.4909 0.9614 2.5841
14.7973 4.6301 2.5841
13.5328 8.1955 2.6404
11.1580 11.1674 2.6389
8.6140 14.2512 2.7886
4.9496 15.8677 2.7886
1.0122 16.5613 2.7886
-2.8081 15.4061 2.6362
-5.7061 12.7217 2.3504
-9.1145 11.6718 2.4990
-12.9801 10.2087 2.7886
-15.0403 6.8085 2.7886
-15.3475 2.8520 2.6362
-15.5939 -0.8997 2.6362
-15.3535 -4.7324 2.7088
-14.2022 -8.5197 2.7886
-11.7732 -11.6858 2.7886
-8.6545 -14.1858 2.7886
-5.0228 -15.8720 2.7886
-1.0864 -16.6422 2.7886
1.5042 -8.4533 1.4333
3.5020 -7.8973 1.4401
9.6896 -12.5196 2.6362
11.0495 -8.7698 2.3474
11.1495 -5.1081 2.0402
10.9288 -2.0831 1.8512
15.4995 0.8209 2.5841
14.8394 4.4960 2.5841
13.6074 8.0731 2.6404
11.2608 11.0678 2.6392
8.7434 14.1735 2.7886
5.0937 15.8233 2.7886
1.1624 16.5525 2.7886
-2.6684 15.4318 2.6362
-5.6971 13.0163 2.3950
-9.0082 11.7538 2.4989
-12.8873 10.3262 2.7886
-14.9779 6.9447 2.7886
-15.3316 2.9925 2.6380
-15.6009 -0.7587 2.6362
-15.3510 -4.5802 2.7011
-14.2778 -8.3906 2.7886
-11.8775 -11.5782 2.7886
-8.7817 -14.1061 2.7886
-5.1656 -15.8249 2.7886
-1.2366 -16.6306 2.7886
1.4276 -8.4651 1.4331
3.4295 -7.9262 1.4397
9.5758 -12.6062 2.6362
11.0418 -8.9274 2.3628
11.1471 -5.2294 2.0483
14.9506 -2.9899 2.5368
15.5067 0.6809 2.5841
14.8800 4.3620 2.5841
11.8418 6.8817 2.2855
11.3622 10.9675 2.6395
8.8717 14.0948 2.7886
5.2368 15.7777 2.7886
1.3120 16.5424 2.7886
-2.5290 15.4561 2.6362
-5.6877 13.3213 2.4415
-8.9376 11.8825 2.5089
-12.7937 10.4424 2.7886
-14.9146 7.0797 2.7886
-15.2929 3.1292 2.6362
-15.6067 -0.6173 2.6362
-15.3485 -4.4283 2.6936
-14.3525 -8.2603 2.7886
-11.9813 -11.4693 2.7886
-8.9087 -14.0249 2.7886
-5.3086 -15.7763 2.7886
-1.3872 -16.6176 2.7886
1.3506 -8.4764 1.4330
3.3565 -7.9546 1.4394
9.4608 -12.6920 2.6362
11.0386 -9.0915 2.3797
11.1448 -5.3521 2.0567
14.9231 -3.1254 2.5368
15.5127 0.5403 2.5841
14.9196 4.2271 2.5841
13.7532 7.8265 2.6405
11.4631 10.8658 2.6398
4.6619 7.2597 1.4445
5.3800 15.7306 2.7886
1.4620 16.5309 2.7886
-2.3889 15.4793 2.6362
-5.6779 13.6383 2.4900
-9.8144 13.2967 2.7886
-12.6990 10.5578 2.7886
-14.8501 7.2142 2.7886
-15.2638 3.2672 2.6362
-15.6111 -0.4762 2.6362
-15.3460 -4.2777 2.6863
-14.4257 -8.1298 2.7886
-12.0836 -11.3598 2.7886
-9.0344 -13.9429 2.7886
-5.4505 -15.7266 2.7886
-1.5356 -16.5867 2.7858
1.2738 -8.4869 1.4328
3.2835 -7.9823 1.4390
9.3454 -12.7765 2.6362
11.0686 -9.2853 2.4042
11.1424 -5.4753 2.0654
14.8945 -3.2600 2.5368
15.5174 0.4002 2.5841
14.9578 4.0923 2.5841
13.8242 7.7025 2.6405
11.5628 10.7636 2.6400
4.7258 7.2151 1.4439
5.5222 15.6825 2.7886
1.6114 16.5181 2.7886
-2.2491 15.5012 2.6362
-5.6677 13.9696 2.5408
-9.6938 13.3856 2.7886
-12.6030 10.6727 2.7886
-14.7841 7.3486 2.7886
-15.2333 3.4054 2.6362
-15.6144 -0.3346 2.6362
-15.3434 -4.1274 2.6794
-14.4981 -7.9982 2.7886
-12.1854 -11.2491 2.7886
-9.1598 -13.8595 2.7886
-5.5925 -15.6755 2.7886
-1.6673 -16.3890 2.7552
1.1966 -8.4969 1.4327
3.2498 -8.1084 1.4564
9.2289 -12.8602 2.6362
11.0654 -9.4547 2.4221
11.1065 -5.5833 2.0680
14.2369 -3.2517 2.4297
10.0220 0.1676 1.6686
15.1995 4.0107 2.6194
13.8944 7.5773 2.6406
11.6613 10.6604 2.6403
4.7893 7.1698 1.4434
5.6641 15.6330 2.7886
1.7607 16.5040 2.7886
-2.1091 15.5218 2.6362
-5.7491 14.5459 2.6360
-9.5728 13.4731 2.7886
-12.5063 10.7864 2.7886
-14.7171 7.4820 2.7886
-15.2018 3.5429 2.6362
-15.6163 -0.1935 2.6362
-14.0668 -3.6478 2.7886
-12.8017 -6.9121 2.7886
-10.7935 -9.7849 2.7886
-8.1548 -12.0996 2.7886
-5.0350 -13.7200 2.7886
-1.6131 -14.5489 2.7886
0.9911 -7.5300 1.4447
3.2487 -8.3228 1.6973
8.4585 -12.0147 2.7886
10.4855 -9.1248 2.6362
11.1041 -5.7086 2.3672
13.3950 -3.1874 2.6108
10.0502 0.0769 1.9066
13.4803 3.4265 2.6407
11.9943 6.4005 2.5841
5.5368 4.9697 1.4161
4.2274 6.2054 1.4314
5.0998 13.6849 2.7886
1.6789 14.4840 2.7886
-1.7288 13.6547 2.6362
-5.2213 13.5710 2.7886
-8.3054 11.9176 2.7886
-10.9059 9.5804 2.7886
-12.8758 6.6938 2.7886
-14.1037 3.4223 2.7886
-14.5196 -0.0482 2.7886
-14.0987 -3.5202 2.7886
-12.8631 -6.7956 2.7886
-10.8810 -9.6863 2.7886
-8.2634 -12.0246 2.7886
-5.1586 -13.6731 2.7886
-1.7445 -14.5329 2.7886
0.9228 -7.5377 1.4446
3.2476 -8.5474 1.7371
5.2037 -7.5354 1.7380
10.4023 -9.2191 2.6362
11.1017 -5.8349 2.3779
13.3925 -3.3151 2.6160
10.6924 -0.0149 2.0283
13.5113 3.3046 2.6408
12.0523 6.2921 2.5841
5.5793 4.9174 1.4155
4.2822 6.1651 1.4309
5.2238 13.6390 2.7886
1.8100 14.4691 2.7886
-1.6052 13.6705 2.6362
-5.0985 13.6183 2.7886
-7.6103 11.1338 2.5889
-10.8189 9.6789 2.7886
-12.8147 6.8101 2.7886
-14.0720 3.5498 2.7886
-14.5191 0.0832 2.7886
-14.1295 -3.3923 2.7886
-12.9235 -6.6786 2.7886
-10.9677 -9.5869 2.7886
-8.3714 -11.9486 2.7886
-5.2818 -13.6250 2.7886
-1.8759 -14.5156 2.7886
0.8545 -7.5449 1.4445
3.2464 -8.7828 1.7790
5.1032 -7.5348 1.7272
10.3183 -9.3126 2.6362
11.1326 -5.9803 2.3960
13.3900 -3.4433 2.6215
10.6914 -0.1116 2.0282
13.5412 3.1824 2.6408
12.1093 6.1830 2.5841
10.4786 9.0683 2.6374
4.3365 6.1244 1.4304
5.3473 13.5920 2.7886
1.9410 14.4529 2.7886
-1.4815 13.6852 2.6362
-4.9753 13.6645 2.7886
-7.4601 11.1289 2.5718
-10.7311 9.7767 2.7886
-12.7526 6.9258 2.7886
-14.0392 3.6769 2.7886
-14.5174 0.2146 2.7886
-14.1591 -3.2642 2.7886
-12.9828 -6.5611 2.7886
-11.0533 -9.4868 2.7886
-8.4787 -11.8717 2.7886
-5.4046 -13.5758 2.7886
-2.0070 -14.4972 2.7886
0.7861 -7.5514 1.4444
3.2451 -9.0298 1.8231
5.0040 -7.5342 1.7167
10.2334 -9.4054 2.6362
11.1301 -6.1094 2.4073
13.3875 -3.5721 2.6272
10.6891 -0.2083 2.0280
13.5701 3.0598 2.6408
12.1653 6.0735 2.5841
10.5617 8.9745 2.6376
4.3905 6.0831 1.4299
5.4704 13.5439 2.7886
2.0718 14.4356 2.7886
-1.3577 13.6988 2.6362
-4.8516 13.7096 2.7886
-7.3119 11.1242 2.5553
-10.6424 9.8736 2.7886
-12.6895 7.0410 2.7886
-14.0052 3.8038 2.7886
-14.5145 0.3460 2.7886
-14.1875 -3.1358 2.7886
-13.0411 -6.4430 2.7886
-11.1381 -9.3859 2.7886
-8.5853 -11.7938 2.7886
-5.5269 -13.5255 2.7886
-2.1380 -14.4776 2.7886
0.7177 -7.5574 1.4443
3.2438 -9.2894 1.8696
4.9059 -7.5335 1.7064
10.1477 -9.4974 2.6362
11.1276 -6.2397 2.4188
13.3850 -3.7014 2.6331
10.6854 -0.3050 2.0277
13.5978 2.9371 2.6408
12.2204 5.9635 2.5841
10.6440 8.8798 2.6378
4.4440 6.0413 1.4294
5.5931 13.4946 2.7886
2.2025 14.4171 2.7886
-1.2337 13.7112 2.6362
-4.7276 13.7535 2.7886
-7.1656 11.1195 2.5391
-10.5528 9.9697 2.7886
-12.6253 7.1556 2.7886
-13.9701 3.9304 2.7886
-14.5105 0.4774 2.7886
-14.2148 -3.0072 2.7886
-13.0982 -6.3244 2.7886
-11.2220 -9.2842 2.7886
-8.6911 -11.7149 2.7886
-5.6487 -13.4741 2.7886
-2.2688 -14.4568 2.7886
0.6492 -7.5628 1.4443
3.2424 -9.5625 1.9186
4.8090 -7.5329 1.6964
10.0612 -9.5886 2.6362
11.1250 -6.3712 2.4307
10.9235 -3.1274 2.1543
10.6805 -0.4016 2.0273
13.6243 2.8140 2.6408
12.2744 5.8529 2.5841
10.7255 8.7844 2.6381
4.4971 5.9990 1.4288
5.7154 13.4443 2.7886
2.3330 14.3974 2.7886
-1.1096 13.7226 2.6362
-4.3515 13.0424 2.6362
-7.0210 11.1148 2.5233
-10.4624 10.0650 2.7886
-12.5602 7.2696 2.7886
-13.9338 4.0567 2.7886
-14.5052 0.6087 2.7886
-14.2410 -2.8783 2.7886
-13.1543 -6.2053 2.7886
-11.3050 -9.1817 2.7886
-8.7962 -11.6351 2.7886
-5.7700 -13.4217 2.7886
-2.3993 -14.4349 2.7886
0.5807 -7.5677 1.4442
3.2409 -9.8504 1.9705
4.7133 -7.5323 1.6866
9.9738 -9.6790 2.6362
11.1225 -6.5041 2.4429
10.9135 -3.2316 2.1580
10.6741 -0.4981 2.0268
13.6498 2.6908 2.6409
12.3274 5.7419 2.5841
10.8060 8.6882 2.6383
4.5498 5.9562 1.4283
5.8371 13.3928 2.7886
2.4634 14.3766 2.7886
-0.9854 13.7329 2.6362
-4.2335 13.0818 2.6362
-6.8783 11.1103 2.5080
-2.8238 2.7662 0.7593
-12.4939 7.3832 2.7886
-13.8964 4.1826 2.7886
-14.4988 0.7399 2.7886
-14.2659 -2.7492 2.7886
-13.2093 -6.0858 2.7886
-11.3870 -9.0786 2.7886
-8.9007 -11.5543 2.7886
-5.8909 -13.3681 2.7886
-2.5297 -14.4117 2.7886
0.5121 -7.5719 1.4441
3.2394 -10.1542 2.0254
4.6186 -7.5317 1.6771
9.8856 -9.7687 2.6362
11.0865 -6.6184 2.4481
10.2280 -3.1296 2.0280
10.6675 -0.5945 2.0265
13.6742 2.5673 2.6409
12.3794 5.6304 2.5841
10.8857 8.5912 2.6385
4.6020 5.9129 1.4278
5.9584 13.3403 2.7886
2.5935 14.3546 2.7886
-0.9038 14.4222 2.7667
-4.1151 13.1202 2.6362
-6.7372 11.1057 2.4930
-2.7930 2.7860 0.7577
-12.4267 7.4960 2.7886
-13.8579 4.3081 2.7886
-14.4912 0.8711 2.7886
-14.2898 -2.6199 2.7886
-13.2633 -5.9657 2.7886
-10.3790 -8.1223 2.5237
-9.0043 -11.4726 2.7886
-6.0112 -13.3134 2.7886
-2.6598 -14.3874 2.7886
0.4436 -7.5756 1.4441
3.2378 -10.4755 2.0837
4.5250 -7.5311 1.6679
9.7966 -9.8575 2.6362
11.0839 -6.7535 2.4609
9.9653 -3.1481 1.9815
10.6636 -0.6911 2.0268
13.6974 2.4436 2.6409
12.4304 5.5184 2.5841
10.9645 8.4936 2.6388
4.6538 5.8692 1.4272
6.0792 13.2866 2.7886
2.7234 14.3314 2.7886
-0.7794 14.5448 2.7886
-3.9964 13.1575 2.6362
-6.5977 11.1013 2.4784
-2.7794 2.8231 0.7609
-12.3584 7.6082 2.7886
-13.8183 4.4334 2.7886
-14.4824 1.0022 2.7886
-14.3124 -2.4903 2.7886
-13.3162 -5.8451 2.7886
-10.3750 -7.9689 2.5053
-9.1072 -11.3900 2.7886
-6.1311 -13.2577 2.7886
-2.7897 -14.3619 2.7886
0.3750 -7.5786 1.4441
3.2360 -10.8159 2.1456
4.4325 -7.5305 1.6589
9.7068 -9.9455 2.6362
11.0812 -6.8901 2.4741
9.6378 -3.1408 1.9219
10.6590 -0.7878 2.0271
13.7195 2.3196 2.6409
12.4804 5.4060 2.5841
11.0424 8.3952 2.6390
4.7053 5.8249 1.4267
6.1996 13.2319 2.7886
2.8532 14.3070 2.7886
-0.6478 14.5520 2.7886
-3.8774 13.1937 2.6362
-6.4600 11.0968 2.4642
-10.0921 10.4380 2.7886
-12.2892 7.7198 2.7886
-13.7775 4.5583 2.7886
-14.4725 1.1332 2.7886
-14.3339 -2.3607 2.7886
-13.3679 -5.7242 2.7886
-10.3710 -7.8176 2.4872
-9.2094 -11.3065 2.7886
-6.2504 -13.2008 2.7886
-2.9194 -14.3352 2.7886
0.3064 -7.5811 1.4440
3.1938 -11.0373 2.1838
4.3409 -7.5300 1.6501
9.6162 -10.0327 2.6362
11.1119 -7.0494 2.4951
9.6425 -3.2391 1.9286
10.6538 -0.8843 2.0275
13.7404 2.1955 2.6409
12.5293 5.2931 2.5841
11.1194 8.2961 2.6392
4.7562 5.7802 1.4261
6.3194 13.1761 2.7886
2.9826 14.2814 2.7886
-0.5162 14.5581 2.7886
-3.7580 13.2289 2.6362
-6.3237 11.0925 2.4503
-9.9974 10.5292 2.7886
-12.2189 7.8307 2.7886
-13.7356 4.6827 2.7886
-14.4614 1.2642 2.7886
-14.3542 -2.2307 2.7886
-13.4186 -5.6027 2.7886
-10.3671 -7.6685 2.4697
-9.3108 -11.2220 2.7886
-6.3693 -13.1429 2.7886
-3.0489 -14.3073 2.7886
0.2377 -7.5830 1.4440
3.1008 -11.0908 2.1889
4.2502 -7.5294 1.6415
9.5248 -10.1190 2.6362
11.1092 -7.1894 2.5090
13.1652 -4.5554 2.6413
10.7516 -0.9905 2.0477
13.7603 2.0712 2.6409
12.5773 5.1797 2.5841
11.1956 8.1962 2.6394
4.8067 5.7350 1.4256
6.4389 13.1191 2.7886
3.1119 14.2547 2.7886
-0.3844 14.5629 2.7886
-3.6383 13.2630 2.6362
-6.1890 11.0882 2.4368
-9.9020 10.6195 2.7886
-12.1477 7.9411 2.7886
-13.6926 4.8068 2.7886
-14.4491 1.3950 2.7886
-14.3733 -2.1006 2.7886
-13.4682 -5.4808 2.7886
-10.3632 -7.5215 2.4526
-9.4114 -11.1366 2.7886
-6.4875 -13.0840 2.7886
-3.1779 -14.2783 2.7886
0.1691 -7.5843 1.4440
3.0199 -11.1907 2.2032
4.1606 -7.5289 1.6332
9.4327 -10.2045 2.6362
11.1065 -7.3311 2.5233
13.1235 -4.6743 2.6413
10.6414 -1.0775 2.0285
13.7790 1.9467 2.6409
12.6242 5.0659 2.5841
11.2708 8.0956 2.6396
4.8568 5.6894 1.4250
3.6115 7.1933 1.5358
3.2410 14.2268 2.7886
-0.2526 14.5666 2.7886
-3.5183 13.2960 2.6362
-6.0556 11.0839 2.4236
-9.8057 10.7090 2.7886
-12.0754 8.0508 2.7886
-13.6485 4.9306 2.7886
-14.4356 1.5257 2.7886
-14.3913 -1.9704 2.7886
-13.5166 -5.3584 2.7886
-10.3594 -7.3766 2.4359
-9.5112 -11.0504 2.7886
-6.6052 -13.0240 2.7886
-3.3068 -14.2481 2.7886
0.1005 -7.5850 1.4440
3.6937 -14.1973 2.7886
4.0718 -7.5283 1.6251
9.3397 -10.2892 2.6362
11.1037 -7.4744 2.5380
11.2346 -4.1165 2.2685
10.6341 -1.1741 2.0290
13.7965 1.8220 2.6410
12.6700 4.9518 2.5841
11.3450 7.9944 2.6398
4.9064 5.6433 1.4245
3.6107 7.0322 1.5082
3.3699 14.1977 2.7886
-0.1208 14.5691 2.7886
-3.3979 13.3279 2.6362
-5.9237 11.0797 2.4108
-9.7086 10.7975 2.7886
-12.0022 8.1599 2.7886
-13.6032 5.0539 2.7886
-14.4209 1.6562 2.7886
-14.4081 -1.8401 2.7886
-13.5640 -5.2357 2.7886
-10.3557 -7.2336 2.4197
-9.6103 -10.9632 2.7886
-6.7224 -12.9629 2.7886
-3.4354 -14.2167 2.7886
0.0318 -7.5852 1.4439
3.5649 -14.2294 2.7886
3.9839 -7.5278 1.6172
9.2460 -10.3730 2.6362
11.1009 -7.6194 2.5530
11.1669 -4.2067 2.2624
10.6263 -1.2705 2.0296
13.8129 1.6972 2.6410
12.7149 4.8372 2.5841
11.4184 7.8925 2.6400
4.9555 5.5967 1.4239
3.6099 6.8768 1.4817
3.4984 14.1675 2.7886
0.0111 14.5704 2.7886
-3.2773 13.3588 2.6362
-5.7932 11.0755 2.3983
-9.6107 10.8853 2.7886
-11.9280 8.2682 2.7886
-13.5569 5.1767 2.7886
-14.4051 1.7866 2.7886
-14.4237 -1.7095 2.7886
-13.6102 -5.1125 2.7886
-10.3519 -7.0925 2.4038
-9.7086 -10.8752 2.7886
-2.9575 -5.5788 1.2059
-3.5637 -14.1842 2.7886
-0.0368 -7.5847 1.4440
3.4359 -14.2604 2.7886
3.8968 -7.5272 1.6095
9.1516 -10.4559 2.6362
11.0647 -7.7426 2.5607
11.1647 -4.3215 2.2698
10.6177 -1.3671 2.0302
13.8282 1.5722 2.6410
12.7586 4.7221 2.5841
11.4908 7.7899 2.6402
5.0042 5.5497 1.4233
3.6092 6.7267 1.4563
3.6267 14.1361 2.7886
0.1430 14.5706 2.7886
-2.6433 11.2120 2.2076
-5.7516 11.2424 2.4230
-9.5121 10.9720 2.7886
-11.8528 8.3759 2.7886
-13.5095 5.2992 2.7886
-14.3881 1.9169 2.7886
-14.4382 -1.5788 2.7886
-13.6554 -4.9889 2.7886
-10.3483 -6.9532 2.3884
-9.8060 -10.7862 2.7886
-3.0137 -5.5626 1.2083
-3.6917 -14.1505 2.7886
-0.1054 -7.5837 1.4440
1.7429 -7.5323 1.4698
3.8107 -7.5267 1.6020
9.0564 -10.5380 2.6362
11.0619 -7.8907 2.5765
11.1469 -4.4310 2.2742
10.6085 -1.4636 2.0309
13.8424 1.4471 2.6410
12.8014 4.6066 2.5841
11.5623 7.6866 2.6405
5.0524 5.5023 1.4227
3.6197 6.6022 1.4363
3.7548 14.1035 2.7886
0.2748 14.5695 2.7886
-3.0353 13.4172 2.6362
-5.7442 11.4831 2.4634
-9.4126 11.0580 2.7886
-11.7767 8.4830 2.7886
-13.4609 5.4213 2.7886
-14.3699 2.0470 2.7886
-14.4514 -1.4480 2.7886
-13.6994 -4.8649 2.7886
-10.3447 -6.8156 2.3733
-9.9027 -10.6964 2.7886
-7.0706 -12.7733 2.7886
-3.8193 -14.1157 2.7886
-0.1740 -7.5821 1.4440
1.6712 -7.5319 1.4668
3.7252 -7.5262 1.5947
8.9604 -10.6192 2.6362
11.0590 -8.0406 2.5927
11.1267 -4.5399 2.2784
10.5987 -1.5601 2.0316
13.8554 1.3218 2.6410
12.8431 4.4908 2.5841
11.6321 7.5820 2.6405
5.1002 5.4544 1.4221
3.6784 6.5676 1.4358
3.8824 14.0699 2.7886
0.4066 14.5672 2.7886
-2.9139 13.4448 2.6362
-5.6544 11.5639 2.4696
-9.3124 11.1430 2.7886
-11.6995 8.5894 2.7886
-13.4113 5.5429 2.7886
-14.3506 2.1770 2.7886
-14.4635 -1.3171 2.7886
-13.7423 -4.7405 2.7886
-10.5032 -6.7845 2.3956
-9.9984 -10.6058 2.7886
-7.1853 -12.7080 2.7886
-3.9466 -14.0797 2.7886
-0.2426 -7.5799 1.4440
1.5997 -7.5315 1.4639
3.6406 -7.5257 1.5876
8.9353 -10.7860 2.6575
11.0893 -8.2170 2.6172
11.1245 -4.6569 2.2865
10.5882 -1.6565 2.0323
13.8672 1.1964 2.6410
12.8837 4.3746 2.5841
11.7008 7.4770 2.6405
5.1474 5.4061 1.4215
3.7368 6.5325 1.4354
4.0098 14.0350 2.7886
0.5385 14.5638 2.7886
-2.7922 13.4713 2.6362
-5.5524 11.6207 2.4708
-9.2114 11.2272 2.7886
-11.6215 8.6951 2.7886
-13.3605 5.6641 2.7886
-14.3301 2.3068 2.7886
-14.4744 -1.1861 2.7886
-13.7841 -4.6158 2.7886
-10.7063 -6.7793 2.4280
-10.0934 -10.5143 2.7886
-7.2996 -12.6417 2.7886
-4.0736 -14.0426 2.7886
-0.6009 -14.6322 2.7886
1.5285 -7.5311 1.4612
3.5566 -7.5251 1.5807
8.9290 -10.9791 2.6851
11.0863 -8.3713 2.6343
11.1222 -4.7746 2.2948
10.5782 -1.7532 2.0333
13.8780 1.0711 2.6410
12.9233 4.2581 2.5841
11.7686 7.3712 2.6405
5.1943 5.3573 1.4209
3.7948 6.4968 1.4350
4.1369 13.9990 2.7886
0.6703 14.5591 2.7886
-2.6703 13.4967 2.6362
-5.4688 11.7172 2.4806
-9.1096 11.3104 2.7886
-11.5425 8.8000 2.7886
-13.3088 5.7847 2.7886
-14.3084 2.4362 2.7886
-14.4842 -1.0551 2.7886
-13.8247 -4.4907 2.7886
-10.9151 -6.7739 2.4615
-10.1876 -10.4219 2.7886
-7.4133 -12.5744 2.7886
-4.2003 -14.0043 2.7886
-0.7332 -14.6253 2.7886
1.4576 -7.5308 1.4586
3.4735 -7.5246 1.5740
8.9230 -11.1768 2.7137
11.0388 -8.4932 2.6412
11.1534 -4.9079 2.3103
10.5699 -1.8501 2.0348
13.8875 0.9455 2.6411
12.9618 4.1412 2.5841
11.8354 7.2648 2.6405
5.2406 5.3081 1.4203
3.8525 6.4606 1.4345
4.2637 13.9618 2.7886
0.8021 14.5533 2.7886
-2.5482 13.5210 2.6362
-5.4215 11.8958 2.5078
-9.0072 11.3927 2.7886
-11.4626 8.9042 2.7886
-13.2559 5.9049 2.7886
-14.2856 2.5656 2.7886
-14.4927 -0.9239 2.7886
-13.8643 -4.3652 2.7886
-12.4339 -7.5614 2.7886
-10.2809 -10.3287 2.7886
-7.5263 -12.5060 2.7886
-4.3266 -13.9649 2.7886
-0.8655 -14.6173 2.7886
1.3870 -7.5304 1.4561
3.3910 -7.5241 1.5675
8.9169 -11.3786 2.7431
10.9606 -8.5919 2.6410
11.1510 -5.0278 2.3191
10.5611 -1.9472 2.0364
13.8960 0.8198 2.6411
13.0887 4.0515 2.6019
11.9013 7.1577 2.6405
