ply
format ascii 1.0
element vertex 2051
property float32 x
property float32 y
property float32 z
end_header
17.2004 11.2181 2.0156
18.3215 19.6047 2.6411
12.1309 21.6737 2.4519
7.4832 27.1493 2.7886
0.4670 16.8967 1.6787
-5.9390 27.3674 2.7886
-6.2676 12.8102 1.4232
-9.3226 11.1502 1.4529
-20.7963 15.2616 2.5813
-23.4910 9.7042 2.5441
-23.8888 3.6205 2.4175
-24.0012 -2.1885 2.4088
-24.5496 -8.4711 2.5911
-22.0775 -14.2633 2.6164
-18.2106 -19.3194 2.6356
-13.8650 -24.5250 2.7886
-7.6256 -27.2106 2.7886
-0.9048 -28.3282 2.7886
5.9067 -27.7985 2.7886
11.7284 -24.2387 2.6362
10.9453 -13.2091 1.6766
11.0894 -8.2146 1.3473
11.4062 -4.7725 1.2067
10.9473 -1.7105 1.0818
26.3392 2.2784 2.5841
25.5672 8.6883 2.6441
22.6862 14.5053 2.6428
18.5005 19.4408 2.6411
13.2707 23.2146 2.6394
7.7294 27.0836 2.7886
0.6201 16.8959 1.6789
-5.6916 27.4228 2.7886
-6.1489 12.8612 1.4226
-9.2523 11.2719 1.4577
-20.6717 15.4600 2.5830
-23.4121 9.9206 2.5452
-23.8845 3.8413 2.4206
-23.9970 -1.9693 2.4066
-24.6187 -8.2466 2.5906
-22.1985 -14.0586 2.6158
-18.3789 -19.1477 2.6351
-14.0848 -24.3958 2.7886
-7.8706 -27.1374 2.7886
-1.1610 -28.3158 2.7886
5.6544 -27.8482 2.7886
11.5077 -24.3420 2.6362
10.9650 -13.4793 1.6983
11.0864 -8.3688 1.3561
11.3625 -4.8755 1.2067
10.9483 -1.8123 1.0835
26.3601 2.0403 2.5841
25.6471 8.4575 2.6442
22.8192 14.3010 2.6428
18.6782 19.2752 2.6412
13.4818 23.0963 2.6394
7.9751 27.0155 2.7886
0.7732 16.8951 1.6793
-5.4436 27.4758 2.7886
-6.0299 12.9113 1.4219
-9.2461 11.4746 1.4729
-20.5455 15.6576 2.5847
-23.3314 10.1363 2.5463
-23.8802 4.0624 2.4238
-23.9928 -1.7506 2.4046
-23.4379 -7.6158 2.4591
-22.3178 -13.8528 2.6152
-18.5457 -18.9747 2.6346
-14.3034 -24.2645 2.7886
-8.1150 -27.0620 2.7886
-1.4171 -28.3011 2.7886
5.4016 -27.8956 2.7886
11.2861 -24.4433 2.6362
10.9555 -13.7195 1.7161
11.0834 -8.5249 1.3652
11.3180 -4.9780 1.2067
10.9494 -1.9144 1.0852
26.3789 1.8018 2.5841
25.7250 8.2258 2.6442
22.4401 13.7822 2.5841
18.8543 19.1079 2.6413
13.6919 22.9760 2.6395
8.2203 26.9454 2.7886
0.9265 16.8943 1.6798
-5.1952 27.5265 2.7886
-5.9105 12.9603 1.4212
-9.2397 11.6813 1.4886
-20.4177 15.8541 2.5865
-23.2489 10.3516 2.5474
-23.8759 4.2844 2.4273
-23.9885 -1.5322 2.4028
-23.4333 -7.3805 2.4517
-22.4353 -13.6460 2.6147
-18.7109 -18.8003 2.6340
-14.5208 -24.1313 2.7886
-8.3586 -26.9843 2.7886
-1.6729 -28.2840 2.7886
5.1485 -27.9407 2.7886
11.0638 -24.5424 2.6362
10.9164 -13.9268 1.7297
11.0803 -8.6833 1.3745
11.2725 -5.0803 1.2067
24.8617 -4.5790 2.4680
26.3956 1.5631 2.5841
25.8007 7.9934 2.6442
22.5660 13.5798 2.5841
19.0290 18.9390 2.6413
13.6996 22.5229 2.6012
8.4648 26.8728 2.7886
1.0799 16.8935 1.6804
-4.9466 27.5750 2.7886
-5.7909 13.0084 1.4206
-9.2332 11.8928 1.5048
-20.2881 16.0499 2.5883
-23.1647 10.5664 2.5486
-23.8716 4.5071 2.4310
-23.9843 -1.3141 2.4012
-23.4288 -7.1466 2.4446
-22.5510 -13.4382 2.6141
-18.8745 -18.6245 2.6335
-14.7369 -23.9962 2.7886
-8.6015 -26.9045 2.7886
-1.9286 -28.2647 2.7886
4.8949 -27.9834 2.7886
11.4668 -26.0642 2.7886
10.9175 -14.1911 1.7502
11.0439 -8.8174 1.3798
11.2260 -5.1821 1.2067
10.9291 -2.1154 1.0868
26.4100 1.3240 2.5841
22.0696 6.6190 2.2554
22.6902 13.3761 2.5841
19.2023 18.7683 2.6414
13.6905 22.0555 2.5612
8.7084 26.7983 2.7886
1.2333 16.8928 1.6812
-4.6972 27.6212 2.7886
-5.6942 13.1092 1.4258
-9.2266 12.1089 1.5214
-20.1569 16.2449 2.5902
-23.0787 10.7806 2.5497
-23.8673 4.7304 2.4349
-23.9801 -1.0962 2.3998
-23.9144 -7.0588 2.4887
-22.6649 -13.2296 2.6136
-19.0365 -18.4472 2.6330
-14.9518 -23.8591 2.7886
-8.8436 -26.8225 2.7886
-2.1841 -28.2430 2.7886
4.6410 -28.0238 2.7886
11.2296 -26.1648 2.7886
10.9669 -14.5255 1.7793
11.0408 -8.9794 1.3896
11.1787 -5.2833 1.2067
24.8527 -5.0438 2.4756
26.4222 1.0855 2.5841
25.9457 7.5268 2.6443
22.8122 13.1718 2.5841
19.3736 18.5965 2.6415
13.7395 21.6945 2.5333
8.9516 26.7214 2.7886
1.3870 16.8920 1.6821
-4.4475 27.6653 2.7886
-5.6847 13.4184 1.4537
-9.2198 12.3299 1.5385
-20.0240 16.4390 2.5920
-22.9911 10.9942 2.5509
-23.8630 4.9544 2.4390
-23.9759 -0.8786 2.3986
-24.6846 -7.0439 2.5623
-22.7769 -13.0200 2.6130
-19.1970 -18.2687 2.6325
-15.1654 -23.7201 2.7886
-9.0850 -26.7383 2.7886
-2.4394 -28.2190 2.7886
4.3868 -28.0620 2.7886
10.9920 -26.2631 2.7886
10.9975 -14.8429 1.8060
11.0376 -9.1440 1.3996
11.1303 -5.3842 1.2067
24.8482 -5.2774 2.4798
26.4323 0.8464 2.5841
26.0151 7.2923 2.6444
22.9326 12.9660 2.5841
19.5437 18.4229 2.6415
13.9563 21.6019 2.5368
9.1941 26.6423 2.7886
1.5410 16.8912 1.6832
-3.9679 26.1924 2.6362
-5.6748 13.7400 1.4828
-9.2128 12.5560 1.5562
-19.8895 16.6322 2.5939
-22.9017 11.2073 2.5522
-23.8586 5.1792 2.4433
-23.9717 -0.6613 2.3976
-24.8581 -6.8507 2.5739
-22.8871 -12.8096 2.6125
-19.3557 -18.0888 2.6320
-15.3777 -23.5793 2.7886
-9.3251 -26.6521 2.7886
-2.6939 -28.1928 2.7886
4.1327 -28.0977 2.7886
10.7530 -26.3593 2.7886
11.0025 -15.1341 1.8294
11.0676 -9.3390 1.4141
11.0823 -5.4853 1.2068
24.8436 -5.5118 2.4842
26.4402 0.6072 2.5841
26.0823 7.0572 2.6444
23.0511 12.7592 2.5841
19.7122 18.2476 2.6416
14.1529 21.4771 2.5368
9.4359 26.5611 2.7886
1.6952 16.8904 1.6844
-3.7310 26.2302 2.6362
-5.6645 14.0747 1.5132
-9.2057 12.7874 1.5744
-19.7533 16.8244 2.5958
-22.8106 11.4198 2.5534
-23.8543 5.4048 2.4478
-23.9675 -0.4441 2.3968
-24.8489 -6.6068 2.5668
-22.9955 -12.5983 2.6120
-19.5125 -17.9078 2.6314
-15.5883 -23.4368 2.7886
-9.5648 -26.5636 2.7886
-2.9486 -28.1641 2.7886
3.8779 -28.1312 2.7886
10.5131 -26.4534 2.7886
11.1059 -15.5706 1.8700
11.0643 -9.5089 1.4246
11.0799 -5.6095 1.2121
24.8391 -5.7472 2.4887
10.0496 0.1398 0.9820
26.1473 6.8215 2.6444
23.1678 12.5512 2.5841
19.8791 18.0708 2.6417
14.3659 21.3768 2.5400
9.6770 26.4775 2.7886
1.8497 16.8896 1.6857
-3.4938 26.2655 2.6362
-5.6538 14.4237 1.5450
-9.1984 13.0243 1.5931
-19.6154 17.0157 2.5978
-22.7177 11.6316 2.5547
-23.8499 5.6312 2.4525
-23.9633 -0.2271 2.3962
-24.8367 -6.3638 2.5597
-23.1018 -12.3865 2.6115
-19.6680 -17.7253 2.6309
-15.7981 -23.2921 2.7886
-9.8037 -26.4729 2.7886
-3.2030 -28.1332 2.7886
3.6228 -28.1624 2.7886
10.2725 -26.5453 2.7886
11.1796 -15.9778 1.9068
11.0610 -9.6815 1.4355
11.0775 -5.7348 1.2174
17.2597 -4.1584 1.7330
10.0233 0.0487 0.9793
26.2102 6.5851 2.6445
23.2825 12.3421 2.5841
20.0444 17.8925 2.6417
14.6448 21.3714 2.5547
9.8516 26.2167 2.7701
2.0044 16.8888 1.6872
-3.2563 26.2985 2.6362
-5.6426 14.7876 1.5783
-9.1909 13.2669 1.6125
-19.4760 17.2062 2.5997
-22.6232 11.8429 2.5560
-23.8455 5.8581 2.4574
-23.9591 -0.0106 2.3958
-24.8258 -6.1221 2.5530
-23.2064 -12.1735 2.6110
-19.8218 -17.5414 2.6304
-16.0064 -23.1456 2.7886
-10.0417 -26.3801 2.7886
-3.4571 -28.1000 2.7886
3.3675 -28.1912 2.7886
10.0310 -26.6350 2.7886
11.2136 -16.3392 1.9379
11.0576 -9.8567 1.4466
11.0750 -5.8612 1.2230
16.5432 -4.1445 1.6647
10.9299 -0.0458 1.0678
26.2709 6.3482 2.6445
23.3953 12.1320 2.5841
20.2081 17.7126 2.6418
14.9270 21.3660 2.5698
9.8455 25.4973 2.7030
3.5658 27.8856 2.7886
-3.0184 26.3295 2.6362
-5.6309 15.1678 1.6133
-9.1833 13.5156 1.6324
-19.3351 17.3953 2.6017
-22.5271 12.0531 2.5573
-23.8411 6.0864 2.4626
-23.9549 0.2063 2.3956
-24.8166 -5.8821 2.5466
-23.3092 -11.9596 2.6105
-19.9740 -17.3563 2.6299
-16.2134 -22.9972 2.7886
-10.2789 -26.2851 2.7886
-3.7109 -28.0644 2.7886
3.1119 -28.2177 2.7886
9.7887 -26.7224 2.7886
11.3447 -16.8552 1.9869
11.0210 -10.0045 1.4537
11.0726 -5.9888 1.2286
15.8810 -4.1317 1.6018
10.9310 -0.1447 1.0680
25.7281 5.9711 2.5841
23.5063 11.9208 2.5841
20.3702 17.5313 2.6418
15.2127 21.3605 2.5853
9.8479 24.8328 2.6416
3.8184 27.8551 2.7886
-2.7807 26.3583 2.6362
-5.6187 15.5644 1.6498
-9.1755 13.7701 1.6530
-19.1923 17.5838 2.6037
-22.4291 12.2631 2.5586
-23.8366 6.3156 2.4680
-23.9507 0.4231 2.3955
-24.8087 -5.6435 2.5406
-23.4100 -11.7449 2.6100
-20.1245 -17.1699 2.6295
-16.1568 -22.4820 2.7440
-10.5151 -26.1880 2.7886
-3.9642 -28.0266 2.7886
2.8561 -28.2419 2.7886
9.5457 -26.8076 2.7886
11.3850 -17.2501 2.0214
11.0175 -10.1847 1.4654
11.0701 -6.1176 1.2345
15.2670 -4.1198 1.5435
10.9320 -0.2437 1.0682
25.7828 5.7384 2.5841
22.4917 11.1516 2.4612
20.5306 17.3484 2.6419
15.4003 21.2150 2.5841
10.0523 24.6946 2.6362
4.0704 27.8225 2.7886
-2.5423 26.3851 2.6362
-9.2590 26.3940 2.7886
-9.1674 14.0316 1.6743
-19.0479 17.7713 2.6057
-22.3294 12.4724 2.5600
-23.8322 6.5459 2.4736
-23.9465 0.6399 2.3957
-24.8090 -5.4079 2.5357
-23.5073 -11.5286 2.6093
-20.2733 -16.9822 2.6290
-16.1086 -21.9922 2.7022
-10.7505 -26.0888 2.7886
-4.2173 -27.9865 2.7886
2.6002 -28.2637 2.7886
9.3019 -26.8906 2.7886
11.5312 -17.8203 2.0760
11.0139 -10.3678 1.4774
11.0676 -6.2476 1.2404
15.2042 -4.2508 1.5409
10.9330 -0.3427 1.0685
25.8354 5.5053 2.5841
18.5922 9.0095 2.0253
20.6891 17.1644 2.6420
15.5931 21.0774 2.5841
10.2768 24.6058 2.6362
4.3225 27.7876 2.7886
-2.3036 26.4097 2.6362
-9.0204 26.4790 2.7886
-9.1592 14.3000 1.6962
-18.9019 17.9578 2.6078
-22.2279 12.6811 2.5614
-23.8277 6.7772 2.4794
-23.9423 0.8567 2.3961
-24.8073 -5.1728 2.5308
-23.5555 -11.2889 2.6034
-20.4205 -16.7933 2.6285
-16.0738 -21.5331 2.6639
-10.9849 -25.9874 2.7886
-4.4699 -27.9440 2.7886
2.3440 -28.2832 2.7886
9.0574 -26.9714 2.7886
11.6379 -18.3470 2.1252
11.0435 -10.5857 1.4942
11.0650 -6.3789 1.2466
10.7950 -3.1237 1.0969
10.9341 -0.4418 1.0689
25.8858 5.2720 2.5841
18.5928 8.8033 2.0164
20.8462 16.9786 2.6420
15.7850 20.9377 2.5841
10.5004 24.5150 2.6363
4.5743 27.7504 2.7886
-2.0647 26.4320 2.6362
-8.7812 26.5618 2.7886
-7.6235 12.1431 1.4320
-2.8637 2.7704 0.3986
-22.1248 12.8891 2.5628
-23.8232 7.0096 2.4855
-23.9381 1.0735 2.3966
-24.8156 -4.9406 2.5271
-23.6015 -11.0494 2.5976
-20.5659 -16.6032 2.6281
-16.0970 -21.1619 2.6362
-11.2184 -25.8840 2.7886
-4.7221 -27.8993 2.7886
2.0878 -28.3004 2.7886
8.8122 -27.0500 2.7886
11.7022 -18.8228 2.1681
11.0398 -10.7756 1.5069
11.0625 -6.5115 1.2529
10.6207 -3.1775 1.0820
10.9351 -0.5408 1.0694
25.9342 5.0379 2.5841
24.4809 11.3211 2.6436
21.0016 16.7914 2.6421
15.9756 20.7964 2.5841
10.7232 24.4221 2.6363
4.8258 27.7110 2.7886
-1.8255 26.4524 2.6362
-8.5411 26.6424 2.7886
-7.5095 12.2054 1.4312
-2.8131 2.7712 0.3949
-22.0200 13.0964 2.5643
-23.8187 7.2432 2.4918
-23.9339 1.2905 2.3974
-24.8227 -4.7088 2.5236
-23.6931 -10.8319 2.5970
-20.7096 -16.4118 2.6276
-16.2861 -21.0130 2.6362
-11.4509 -25.7784 2.7886
-4.9738 -27.8523 2.7886
1.8314 -28.3152 2.7886
8.5662 -27.1263 2.7886
11.8812 -19.5021 2.2340
11.0361 -10.9683 1.5199
11.0599 -6.6452 1.2594
10.2920 -3.1809 1.0514
10.9361 -0.6402 1.0700
25.9804 4.8033 2.5841
24.5850 11.1003 2.6436
21.1554 16.6027 2.6422
16.1649 20.6532 2.5841
10.9462 24.3295 2.6366
5.0770 27.6692 2.7886
-1.5862 26.4704 2.6362
-8.3003 26.7210 2.7886
-7.3951 12.2668 1.4304
-2.7888 2.7974 0.3950
-21.9134 13.3030 2.5657
-23.8141 7.4779 2.4983
-23.9297 1.5076 2.3983
-24.8347 -4.4786 2.5207
-23.7825 -10.6136 2.5964
-20.8441 -16.2135 2.6262
-16.4738 -20.8625 2.6362
-11.6824 -25.6708 2.7886
-5.2251 -27.8031 2.7886
1.5754 -28.3277 2.7886
8.3202 -27.2001 2.7886
11.9628 -20.0413 2.2834
10.9991 -11.1313 1.5287
11.0572 -6.7805 1.2660
9.8237 -3.1338 1.0064
10.9372 -0.7396 1.0706
26.0245 4.5683 2.5841
24.6869 10.8784 2.6437
21.3074 16.4126 2.6422
16.3530 20.5084 2.5841
11.1698 24.2378 2.6372
5.3278 27.6252 2.7886
-1.3467 26.4864 2.6362
-8.0588 26.7973 2.7886
-7.2802 12.3272 1.4296
-2.7913 2.8510 0.3990
-21.8052 13.5089 2.5672
-23.8096 7.7139 2.5051
-23.9255 1.7249 2.3994
-23.3678 -3.9960 2.3682
-23.8701 -10.3946 2.5958
-20.9533 -15.9960 2.6219
-16.6601 -20.7102 2.6362
-11.9124 -25.5613 2.7886
-5.4754 -27.7516 2.7886
1.3188 -28.3378 2.7886
8.0730 -27.2719 2.7886
12.1638 -20.8036 2.3578
10.9953 -11.3306 1.5424
11.0546 -6.9174 1.2729
9.6145 -3.1632 0.9879
10.9382 -0.8392 1.0714
26.0664 4.3329 2.5841
24.7869 10.6557 2.6437
12.2059 9.2271 1.5030
16.5398 20.3618 2.5841
11.3926 24.1440 2.6378
5.5782 27.5790 2.7886
-1.1070 26.5003 2.6362
-7.8166 26.8714 2.7886
-7.1649 12.3866 1.4288
-10.7643 11.1958 1.5531
-21.6952 13.7141 2.5688
-23.4238 7.8239 2.4719
-23.9213 1.9424 2.4008
-23.3636 -3.7780 2.3644
-23.9558 -10.1750 2.5952
-21.0895 -15.8006 2.6212
-16.8446 -20.5566 2.6362
-12.1419 -25.4495 2.7886
-5.7257 -27.6978 2.7886
1.0622 -28.3457 2.7886
7.8252 -27.3414 2.7886
12.2737 -21.4343 2.4167
11.0245 -11.5684 1.5612
11.0519 -7.0556 1.2799
9.6155 -3.2603 0.9909
10.8895 -0.9346 1.0674
26.1062 4.0971 2.5841
24.8849 10.4320 2.6438
12.2279 9.0710 1.4954
16.7252 20.2135 2.5841
11.6147 24.0481 2.6384
5.8282 27.5304 2.7886
-0.8672 26.5119 2.6362
-7.5738 26.9433 2.7886
-7.0491 12.4451 1.4281
-10.5650 11.1895 1.5388
-21.5836 13.9185 2.5703
-23.1364 7.9614 2.4491
-23.9171 2.1602 2.4023
-23.3594 -3.5611 2.3607
-24.0395 -9.9552 2.5946
-21.2242 -15.6036 2.6205
-17.0281 -20.4011 2.6362
-12.3703 -25.3357 2.7886
-5.9754 -27.6418 2.7886
0.8055 -28.3512 2.7886
7.5768 -27.4086 2.7886
12.5429 -22.3716 2.5097
11.0204 -11.7757 1.5757
11.0492 -7.1955 1.2871
13.3663 -4.6673 1.3818
10.8906 -1.0341 1.0683
26.1648 3.8640 2.5862
24.9808 10.2074 2.6438
12.4340 9.0506 1.5104
17.2792 20.5024 2.6407
11.8359 23.9502 2.6390
6.0779 27.4797 2.7886
-0.6273 26.5214 2.6362
-7.3302 27.0133 2.7886
-6.9330 12.5026 1.4273
-10.3693 11.1833 1.5250
-21.1825 13.9329 2.5374
-23.1319 8.1943 2.4564
-23.9129 2.3778 2.4040
-23.3552 -3.3444 2.3573
-24.1214 -9.7343 2.5940
-21.3572 -15.4055 2.6199
-17.2102 -20.2439 2.6362
-12.5976 -25.2198 2.7886
-6.2247 -27.5834 2.7886
0.5489 -28.3544 2.7886
7.3277 -27.4736 2.7886
12.7214 -23.1792 2.5875
11.0164 -11.9869 1.5906
11.0465 -7.3369 1.2945
13.3637 -4.8025 1.3859
10.9413 -1.1389 1.0742
26.1792 3.6244 2.5841
25.0746 9.9819 2.6439
12.4769 8.9103 1.5056
17.4664 20.3479 2.6407
12.0554 23.8486 2.6394
6.3270 27.4266 2.7886
-0.4097 28.0624 2.7886
-7.0861 27.0810 2.7886
-6.8167 12.5591 1.4266
-10.1774 11.1772 1.5115
-21.1027 14.1552 2.5430
-23.1273 8.4291 2.4639
-23.9086 2.5961 2.4059
-23.3510 -3.1284 2.3541
-24.2014 -9.5127 2.5935
-21.4884 -15.2064 2.6193
-17.3908 -20.0851 2.6362
-12.8239 -25.1019 2.7886
-6.4733 -27.5229 2.7886
0.2922 -28.3552 2.7886
7.0782 -27.5363 2.7886
12.7457 -23.7301 2.6362
10.9791 -12.1656 1.6012
11.1028 -7.5200 1.3090
13.3611 -4.9386 1.3902
10.9424 -1.2392 1.0753
26.2125 3.3875 2.5841
25.1664 9.7556 2.6439
12.4697 8.7358 1.4950
17.6523 20.1918 2.6408
12.1854 23.5733 2.6207
6.5757 27.3712 2.7886
-0.1561 28.0679 2.7886
-6.8418 27.1463 2.7886
-6.6997 12.6147 1.4258
-9.9885 11.1713 1.4983
-21.0973 14.4302 2.5580
-23.1227 8.6653 2.4717
-23.9044 2.8148 2.4081
-23.9850 -2.9926 2.4153
-24.2795 -9.2906 2.5929
-21.6179 -15.0062 2.6186
-17.5700 -19.9247 2.6362
-13.0491 -24.9820 2.7886
-6.7214 -27.4600 2.7886
0.0356 -28.3537 2.7886
6.8281 -27.5966 2.7886
12.5295 -23.8428 2.6362
11.0079 -12.4217 1.6218
11.1000 -7.6655 1.3169
13.3584 -5.0755 1.3947
10.9434 -1.3397 1.0766
26.2436 3.1503 2.5841
25.2561 9.5283 2.6440
12.4635 8.5643 1.4847
17.8367 20.0339 2.6409
12.1698 23.0307 2.5722
6.8235 27.3138 2.7886
0.0589 16.8988 1.6787
-2.7199 11.2193 1.1498
-6.5824 12.6693 1.4251
-9.8029 11.1654 1.4855
-21.0920 14.7085 2.5733
-23.1181 8.9030 2.4797
-23.9002 3.0339 2.4104
-24.0126 -2.7756 2.4156
-24.3557 -9.0679 2.5924
-21.7456 -14.8050 2.6180
-17.7477 -19.7628 2.6362
-2.9748 -5.5718 0.6250
-6.9688 -27.3950 2.7886
-0.2210 -28.3498 2.7886
6.5775 -27.6548 2.7886
12.3123 -23.9534 2.6362
11.0034 -12.6452 1.6380
11.0638 -7.7894 1.3209
13.3558 -5.2132 1.3993
10.9445 -1.4405 1.0779
26.2726 2.9129 2.5841
23.8430 8.7496 2.4874
12.4711 8.4047 1.4764
18.0193 19.8746 2.6409
12.1548 22.5068 2.5256
7.0712 27.2540 2.7886
0.2119 16.8980 1.6786
-2.6195 11.2492 1.1503
-6.4647 12.7229 1.4244
-9.6203 11.1596 1.4730
-21.0002 14.9289 2.5784
-23.6190 9.3423 2.5424
-23.8959 3.2534 2.4129
-24.0083 -2.5551 2.4129
-24.4300 -8.8446 2.5919
-21.8715 -14.6028 2.6174
-17.9239 -19.5992 2.6362
-3.0421 -5.5756 0.6286
-7.2156 -27.3277 2.7886
-0.4775 -28.3437 2.7886
6.3263 -27.7106 2.7886
12.0942 -24.0621 2.6362
10.9960 -12.8701 1.6542
11.0610 -7.9380 1.3291
11.4768 -4.5999 1.2067
10.9455 -1.5415 1.0793
26.2993 2.6756 2.5841
25.4291 9.0719 2.6440
22.4603 14.8431 2.6427
18.2010 19.7134 2.6410
12.1403 22.0014 2.4808
7.3184 27.1920 2.7886
0.3649 16.8972 1.6786
-6.1039 27.3294 2.7886
-6.3467 12.7756 1.4237
-9.4408 11.1539 1.4608
-20.8785 15.1287 2.5801
-23.5429 9.5595 2.5435
-23.8916 3.4733 2.4156
-24.0041 -2.3351 2.4103
-24.5023 -8.6208 2.5914
-21.9956 -14.3996 2.6168
-18.0975 -19.4330 2.6360
-13.7178 -24.6101 2.7886
-7.4618 -27.2582 2.7886
-0.7339 -28.3351 2.7886
6.0747 -27.7641 2.7886
11.8750 -24.1687 2.6362
10.9531 -13.0574 1.6656
11.0580 -8.0882 1.3375
11.4348 -4.7034 1.2067
10.9466 -1.6426 1.0808
26.3239 2.4377 2.5841
25.5126 8.8422 2.6441
17.2505 11.1771 2.0175
18.3811 19.5505 2.6411
12.1263 21.5134 2.4378
7.5651 27.1277 2.7886
0.5179 16.8964 1.6787
-5.8573 27.3861 2.7886
-6.2280 12.8273 1.4230
-9.2645 11.1484 1.4490
-20.7548 15.3280 2.5818
-23.4651 9.7758 2.5445
-23.8874 3.6942 2.4185
-23.9998 -2.1160 2.4080
-24.5730 -8.3960 2.5909
-22.1177 -14.1957 2.6162
-18.2672 -19.2620 2.6355
-13.9380 -24.4824 2.7886
-7.7078 -27.1863 2.7886
-0.9897 -28.3244 2.7886
5.8222 -27.8154 2.7886
11.6554 -24.2732 2.6362
10.9731 -13.3238 1.6870
11.0884 -8.2655 1.3502
11.3918 -4.8067 1.2067
10.9476 -1.7442 1.0823
26.3464 2.1995 2.5841
25.5940 8.6118 2.6441
22.7306 14.4375 2.6428
18.5597 19.3859 2.6411
13.3410 23.1755 2.6394
7.8112 27.0612 2.7886
0.6710 16.8956 1.6790
-5.6092 27.4407 2.7886
-6.1094 12.8779 1.4223
-9.2503 11.3388 1.4627
-20.6299 15.5258 2.5836
-23.3854 9.9924 2.5456
-23.8831 3.9148 2.4217
-23.9956 -1.8965 2.4059
-24.6413 -8.1715 2.5904
-22.2385 -13.9901 2.6156
-18.4347 -19.0902 2.6349
-14.1578 -24.3522 2.7886
-7.9522 -27.1125 2.7886
-1.2464 -28.3112 2.7886
5.5702 -27.8643 2.7886
11.4339 -24.3760 2.6362
10.9609 -13.5577 1.7040
11.0854 -8.4206 1.3591
11.3478 -4.9098 1.2067
10.9487 -1.8463 1.0840
26.3666 1.9606 2.5841
25.6734 8.3802 2.6442
22.8633 14.2325 2.6429
18.7372 19.2194 2.6412
13.5521 23.0563 2.6394
8.0562 26.9925 2.7886
0.8239 16.8949 1.6794
-5.3616 27.4928 2.7886
-5.9905 12.9276 1.4217
-9.2440 11.5425 1.4781
-20.5034 15.7227 2.5853
-23.3043 10.2077 2.5467
-23.8788 4.1359 2.4250
-23.9914 -1.6782 2.4040
-23.4363 -7.5376 2.4567
-22.3569 -13.7843 2.6150
-18.6007 -18.9170 2.6344
-14.3756 -24.2206 2.7886
-8.1958 -27.0365 2.7886
-1.5019 -28.2957 2.7886
5.3178 -27.9108 2.7886
11.2124 -24.4764 2.6362
10.9528 -13.8007 1.7222
11.0823 -8.5773 1.3682
11.3029 -5.0121 1.2067
10.9498 -1.9484 1.0858
26.3847 1.7225 2.5841
25.7504 8.1487 2.6442
22.4822 13.7151 2.5841
18.9126 19.0520 2.6413
13.7058 22.8428 2.6288
8.3016 26.9215 2.7886
0.9774 16.8941 1.6800
-5.1126 27.5429 2.7886
-5.8708 12.9764 1.4210
-9.2376 11.7513 1.4939
-20.3747 15.9195 2.5871
-23.2210 10.4233 2.5478
-23.8745 4.3586 2.4285
-23.9871 -1.4594 2.4023
-23.4318 -7.3024 2.4493
-22.4740 -13.5768 2.6145
-18.7657 -18.7418 2.6339
-14.5930 -24.0865 2.7886
-8.4397 -26.9580 2.7886
-1.7582 -28.2779 2.7886
5.0640 -27.9552 2.7886
11.0608 -24.7352 2.6533
10.9168 -14.0144 1.7365
11.0793 -8.7367 1.3776
11.2570 -5.1143 1.2067
10.9011 -2.0418 1.0827
26.4006 1.4833 2.5841
25.8253 7.9165 2.6442
22.6072 13.5127 2.5841
19.0864 18.8828 2.6413
13.6966 22.3670 2.5879
8.5454 26.8485 2.7886
1.1306 16.8933 1.6807
-4.8640 27.5906 2.7886
-5.7512 13.0241 1.4204
-9.2310 11.9639 1.5102
-20.2448 16.1147 2.5889
-23.1364 10.6374 2.5490
-23.8702 4.5810 2.4322
-23.9829 -1.2418 2.4007
-23.4273 -7.0694 2.4423
-22.5889 -13.3692 2.6139
-18.9284 -18.5659 2.6333
-14.8083 -23.9510 2.7886
-8.6818 -26.8776 2.7886
-2.0133 -28.2577 2.7886
4.8108 -27.9971 2.7886
11.3883 -26.0978 2.7886
10.9567 -14.3308 1.7634
11.0429 -8.8709 1.3830
11.2104 -5.2158 1.2067
10.9022 -2.1441 1.0847
26.4143 1.2448 2.5841
25.8983 7.6827 2.6443
22.7309 13.3084 2.5841
19.2594 18.7114 2.6414
13.6876 21.9038 2.5482
8.7895 26.7729 2.7886
1.2845 16.8925 1.6815
-4.6140 27.6362 2.7886
-5.6911 13.2109 1.4350
-9.2243 12.1820 1.5271
-20.1128 16.3097 2.5908
-23.0498 10.8519 2.5501
-23.8659 4.8050 2.4362
-23.9787 -1.0237 2.3994
-24.1662 -7.0539 2.5127
-22.7024 -13.1599 2.6134
-19.0902 -18.3879 2.6328
-15.0231 -23.8130 2.7886
-8.9242 -26.7947 2.7886
-2.2692 -28.2353 2.7886
4.5563 -28.0368 2.7886
11.1504 -26.1978 2.7886
10.9765 -14.6286 1.7879
11.0397 -9.0337 1.3929
11.1627 -5.3168 1.2067
24.8512 -5.1211 2.4770
26.4258 1.0062 2.5841
25.9689 7.4491 2.6443
22.8523 13.1038 2.5841
19.4302 18.5391 2.6415
13.8243 21.6843 2.5368
9.0320 26.6954 2.7886
1.4380 16.8917 1.6825
-4.3646 27.6794 2.7886
-5.6815 13.5236 1.4632
-9.2175 12.4043 1.5443
-19.9796 16.5031 2.5927
-22.9617 11.0649 2.5513
-23.8615 5.0288 2.4404
-23.9745 -0.8066 2.3983
-24.8605 -7.0135 2.5784
-22.8137 -12.9504 2.6128
-19.2498 -18.2092 2.6323
-15.2359 -23.6737 2.7886
-9.1648 -26.7099 2.7886
-2.5239 -28.2105 2.7886
4.3025 -28.0741 2.7886
10.9124 -26.2954 2.7886
10.9709 -14.9008 1.8091
11.0698 -9.2270 1.4072
11.1140 -5.4178 1.2067
24.8467 -5.3555 2.4812
26.4351 0.7666 2.5841
26.0377 7.2140 2.6444
22.9723 12.8972 2.5841
19.6000 18.3646 2.6415
14.0220 21.5605 2.5368
9.2748 26.6155 2.7886
1.5924 16.8909 1.6836
-3.8890 26.2055 2.6362
-5.6714 13.8501 1.4928
-9.2105 12.6325 1.5622
-19.8443 16.6964 2.5946
-22.8715 11.2782 2.5526
-23.8572 5.2543 2.4447
-23.9703 -0.5889 2.3973
-24.8560 -6.7695 2.5716
-22.9235 -12.7393 2.6123
-19.4083 -18.0285 2.6318
-15.4482 -23.5319 2.7886
-9.4046 -26.6230 2.7886
-2.7783 -28.1835 2.7886
4.0483 -28.1091 2.7886
10.6736 -26.3907 2.7886
11.0637 -15.3146 1.8472
11.0665 -9.3950 1.4176
11.0815 -5.5264 1.2086
24.8421 -5.5897 2.4856
26.4422 0.5279 2.5841
26.1040 6.9791 2.6444
23.0900 12.6903 2.5841
19.7677 18.1892 2.6416
14.2178 21.4354 2.5368
9.5159 26.5334 2.7886
1.7464 16.8901 1.6848
-3.6524 26.2421 2.6362
-5.6610 14.1888 1.5236
-9.2033 12.8653 1.5805
-19.7078 16.8880 2.5965
-22.7800 11.4901 2.5538
-23.8528 5.4798 2.4493
-23.9661 -0.3722 2.3966
-24.8451 -6.5260 2.5645
-23.0310 -12.5281 2.6118
-19.5645 -17.8472 2.6313
-15.6584 -23.3887 2.7886
-9.6445 -26.5336 2.7886
-3.0334 -28.1541 2.7886
3.7929 -28.1418 2.7886
10.4330 -26.4843 2.7886
11.1296 -15.7038 1.8820
11.0632 -9.5662 1.4282
11.0791 -5.6511 1.2138
24.8376 -5.8258 2.4903
10.0499 0.1095 0.9820
26.1685 6.7427 2.6444
23.2062 12.4816 2.5841
19.9344 18.0115 2.6417
14.4585 21.3750 2.5448
9.7572 26.4492 2.7886
1.9012 16.8893 1.6862
-2.5546 19.6586 1.9722
-5.6501 14.5433 1.5559
-9.1959 13.1045 1.5995
-19.5691 17.0793 2.5984
-22.6864 11.7021 2.5551
-23.8484 5.7069 2.4541
-23.9619 -0.1548 2.3961
-24.8322 -6.2834 2.5574
-23.1367 -12.3160 2.6113
-19.7192 -17.6645 2.6308
-15.8673 -23.2437 2.7886
-9.8827 -26.4424 2.7886
-3.2873 -28.1225 2.7886
3.5382 -28.1722 2.7886
10.1923 -26.5754 2.7886
11.1589 -16.0505 1.9115
11.0599 -9.7392 1.4391
11.0767 -5.7766 1.2192
17.0158 -4.1537 1.7097
10.9292 0.0203 1.0678
26.2305 6.5066 2.6445
23.3201 12.2726 2.5841
20.0988 17.8330 2.6417
14.7380 21.3696 2.5596
9.8495 25.9745 2.7475
3.3967 27.9045 2.7886
-3.1775 26.3091 2.6362
-5.6388 14.9118 1.5897
-9.1884 13.3487 1.6190
-19.4294 17.2691 2.6004
-22.5915 11.9128 2.5564
-23.8440 5.9341 2.4591
-23.9577 0.0617 2.3957
-24.8230 -6.0420 2.5508
-23.2409 -12.1023 2.6108
-19.8727 -17.4798 2.6303
-16.0756 -23.0963 2.7886
-10.1209 -26.3487 2.7886
-3.5417 -28.0883 2.7886
3.2823 -28.2003 2.7886
9.9503 -26.6643 2.7886
11.2885 -16.5552 1.9595
11.0564 -9.9157 1.4504
11.0742 -5.9036 1.2248
16.3168 -4.1401 1.6432
10.9303 -0.0788 1.0679
25.6904 6.1260 2.5841
23.4325 12.0617 2.5841
20.2623 17.6523 2.6418
15.0218 21.3641 2.5749
9.8435 25.2650 2.6815
3.6500 27.8755 2.7886
-2.9390 26.3394 2.6362
-5.6269 15.2983 1.6253
-9.1807 13.5989 1.6392
-19.2880 17.4579 2.6024
-22.4948 12.1228 2.5577
-23.8396 6.1623 2.4644
-23.9535 0.2781 2.3955
-24.8131 -5.8027 2.5445
-23.3428 -11.8885 2.6103
-20.0241 -17.2946 2.6298
-16.2354 -22.8823 2.7806
-10.3573 -26.2531 2.7886
-3.7949 -28.0521 2.7886
3.0271 -28.2260 2.7886
9.7083 -26.7509 2.7886
11.3732 -17.0075 2.0009
11.0198 -10.0639 1.4575
11.0717 -6.0314 1.2305
15.6724 -4.1277 1.5819
10.9313 -0.1775 1.0680
25.7465 5.8941 2.5841
23.5426 11.8506 2.5841
20.4235 17.4708 2.6419
15.3081 21.3586 2.5905
9.9024 24.7532 2.6362
3.9021 27.8445 2.7886
-2.7012 26.3675 2.6362
-9.4175 26.3362 2.7886
-9.1728 13.8565 1.6600
-19.1444 17.6464 2.6044
-22.3960 12.3330 2.5591
-23.8352 6.3923 2.4698
-23.9493 0.4953 2.3956
-24.8090 -5.5649 2.5390
-23.4432 -11.6732 2.6098
-20.1743 -17.1074 2.6293
-16.1325 -22.3059 2.7286
-10.5937 -26.1552 2.7886
-4.0486 -28.0135 2.7886
2.7708 -28.2494 2.7886
9.4645 -26.8356 2.7886
11.4163 -17.4115 2.0363
11.0163 -10.2454 1.4693
11.0692 -6.1608 1.2364
15.2294 -4.1590 1.5409
10.9323 -0.2767 1.0683
25.8006 5.6608 2.5841
22.4845 11.0637 2.4567
20.5837 17.2871 2.6419
15.4648 21.1692 2.5841
10.1268 24.6654 2.6362
4.1540 27.8112 2.7886
-2.4632 26.3934 2.6362
-9.1800 26.4224 2.7886
-9.1647 14.1198 1.6814
-18.9997 17.8332 2.6064
-22.2960 12.5417 2.5605
-23.8307 6.6224 2.4755
-23.9451 0.7117 2.3958
-24.8086 -5.3299 2.5341
-23.5235 -11.4491 2.6074
-20.3223 -16.9197 2.6288
-16.0970 -21.8386 2.6894
-10.8283 -26.0554 2.7886
-4.3010 -27.9727 2.7886
2.5153 -28.2704 2.7886
9.2210 -26.9177 2.7886
11.5654 -17.9911 2.0919
11.0459 -10.4606 1.4859
11.0667 -6.2910 1.2425
15.1914 -4.2964 1.5409
10.9334 -0.3756 1.0686
25.8524 5.4279 2.5841
18.5924 8.9408 2.0223
20.7416 17.1026 2.6420
15.6572 21.0310 2.5841
10.3514 24.5757 2.6362
4.4065 27.7755 2.7886
-2.2240 26.4174 2.6362
-8.9408 26.5068 2.7886
-7.6993 12.1010 1.4326
-18.8529 18.0197 2.6085
-22.1938 12.7505 2.5619
-23.8262 6.8545 2.4814
-23.9409 0.9290 2.3962
-24.8097 -5.0953 2.5295
-23.5711 -11.2090 2.6015
-20.4692 -16.7301 2.6284
-16.0624 -21.3830 2.6514
-11.0629 -25.9532 2.7886
-4.5540 -27.9294 2.7886
2.2586 -28.2892 2.7886
8.9758 -26.9978 2.7886
11.6753 -18.5293 2.1422
11.0423 -10.6487 1.4984
11.0642 -6.4229 1.2487
10.7690 -3.1514 1.0952
10.9344 -0.4745 1.0691
25.9021 5.1945 2.5841
18.5931 8.7352 2.0136
20.8979 16.9167 2.6421
15.8483 20.8911 2.5841
10.5743 24.4844 2.6363
4.6577 27.7376 2.7886
-1.9854 26.4390 2.6362
-8.7017 26.5887 2.7886
-7.5858 12.1638 1.4318
-2.8376 2.7617 0.3960
-22.0903 12.9579 2.5633
-23.8217 7.0869 2.4876
-23.9367 1.1454 2.3968
-24.8182 -4.8637 2.5260
-23.6322 -10.9775 2.5974
-20.6138 -16.5399 2.6279
-16.1598 -21.1127 2.6362
-11.2956 -25.8492 2.7886
-4.8056 -27.8840 2.7886
2.0028 -28.3055 2.7886
8.7308 -27.0755 2.7886
11.7424 -19.0145 2.1861
11.0386 -10.8392 1.5112
11.0616 -6.5557 1.2550
10.5090 -3.1786 1.0716
10.9354 -0.5739 1.0696
25.9498 4.9597 2.5841
24.5158 11.2476 2.6436
21.0531 16.7286 2.6421
16.0388 20.7488 2.5841
10.7973 24.3907 2.6363
4.9096 27.6973 2.7886
-1.7458 26.4586 2.6362
-8.4609 26.6688 2.7886
-7.4714 12.2260 1.4309
-2.8010 2.7760 0.3944
-21.9846 13.1653 2.5648
-23.8172 7.3213 2.4940
-23.9325 1.3629 2.3977
-24.8247 -4.6317 2.5224
-23.7231 -10.7592 2.5968
-20.7571 -16.3477 2.6274
-16.3488 -20.9630 2.6362
-11.5281 -25.7428 2.7886
-5.0576 -27.8362 2.7886
1.7459 -28.3196 2.7886
8.4842 -27.1512 2.7886
11.9251 -19.7063 2.2533
11.0348 -11.0331 1.5243
11.0590 -6.6899 1.2616
10.1871 -3.1820 1.0417
10.9365 -0.6731 1.0702
25.9953 4.7255 2.5841
24.6190 11.0269 2.6436
21.2060 16.5399 2.6422
16.2274 20.6054 2.5841
11.0204 24.2993 2.6368
5.1602 27.6549 2.7886
-1.5068 26.4760 2.6362
-8.2204 26.7465 2.7886
-7.3570 12.2869 1.4301
-2.7837 2.8091 0.3955
-21.8777 13.3713 2.5662
-23.8126 7.5560 2.5006
-23.9283 1.5796 2.3987
-24.8400 -4.4027 2.5200
-23.8118 -10.5411 2.5962
-20.8800 -16.1410 2.6247
-16.5357 -20.8122 2.6362
-11.7589 -25.6347 2.7886
-5.3083 -27.7862 2.7886
1.4898 -28.3314 2.7886
8.2379 -27.2243 2.7886
12.0097 -20.2584 2.3041
10.9979 -11.1973 1.5332
11.0564 -6.8260 1.2683
9.7900 -3.1557 1.0039
10.9375 -0.7728 1.0709
26.0387 4.4899 2.5841
24.7205 10.8043 2.6437
21.3577 16.3489 2.6422
16.4154 20.4597 2.5841
11.2442 24.2067 2.6374
5.4113 27.6101 2.7886
-1.2668 26.4913 2.6362
-7.9782 26.8223 2.7886
-7.2418 12.3471 1.4293
-10.8992 11.2001 1.5629
-21.7687 13.5774 2.5677
-23.8080 7.7929 2.5074
-23.9241 1.7974 2.3999
-23.3664 -3.9233 2.3669
-23.8989 -10.3215 2.5956
-20.9989 -15.9309 2.6216
-16.7218 -20.6591 2.6362
-11.9886 -25.5245 2.7886
-5.5584 -27.7341 2.7886
1.2337 -28.3407 2.7886
7.9909 -27.2952 2.7886
12.2172 -21.0395 2.3804
11.0271 -11.4318 1.5517
11.0537 -6.9630 1.2752
9.6422 -3.2044 0.9917
10.9385 -0.8722 1.0717
26.0798 4.2548 2.5841
24.8196 10.5817 2.6437
12.2091 9.1721 1.5000
16.6014 20.3128 2.5841
11.4663 24.1125 2.6380
5.6611 27.5631 2.7886
-1.0276 26.5044 2.6362
-7.7362 26.8956 2.7886
-7.1265 12.4061 1.4286
-10.6978 11.1937 1.5483
-21.6584 13.7819 2.5693
-23.1779 7.8191 2.4484
-23.9199 2.0146 2.4013
-23.3622 -3.7059 2.3632
-23.9838 -10.1021 2.5950
-21.1346 -15.7350 2.6210
-16.9060 -20.5050 2.6362
-12.2181 -25.4118 2.7886
-5.8090 -27.6794 2.7886
0.9766 -28.3478 2.7886
7.7424 -27.3641 2.7886
12.3369 -21.6963 2.4421
11.0231 -11.6371 1.5660
11.0510 -7.1021 1.2823
13.3681 -4.5777 1.3791
10.9172 -0.9702 1.0704
26.1679 4.0259 2.5890
24.9170 10.3572 2.6438
12.3033 9.0696 1.5012
16.7867 20.1637 2.5841
11.6885 24.0157 2.6386
5.9115 27.5137 2.7886
-0.7872 26.5153 2.6362
-7.4927 26.9670 2.7886
-7.0105 12.4644 1.4278
-10.4993 11.1874 1.5342
-21.4721 13.9385 2.5620
-23.1349 8.0390 2.4515
-23.9157 2.2320 2.4028
-23.3580 -3.4892 2.3596
-24.0668 -9.8820 2.5944
-21.2685 -15.5381 2.6203
-17.0886 -20.3492 2.6362
-12.4458 -25.2975 2.7886
-6.0581 -27.6226 2.7886
0.7205 -28.3525 2.7886
7.4943 -27.4304 2.7886
12.6219 -22.6715 2.5391
11.0191 -11.8453 1.5806
11.0483 -7.2422 1.2895
13.3655 -4.7121 1.3831
10.9661 -1.0744 1.0760
26.2574 3.7972 2.5942
25.0121 10.1328 2.6438
12.4705 9.0201 1.5115
17.3414 20.4514 2.6407
11.9091 23.9174 2.6392
6.1605 27.4623 2.7886
-0.5697 27.5897 2.7421
-7.2494 27.0361 2.7886
-6.8944 12.5215 1.4271
-10.3052 11.1813 1.5204
-21.1062 13.9737 2.5333
-23.1303 8.2724 2.4589
-23.9114 2.4505 2.4046
-23.3538 -3.2723 2.3562
-24.1482 -9.6605 2.5938
-21.4012 -15.3393 2.6197
-17.2706 -20.1912 2.6362
-12.6732 -25.1807 2.7886
-6.3076 -27.5635 2.7886
0.4633 -28.3549 2.7886
7.2446 -27.4948 2.7886
12.8842 -23.6446 2.6351
10.9822 -12.0223 1.5910
11.1047 -7.4239 1.3039
13.3628 -4.8478 1.3874
10.9417 -1.1723 1.0746
26.1906 3.5454 2.5841
25.1054 9.9066 2.6439
12.4770 8.8536 1.5023
17.5285 20.2961 2.6408
12.1277 23.8129 2.6394
6.4100 27.4084 2.7886
-0.3250 28.0645 2.7886
-7.0046 27.1032 2.7886
-6.7780 12.5776 1.4263
-10.1144 11.1752 1.5071
-21.1009 14.2460 2.5479
-23.1258 8.5072 2.4665
-23.9072 2.6685 2.4066
-23.3496 -3.0569 2.3530
-24.2275 -9.4392 2.5933
-21.5316 -15.1402 2.6190
-17.4504 -20.0322 2.6362
-12.8987 -25.0623 2.7886
-6.5556 -27.5023 2.7886
0.2071 -28.3549 2.7886
6.9953 -27.5565 2.7886
12.6742 -23.7677 2.6362
10.9777 -12.2376 1.6063
11.1019 -7.5680 1.3116
13.3602 -4.9838 1.3917
10.9427 -1.2725 1.0757
26.2231 3.3089 2.5841
25.1963 9.6804 2.6439
12.4661 8.6776 1.4914
17.7136 20.1396 2.6408
12.1801 23.3909 2.6044
6.6581 27.3524 2.7886
-0.0715 28.0692 2.7886
-6.7600 27.1677 2.7886
-6.6607 12.6330 1.4256
-9.9263 11.1693 1.4940
-21.0956 14.5226 2.5630
-23.1212 8.7444 2.4743
-23.9030 2.8878 2.4088
-24.0154 -2.9228 2.4175
-24.3051 -9.2165 2.5928
-21.6607 -14.9393 2.6184
-17.6294 -19.8709 2.6362
-2.9489 -5.6044 0.6266
-6.8039 -27.4386 2.7886
-0.0500 -28.3526 2.7886
6.7446 -27.6163 2.7886
12.4572 -23.8799 2.6362
11.0065 -12.4958 1.6272
11.0799 -7.7011 1.3172
13.3575 -5.1213 1.3962
10.9438 -1.3733 1.0770
26.2535 3.0712 2.5841
23.8425 8.9130 2.4931
12.4652 8.5103 1.4818
17.8979 19.9809 2.6409
12.1648 22.8550 2.5566
6.9057 27.2946 2.7886
0.1096 16.8985 1.6787
-2.6801 11.2019 1.1472
-6.5435 12.6871 1.4249
-9.7420 11.1635 1.4813
-21.0807 14.7949 2.5773
-23.1166 8.9822 2.4824
-23.8987 3.1066 2.4112
-24.0112 -2.7024 2.4147
-24.3806 -8.9940 2.5922
-21.7875 -14.7381 2.6178
-17.8062 -19.7088 2.6362
-2.9923 -5.5641 0.6252
-7.0507 -27.3729 2.7886
-0.3060 -28.3481 2.7886
6.4943 -27.6735 2.7886
12.2401 -23.9897 2.6362
11.0009 -12.7193 1.6433
11.0629 -7.8384 1.3236
13.3549 -5.2591 1.4008
10.9448 -1.4739 1.0783
26.2817 2.8341 2.5841
23.8432 8.6686 2.4847
12.4740 8.3521 1.4737
18.0800 19.8211 2.6410
12.1499 22.3363 2.5105
7.1537 27.2336 2.7886
0.2629 16.8977 1.6786
-6.2683 27.2906 2.7886
-6.4254 12.7406 1.4242
-9.5602 11.1577 1.4689
-20.9598 14.9956 2.5790
-23.5938 9.4147 2.5428
-23.8945 3.3266 2.4138
-24.0069 -2.4817 2.4120
-24.4543 -8.7701 2.5917
-21.9130 -14.5352 2.6172
-17.9823 -19.5443 2.6362
-13.5701 -24.6943 2.7886
-7.2978 -27.3048 2.7886
-0.5630 -28.3411 2.7886
6.2425 -27.7287 2.7886
12.0212 -24.0979 2.6362
10.9609 -12.9076 1.6548
11.0600 -7.9880 1.3319
11.4629 -4.6345 1.2067
10.9459 -1.5749 1.0797
26.3077 2.5968 2.5841
25.4570 8.9958 2.6441
22.5056 14.7762 2.6427
18.2608 19.6596 2.6410
12.1356 21.8377 2.4664
7.4002 27.1709 2.7886
0.4156 16.8969 1.6786
-6.0221 27.3487 2.7886
-6.3074 12.7928 1.4235
-9.3820 11.1521 1.4569
-20.8378 15.1947 2.5807
-23.5172 9.6314 2.5438
-23.8902 3.5463 2.4166
-24.0027 -2.2623 2.4096
-24.5259 -8.5465 2.5912
-22.0363 -14.3320 2.6166
-18.1539 -19.3766 2.6358
-13.7910 -24.5679 2.7886
-7.5433 -27.2346 2.7886
-0.8189 -28.3318 2.7886
5.9912 -27.7813 2.7886
11.8022 -24.2036 2.6362
10.9493 -13.1326 1.6710
11.0904 -8.1633 1.3444
11.4206 -4.7379 1.2067
10.9469 -1.6764 1.0813
26.3317 2.3583 2.5841
25.5399 8.7655 2.6441
22.6413 14.5733 2.6428
18.4408 19.4958 2.6411
12.1217 21.3544 2.4238
7.6472 27.1058 2.7886
0.5689 16.8962 1.6788
-5.7743 27.4046 2.7886
-6.1887 12.8443 1.4228
-9.2544 11.2051 1.4527
-20.7135 15.3938 2.5824
-23.4387 9.8484 2.5449
-23.8860 3.7674 2.4195
-23.9984 -2.0425 2.4073
-24.5958 -8.3215 2.5907
-22.1583 -14.1270 2.6160
-18.3230 -19.2051 2.6353
-14.0117 -24.4390 2.7886
-7.7890 -27.1620 2.7886
-1.0756 -28.3202 2.7886
5.7386 -27.8319 2.7886
11.5822 -24.3074 2.6362
10.9691 -13.4006 1.6925
11.0874 -8.3166 1.3531
11.3774 -4.8408 1.2067
10.9480 -1.7780 1.0829
26.3534 2.1205 2.5841
25.6205 8.5353 2.6441
22.7747 14.3698 2.6428
18.6186 19.3310 2.6412
13.4109 23.1363 2.6394
7.8926 27.0386 2.7886
0.7217 16.8954 1.6791
-5.5271 27.4582 2.7886
-6.0700 12.8945 1.4221
-9.2482 11.4060 1.4678
-20.5881 15.5912 2.5842
-23.3587 10.0640 2.5459
-23.8817 3.9882 2.4227
-23.9942 -1.8240 2.4052
-24.6636 -8.0969 2.5903
-22.2780 -13.9219 2.6154
-18.4900 -19.0328 2.6347
-14.2302 -24.3087 2.7886
-8.0332 -27.0875 2.7886
-1.3312 -28.3063 2.7886
5.4864 -27.8799 2.7886
11.3605 -24.4096 2.6362
10.9583 -13.6378 1.7100
11.0844 -8.4724 1.3621
11.3330 -4.9438 1.2067
10.9491 -1.8802 1.0846
26.3729 1.8815 2.5841
25.6992 8.3034 2.6442
22.3976 13.8496 2.5841
18.7956 19.1640 2.6412
13.6218 23.0165 2.6394
8.1384 26.9690 2.7886
0.8752 16.8946 1.6796
-5.2783 27.5098 2.7886
-5.9505 12.9440 1.4215
-9.2419 11.6119 1.4833
-20.4605 15.7886 2.5859
-23.2766 10.2799 2.5471
-23.8774 4.2104 2.4261
-23.9899 -1.6050 2.4034
-23.4348 -7.4588 2.4542
-22.3963 -13.7150 2.6148
-18.6554 -18.8592 2.6342
-14.4476 -24.1764 2.7886
-8.2766 -27.0107 2.7886
-1.5867 -28.2901 2.7886
5.2338 -27.9257 2.7886
11.1387 -24.5093 2.6362
10.9501 -13.8826 1.7283
11.0813 -8.6298 1.3713
11.2879 -5.0459 1.2067
10.9501 -1.9823 1.0864
26.3902 1.6433 2.5841
25.7755 8.0717 2.6442
22.5239 13.6480 2.5841
18.9705 18.9959 2.6413
13.7027 22.6831 2.6150
8.3826 26.8975 2.7886
1.0283 16.8938 1.6802
-5.0301 27.5590 2.7886
-5.8311 12.9923 1.4208
-9.2354 11.8214 1.4993
-20.3317 15.9844 2.5877
-23.1931 10.4944 2.5482
-23.8731 4.4324 2.4297
-23.9857 -1.3871 2.4017
-23.4303 -7.2249 2.4469
-22.5124 -13.5080 2.6143
-18.8199 -18.6835 2.6337
-14.6646 -24.0417 2.7886
-8.5202 -26.9315 2.7886
-1.8429 -28.2715 2.7886
4.9800 -27.9693 2.7886
11.3456 -25.5777 2.7401
10.9171 -14.1019 1.7433
11.0530 -8.7698 1.3776
11.2416 -5.1481 1.2067
10.9288 -2.0810 1.0861
26.4054 1.4041 2.5841
22.1065 6.7032 2.2613
22.6488 13.4445 2.5841
19.1445 18.8257 2.6414
13.6935 22.2104 2.5744
8.6272 26.8234 2.7886
1.1821 16.8930 1.6809
-4.7804 27.6060 2.7886
-5.7109 13.0399 1.4202
-9.2288 12.0364 1.5158
-20.2008 16.1800 2.5896
-23.1076 10.7093 2.5493
-23.8688 4.6550 2.4335
-23.9815 -1.1696 2.4003
-23.6646 -7.0636 2.4648
-22.6267 -13.3000 2.6137
-18.9821 -18.5071 2.6332
-14.8795 -23.9055 2.7886
-8.7621 -26.8504 2.7886
-2.0980 -28.2505 2.7886
4.7267 -28.0105 2.7886
11.3097 -26.1311 2.7886
10.9617 -14.4269 1.7712
11.0419 -8.9247 1.3863
11.1946 -5.2494 1.2067
24.8542 -4.9656 2.4743
26.4183 1.1656 2.5841
25.9220 7.6052 2.6443
22.7714 13.2406 2.5841
19.3163 18.6544 2.6414
13.6847 21.7537 2.5354
8.8701 26.7475 2.7886
1.3355 16.8922 1.6818
-4.5312 27.6507 2.7886
-5.6879 13.3134 1.4442
-9.2221 12.2553 1.5327
-20.0688 16.3740 2.5914
-23.0207 10.9227 2.5505
-23.8644 4.8792 2.4376
-23.9773 -0.9515 2.3990
-24.4214 -7.0490 2.5371
-22.7396 -13.0904 2.6132
-19.1434 -18.3287 2.6326
-15.0939 -23.7670 2.7886
-9.0042 -26.7668 2.7886
-2.3538 -28.2273 2.7886
4.4721 -28.0494 2.7886
11.0714 -26.2305 2.7886
10.9870 -14.7355 1.7969
11.0387 -9.0888 1.3962
11.1465 -5.3506 1.2067
24.8497 -5.1994 2.4784
26.4291 0.9261 2.5841
25.9922 7.3705 2.6443
22.8927 13.0348 2.5841
19.4872 18.4809 2.6415
13.8906 21.6430 2.5368
9.1133 26.6690 2.7886
1.4897 16.8914 1.6828
-4.0468 26.1798 2.6362
-5.6782 13.6301 1.4728
-9.2152 12.4792 1.5502
-19.9350 16.5672 2.5933
-22.9320 11.1356 2.5517
-23.8601 5.1033 2.4418
-23.9731 -0.7345 2.3980
-24.8594 -6.9327 2.5762
-22.8502 -12.8807 2.6127
-19.3024 -18.1496 2.6321
-15.3063 -23.6270 2.7886
-9.2445 -26.6813 2.7886
-2.6084 -28.2018 2.7886
4.2181 -28.0860 2.7886
10.8332 -26.3273 2.7886
10.9866 -15.0161 1.8191
11.0687 -9.2826 1.4106
11.0977 -5.4511 1.2067
24.8452 -5.4332 2.4827
26.4377 0.6874 2.5841
26.0600 7.1361 2.6444
23.0116 12.8286 2.5841
19.6559 18.3065 2.6416
14.0871 21.5191 2.5368
9.3549 26.5886 2.7886
1.6435 16.8906 1.6840
-3.8105 26.2179 2.6362
-5.6680 13.9610 1.5028
-9.2081 12.7092 1.5682
-19.7991 16.7601 2.5952
-22.8413 11.3486 2.5530
-23.8557 5.3291 2.4462
-23.9689 -0.5169 2.3971
-24.8526 -6.6885 2.5692
-22.9594 -12.6692 2.6121
-19.4603 -17.9684 2.6316
-15.5182 -23.4846 2.7886
-9.4850 -26.5933 2.7886
-2.8637 -28.1739 2.7886
3.9629 -28.1203 2.7886
10.5932 -26.4223 2.7886
11.0847 -15.4422 1.8586
11.0654 -9.4520 1.4211
11.0807 -5.5680 1.2103
24.8406 -5.6686 2.4872
10.0220 0.1697 0.9794
26.1259 6.9001 2.6444
23.1291 12.6206 2.5841
19.8230 18.1306 2.6416
14.2825 21.3934 2.5368
9.5958 26.5061 2.7886
1.7976 16.8898 1.6852
-3.5738 26.2538 2.6362
-5.6574 14.3044 1.5341
-9.2009 12.9438 1.5868
-19.6621 16.9514 2.5971
-22.7492 11.5603 2.5542
-23.8514 5.5548 2.4509
-23.9647 -0.3002 2.3964
-20.4547 -5.3069 2.5915
-18.8898 -10.2018 2.6282
-15.9861 -14.4951 2.6362
-12.7861 -18.9749 2.7886
-7.9006 -21.5341 2.7886
-2.3935 -21.6052 2.6362
1.5069 -11.4403 1.3962
4.2281 -10.8284 1.4037
11.1544 -15.8397 2.3358
11.0621 -9.6237 1.7660
11.1041 -5.7063 1.5030
16.2772 -3.8700 2.0145
10.0502 0.0790 1.2110
20.7579 5.2813 2.5841
19.2840 10.2964 2.6420
15.8746 14.2557 2.5841
12.2375 17.9732 2.6398
7.9955 21.4720 2.7886
1.9528 16.8842 2.0737
-2.4926 19.6488 2.4219
-5.6463 14.6655 1.9254
-7.7579 11.1268 1.6645
-16.1257 14.1603 2.6362
-18.8557 9.7984 2.6115
-20.4811 4.9664 2.5897
-21.0387 -0.0727 2.5835
-20.5101 -5.1236 2.5927
-18.9757 -10.0274 2.6276
-16.1153 -14.3486 2.6362
-12.9561 -18.8567 2.7886
-8.0944 -21.4597 2.7886
-2.5886 -21.5807 2.6362
1.4031 -11.4514 1.3961
4.1284 -10.8621 1.4033
11.1861 -16.1940 2.3731
11.0587 -9.7980 1.7796
11.1017 -5.8326 1.5097
15.5932 -3.8568 1.9340
10.9296 -0.0130 1.3169
20.8060 5.0936 2.5841
19.3781 10.1224 2.6421
16.0043 14.1127 2.5841
12.4008 17.8635 2.6398
8.1903 21.4007 2.7886
2.1949 17.5819 2.1615
-2.5196 21.4121 2.6362
-5.6348 15.0401 1.9677
-7.6059 11.1220 1.6533
-15.9973 14.3060 2.6362
-18.7745 9.9730 2.6126
-20.4392 5.1525 2.5902
-21.0373 0.1177 2.5834
-20.5518 -4.9369 2.5923
-19.0601 -9.8525 2.6270
-16.2431 -14.2009 2.6362
-13.1250 -18.7370 2.7886
-8.2874 -21.3836 2.7886
-2.7836 -21.5545 2.6362
1.2992 -11.4616 1.3959
4.0285 -10.8951 1.4029
11.3163 -16.7038 2.4329
11.0553 -9.9749 1.7935
11.1327 -5.9780 1.5212
14.9617 -3.8445 1.8599
10.9306 -0.1119 1.3170
20.8524 4.9054 2.5841
19.4706 9.9475 2.6421
16.1327 13.9685 2.5841
12.5631 17.7522 2.6398
8.3844 21.3277 2.7886
3.0370 22.6577 2.7886
-2.3259 21.4358 2.6362
-5.6228 15.4316 2.0120
-7.4558 11.1173 1.6424
-15.8677 14.4507 2.6362
-18.6917 10.1470 2.6138
-20.3959 5.3384 2.5908
-21.0344 0.3081 2.5834
-20.5896 -4.7493 2.5917
-19.1430 -9.6768 2.6265
-16.3696 -14.0522 2.6362
-13.2928 -18.6157 2.7886
-8.4798 -21.3058 2.7886
-2.9782 -21.5265 2.6362
1.1952 -11.4709 1.3958
3.9283 -10.9272 1.4025
11.3872 -17.1403 2.4815
11.0186 -10.1242 1.8024
11.1302 -6.1070 1.5284
14.5440 -3.8778 1.8122
10.9317 -0.2109 1.3173
20.8971 4.7168 2.5841
19.5616 9.7718 2.6422
16.2598 13.8231 2.5841
12.7244 17.6394 2.6398
8.5778 21.2530 2.7886
3.2422 22.6314 2.7886
-2.1320 21.4577 2.6362
-7.5995 21.4584 2.7886
-7.3078 11.1126 1.6318
-15.7368 14.5941 2.6362
-18.6075 10.3204 2.6149
-20.3510 5.5239 2.5914
-21.0299 0.4984 2.5834
-20.6259 -4.5614 2.5911
-19.2244 -9.5004 2.6259
-16.4947 -13.9023 2.6362
-13.4595 -18.4929 2.7886
-8.6714 -21.2261 2.7886
-3.1726 -21.4967 2.6362
1.0912 -11.4794 1.3957
3.8279 -10.9584 1.4021
11.4479 -17.5747 2.5294
11.0151 -10.3063 1.8171
11.1276 -6.2373 1.5358
14.5086 -4.0093 1.8122
10.9327 -0.3098 1.3176
20.9401 4.5278 2.5841
18.5598 9.0625 2.4955
16.3856 13.6766 2.5841
12.8847 17.5252 2.6398
8.7706 21.1765 2.7886
3.4472 22.6031 2.7886
-1.9379 21.4779 2.6362
-7.4055 21.5277 2.7886
-7.1616 11.1080 1.6215
-15.6045 14.7365 2.6362
-18.5219 10.4932 2.6161
-20.3047 5.7091 2.5920
-21.0240 0.6887 2.5834
-20.6606 -4.3734 2.5906
-19.3042 -9.3235 2.6254
-16.6185 -13.7513 2.6362
-13.6250 -18.3687 2.7886
-8.8624 -21.1448 2.7886
-3.3667 -21.4652 2.6362
0.9871 -11.4870 1.3956
3.7274 -10.9889 1.4017
11.6010 -18.1670 2.5995
11.0447 -10.5229 1.8377
11.1251 -6.3688 1.5433
10.9307 -3.1273 1.3688
10.9337 -0.4089 1.3181
20.9814 4.3384 2.5841
18.5606 8.8558 2.4846
16.5101 13.5288 2.5841
13.0441 17.4095 2.6398
8.9628 21.0982 2.7886
3.6519 22.5731 2.7886
-1.7436 21.4963 2.6362
-7.2108 21.5955 2.7886
-7.0172 11.1034 1.6114
-15.4710 14.8775 2.6362
-18.4349 10.6654 2.6173
-20.2568 5.8940 2.5926
-21.0165 0.8789 2.5834
-20.6938 -4.1851 2.5900
-19.3825 -9.1459 2.6248
-16.7408 -13.5993 2.6362
-13.7894 -18.2431 2.7886
-9.0524 -21.0618 2.7886
-3.5604 -21.4319 2.6362
0.8830 -11.4938 1.3955
3.6265 -11.0184 1.4014
11.5966 -18.5275 2.6362
11.0410 -10.7117 1.8532
11.1225 -6.5017 1.5511
10.7337 -3.1763 1.3477
10.9348 -0.5081 1.3187
21.0209 4.1486 2.5841
19.8247 9.2397 2.6423
16.6332 13.3801 2.5841
13.2022 17.2924 2.6398
9.1541 21.0182 2.7886
3.8564 22.5411 2.7886
-1.5491 21.5130 2.6362
-7.0157 21.6616 2.7886
-6.8746 11.0989 1.6016
-2.8251 2.7663 0.4856
-18.3463 10.8370 2.6185
-20.2075 6.0786 2.5932
-21.0075 1.0692 2.5835
-20.7255 -3.9967 2.5895
-19.4592 -8.9677 2.6243
-10.3831 -8.2798 1.6233
-13.9527 -18.1159 2.7886
-9.2418 -20.9771 2.7886
-3.7539 -21.3968 2.6362
0.7789 -11.4997 1.3954
3.5256 -11.0471 1.4010
11.4279 -18.6307 2.6362
11.0373 -10.9037 1.8691
11.0865 -6.6160 1.5544
10.3988 -3.1798 1.3091
10.9358 -0.6073 1.3194
21.0586 3.9585 2.5841
19.9092 9.0607 2.6423
16.7550 13.2301 2.5841
13.3594 17.1739 2.6398
9.3448 20.9365 2.7886
4.0605 22.5073 2.7886
-1.3545 21.5279 2.6362
-6.8198 21.7255 2.7886
-6.7336 11.0944 1.5920
-2.7938 2.7856 0.4845
-18.2564 11.0080 2.6198
-20.1567 6.2627 2.5939
-20.9969 1.2592 2.5836
-20.7557 -3.8080 2.5890
-19.5343 -8.7889 2.6238
-10.3790 -8.1240 1.6112
-14.1148 -17.9872 2.7886
-9.4303 -20.8906 2.7886
-3.9469 -21.3600 2.6362
0.6747 -11.5048 1.3953
3.4244 -11.0750 1.4006
11.2582 -18.7323 2.6362
11.0004 -11.0657 1.8798
11.0839 -6.7511 1.5625
10.0825 -3.1831 1.2729
10.9368 -0.7067 1.3202
21.5771 3.8541 2.6432
19.9920 8.8809 2.6424
11.8832 9.2099 1.8197
13.5155 17.0539 2.6398
9.5347 20.8530 2.7886
4.2645 22.4717 2.7886
-1.1597 21.5411 2.6362
-6.6233 21.7879 2.7886
-6.5944 11.0900 1.5826
-2.7798 2.8223 0.4865
-18.1650 11.1782 2.6210
-20.1043 6.4466 2.5946
-20.9849 1.4492 2.5837
-20.7843 -3.6191 2.5885
-19.6080 -8.6095 2.6233
-10.3750 -7.9705 1.5995
-14.2757 -17.8572 2.7886
-9.6181 -20.8025 2.7886
-4.1397 -21.3215 2.6362
0.5705 -11.5089 1.3953
3.3229 -11.1020 1.4003
11.0877 -18.8324 2.6362
10.9966 -11.2638 1.8965
11.0813 -6.8877 1.5709
9.6435 -3.1407 1.2210
10.9379 -0.8062 1.3211
21.6124 3.6589 2.6433
20.0733 8.7005 2.6424
11.9328 9.0767 1.8145
13.6706 16.9324 2.6398
9.7082 20.7339 2.7840
4.4681 22.4343 2.7886
-0.9647 21.5525 2.6362
-6.4264 21.8484 2.7886
-6.4567 11.0857 1.5735
-10.8356 11.2025 1.9139
-18.0722 11.3479 2.6223
-20.0505 6.6300 2.5953
-20.9713 1.6390 2.5838
-20.8114 -3.4301 2.5880
-19.6800 -8.4295 2.6228
-10.3710 -7.8192 1.5880
-14.4354 -17.7257 2.7886
-9.8050 -20.7126 2.7886
-4.3320 -21.2812 2.6362
0.4663 -11.5123 1.3952
3.2342 -11.1726 1.4055
10.9162 -18.9309 2.6362
11.0258 -11.5001 1.9195
11.1120 -7.0470 1.5842
9.6425 -3.2372 1.2245
21.8740 -1.8113 2.6437
21.6459 3.4635 2.6433
20.1528 8.5192 2.6424
12.0255 8.9767 1.8160
13.8246 16.8097 2.6399
9.7057 20.2498 2.7304
4.6712 22.3950 2.7886
-0.7699 21.5621 2.6362
-6.2289 21.9072 2.7886
-6.3207 11.0814 1.5646
-10.6350 11.1961 1.8963
-17.9780 11.5169 2.6236
-19.9952 6.8131 2.5961
-20.9562 1.8288 2.5839
-20.8370 -3.2408 2.5876
-19.7505 -8.2490 2.6223
-10.3671 -7.6701 1.5768
-14.5940 -17.5927 2.7886
-9.9912 -20.6211 2.7886
-4.5241 -21.2391 2.6362
0.3620 -11.5147 1.3952
3.2323 -11.5566 1.4502
10.7438 -19.0278 2.6362
11.0218 -11.7061 1.9372
11.1093 -7.1870 1.5931
13.3672 -4.6226 1.7028
10.9175 -1.0036 1.3205
21.6777 3.2677 2.6433
20.2307 8.3371 2.6425
12.0377 8.8172 1.8056
13.9777 16.6857 2.6399
9.7032 19.7829 2.6790
4.8741 22.3538 2.7886
-0.6080 22.8170 2.7886
-6.0308 21.9642 2.7886
-6.1860 11.0771 1.5560
-10.4380 11.1898 1.8790
-17.8823 11.6852 2.6249
-19.9384 6.9958 2.5968
-20.9395 2.0185 2.5841
-20.8611 -3.0515 2.5871
-19.8194 -8.0679 2.6218
-10.3744 -7.5311 1.5676
-14.7512 -17.4583 2.7886
-10.1763 -20.5281 2.7886
-4.7155 -21.1954 2.6362
0.2579 -11.5163 1.3952
3.2302 -11.9652 1.4979
10.5707 -19.1231 2.6362
11.0177 -11.9160 1.9555
11.1065 -7.3287 1.6022
13.3646 -4.7575 1.7078
10.9410 -1.1057 1.3245
21.7076 3.0716 2.6433
16.9641 6.8120 2.2075
12.0495 8.6594 1.7954
14.1296 16.5605 2.6400
9.7247 19.3815 2.6362
5.0767 22.3109 2.7886
-0.4015 22.8235 2.7886
-5.8322 22.0195 2.7886
-6.0529 11.0729 1.5475
-10.2445 11.1837 1.8623
-17.7853 11.8529 2.6263
-19.8801 7.1781 2.5976
-20.9214 2.2081 2.5843
-20.8836 -2.8619 2.5867
-19.8867 -7.8862 2.6213
-10.4430 -7.4377 1.5679
-14.9072 -17.3227 2.7886
-10.3607 -20.4332 2.7886
-4.9067 -21.1499 2.6362
0.1536 -11.5171 1.3952
5.8114 -22.3271 2.7886
10.3966 -19.2169 2.6362
10.9805 -12.0935 1.9683
11.1037 -7.4719 1.6115
11.2411 -4.1166 1.4412
10.9420 -1.2059 1.3258
21.7358 2.8752 2.6434
20.3815 7.9711 2.6426
12.0610 8.5034 1.7854
14.2804 16.4338 2.6400
9.9007 19.2946 2.6362
5.2789 22.2660 2.7886
-0.1511 17.6993 2.1621
-5.6331 22.0731 2.7886
-5.9211 11.0688 1.5393
-10.0545 11.1776 1.8460
-17.6868 12.0199 2.6277
-19.8203 7.3600 2.5984
-20.9017 2.3975 2.5845
-20.9046 -2.6725 2.5864
-19.9524 -7.7042 2.6209
-10.5109 -7.3436 1.5682
-15.0620 -17.1856 2.7886
-10.5442 -20.3367 2.7886
-5.0974 -21.1027 2.6362
0.0494 -11.5170 1.3952
5.6085 -22.3771 2.7886
10.2217 -19.3090 2.6362
10.9763 -12.3109 1.9875
11.1009 -7.6169 1.6210
11.1670 -4.2044 1.4365
10.9431 -1.3063 1.3273
21.7621 2.6787 2.6434
20.4545 7.7870 2.6426
12.0722 8.3488 1.7757
14.4284 16.3037 2.6398
10.0760 19.2062 2.6362
5.4807 22.2194 2.7886
0.0090 17.5307 2.1412
-5.4335 22.1248 2.7886
-5.7907 11.0647 1.5313
-9.8676 11.1717 1.8301
-17.5869 12.1860 2.6291
-19.7591 7.5412 2.5992
-20.8805 2.5866 2.5848
-20.9241 -2.4827 2.5860
-20.0166 -7.5215 2.6204
-10.5780 -7.2488 1.5685
-15.2156 -17.0470 2.7886
-2.9579 -5.5807 0.7689
-5.2877 -21.0538 2.6362
-0.0548 -11.5160 1.3952
5.4055 -22.4253 2.7886
10.0459 -19.3996 2.6362
11.0051 -12.5701 2.0133
11.0648 -7.7401 1.6259
11.1647 -4.3192 1.4411
10.9441 -1.4069 1.3289
21.7867 2.4818 2.6434
20.5257 7.6021 2.6426
12.0831 8.1957 1.7662
14.4226 16.0029 2.6119
10.2504 19.1162 2.6362
5.6821 22.1709 2.7886
0.1616 16.8935 2.0633
-2.6462 11.2126 1.4100
-5.7518 11.2365 1.5477
-9.6842 11.1658 1.8147
-17.4856 12.3515 2.6305
-19.6964 7.7223 2.6001
-20.8579 2.7757 2.5850
-20.9421 -2.2928 2.5857
-20.0792 -7.3383 2.6200
-10.6442 -7.1535 1.5687
-15.3679 -16.9071 2.7886
-3.0139 -5.5641 0.7705
-5.4775 -21.0031 2.6362
-0.1590 -11.5142 1.3952
5.2022 -22.4716 2.7886
9.8695 -19.4885 2.6362
