ply
format ascii 1.0
element vertex 2112
property float32 x
property float32 y
property float32 z
end_header
7.7909 -10.5060 2.7886
9.5337 -7.8920 2.6371
11.1627 -5.3951 2.6411
12.1270 -2.5716 2.6411
12.3836 0.4000 2.6409
11.9192 3.3443 2.6407
10.7545 6.0838 2.6385
4.7997 4.5264 1.4106
3.6072 5.5857 1.4237
4.2400 12.2945 2.7886
1.1772 12.9331 2.7886
-1.8391 12.1220 2.6362
-4.9483 11.9727 2.7886
-7.6599 10.4337 2.7886
-9.9261 8.2954 2.7886
-11.6185 5.6808 2.7886
-12.6409 2.7392 2.7886
-12.9351 -0.3620 2.7886
-12.4831 -3.4460 2.7886
-11.3093 -6.3364 2.7886
-9.4790 -8.8669 2.7886
-7.0950 -10.8905 2.7886
-4.2928 -12.2884 2.7886
-1.2337 -12.9768 2.7886
1.1113 -7.5311 1.6264
3.2505 -7.9582 1.8345
7.6953 -10.5757 2.7886
9.4611 -7.9772 2.6370
11.1129 -5.4956 2.6410
12.1034 -2.6813 2.6411
12.3870 0.2879 2.6409
11.9495 3.2365 2.6408
10.8103 5.9869 2.6387
4.8388 4.4812 1.4100
3.6567 5.5515 1.4232
4.3514 12.2563 2.7886
1.2943 12.9226 2.7886
-1.7293 12.1387 2.6362
-4.8399 12.0174 2.7886
-7.5653 10.5029 2.7886
-9.8507 8.3851 2.7886
-11.5666 5.7858 2.7886
-12.6155 2.8535 2.7886
-12.9375 -0.2449 2.7886
-12.5134 -3.3328 2.7886
-11.3657 -6.2335 2.7886
-9.5582 -8.7805 2.7886
-7.1927 -10.8254 2.7886
-4.4036 -12.2484 2.7886
-1.3510 -12.9644 2.7886
1.0417 -7.5307 1.6243
3.2495 -8.1659 1.8756
7.5991 -10.6446 2.7886
9.3877 -8.0618 2.6368
11.0622 -5.5957 2.6409
12.0788 -2.7907 2.6412
10.0496 0.1426 2.1422
11.9787 3.1283 2.6408
10.8651 5.8894 2.6388
4.8775 4.4357 1.4095
3.7059 5.5168 1.4228
4.4624 12.2171 2.7886
1.4113 12.9110 2.7886
-1.6195 12.1544 2.6362
-4.7311 12.0612 2.7886
-7.4701 10.5712 2.7886
-9.7746 8.4741 2.7886
-11.5138 5.8903 2.7886
-12.5890 2.9676 2.7886
-12.9389 -0.1278 2.7886
-12.5425 -3.2195 2.7886
-11.4211 -6.1303 2.7886
-9.6368 -8.6931 2.7886
-7.2900 -10.7593 2.7886
-4.5141 -12.2074 2.7886
-1.4682 -12.9510 2.7886
0.9723 -7.5303 1.6223
3.2484 -8.3832 1.9187
7.5023 -10.7127 2.7886
9.3136 -8.1457 2.6366
11.0106 -5.6952 2.6408
12.0532 -2.8999 2.6412
10.0232 0.0516 2.1363
12.0069 3.0199 2.6408
10.9191 5.7915 2.6390
4.9157 4.3898 1.4089
3.7547 5.4817 1.4224
4.5730 12.1769 2.7886
1.5282 12.8984 2.7886
-1.5095 12.1692 2.6362
-4.3693 11.4424 2.6362
-7.3743 10.6387 2.7886
-9.6976 8.5623 2.7886
-11.4600 5.9943 2.7886
-12.5616 3.0812 2.7886
-12.9392 -0.0109 2.7886
-12.5708 -3.1057 2.7886
-11.4756 -6.0264 2.7886
-9.7146 -8.6051 2.7886
-7.3867 -10.6923 2.7886
-4.6241 -12.1654 2.7886
-1.5853 -12.9365 2.7886
0.9030 -7.5299 1.6205
3.2472 -8.6107 1.9640
5.1779 -7.5379 1.9500
9.2387 -8.2289 2.6364
10.9580 -5.7943 2.6407
12.0266 -3.0089 2.6412
12.3912 -0.0484 2.6410
12.0342 2.9112 2.6408
10.9722 5.6930 2.6391
4.9535 4.3436 1.4083
3.8032 5.4461 1.4219
4.6833 12.1356 2.7886
1.6449 12.8847 2.7886
-1.3993 12.1829 2.6362
-4.2657 11.4820 2.6362
-7.2780 10.7053 2.7886
-9.6200 8.6497 2.7886
-11.4054 6.0977 2.7886
-12.5330 3.1947 2.7886
-12.9385 0.1063 2.7886
-12.5979 -2.9917 2.7886
-11.5292 -5.9220 2.7886
-9.7916 -8.5164 2.7886
-7.4827 -10.6244 2.7886
-4.7337 -12.1224 2.7886
-1.7022 -12.9209 2.7886
0.8339 -7.5296 1.6188
3.2460 -8.8492 2.0117
5.0777 -7.5373 1.9379
9.1630 -8.3113 2.6362
10.9045 -5.8929 2.6405
11.9990 -3.1176 2.6412
12.3906 -0.1605 2.6410
12.0605 2.8023 2.6408
11.0243 5.5940 2.6393
4.9908 4.2971 1.4078
3.8513 5.4101 1.4215
4.7932 12.0935 2.7886
1.7616 12.8700 2.7886
-1.2893 12.1956 2.6362
-4.1619 11.5205 2.6362
-7.1811 10.7710 2.7886
-9.5415 8.7367 2.7886
-11.3498 6.2007 2.7886
-12.5035 3.3080 2.7886
-12.9368 0.2234 2.7886
-12.6241 -2.8774 2.7886
-11.5819 -5.8172 2.7886
-9.8678 -8.4270 2.7886
-7.5782 -10.5557 2.7886
-4.8430 -12.0784 2.7886
-1.8190 -12.9043 2.7886
0.7650 -7.5292 1.6172
3.2448 -9.0996 2.0620
4.9787 -7.5366 1.9261
9.0872 -8.3937 2.6362
10.8502 -5.9910 2.6404
11.9705 -3.2261 2.6412
12.3889 -0.2726 2.6410
12.0858 2.6932 2.6408
11.0756 5.4946 2.6394
5.0276 4.2502 1.4072
3.8991 5.3736 1.4210
4.9025 12.0503 2.7886
1.8779 12.8542 2.7886
-1.1789 12.2074 2.6362
-4.0576 11.5582 2.6362
-7.0836 10.8359 2.7886
-9.4622 8.8228 2.7886
-11.2933 6.3032 2.7886
-12.4730 3.4210 2.7886
-12.9340 0.3405 2.7886
-12.6492 -2.7629 2.7886
-11.6336 -5.7119 2.7886
-9.9432 -8.3370 2.7886
-7.6730 -10.4861 2.7886
-4.9518 -12.0334 2.7886
-1.9356 -12.8867 2.7886
0.6962 -7.5288 1.6158
3.2434 -9.3628 2.1150
4.8809 -7.5360 1.9146
9.0107 -8.4754 2.6362
10.7949 -6.0886 2.6403
11.9409 -3.3343 2.6412
12.3862 -0.3847 2.6410
12.1101 2.5838 2.6408
11.1259 5.3947 2.6396
5.0640 4.2031 1.4066
3.9464 5.3367 1.4206
5.0116 12.0061 2.7886
1.9943 12.8374 2.7886
-1.0684 12.2182 2.6362
-3.9530 11.5949 2.6362
-6.9854 10.8999 2.7886
-9.3821 8.9083 2.7886
-11.2358 6.4052 2.7886
-12.4414 3.5338 2.7886
-12.9301 0.4576 2.7886
-12.6733 -2.6482 2.7886
-11.6843 -5.6061 2.7886
-10.0178 -8.2462 2.7886
-7.7672 -10.4157 2.7886
-5.0603 -11.9874 2.7886
-2.0520 -12.8679 2.7886
0.6275 -7.5285 1.6145
3.2420 -9.6399 2.1709
4.7843 -7.5354 1.9035
8.9806 -8.6016 2.6501
10.7388 -6.1857 2.6401
10.9400 -3.1618 2.4260
12.3825 -0.4968 2.6410
12.1333 2.4744 2.6408
11.1753 5.2945 2.6397
5.0999 4.1555 1.4060
3.9935 5.2993 1.4201
5.1204 11.9609 2.7886
2.1105 12.8195 2.7886
-0.9713 12.4007 2.6734
-3.8481 11.6307 2.6362
-6.8866 10.9630 2.7886
-2.8646 2.7696 0.8588
-11.1774 6.5067 2.7886
-12.4088 3.6463 2.7886
-12.9252 0.5746 2.7886
-12.6964 -2.5333 2.7886
-11.7341 -5.4999 2.7886
-10.0915 -8.1548 2.7886
-7.8607 -10.3444 2.7886
-5.1683 -11.9405 2.7886
-2.1682 -12.8481 2.7886
0.5589 -7.5281 1.6134
3.2405 -9.9320 2.2301
4.6888 -7.5348 1.8926
8.9718 -8.7502 2.6708
10.6817 -6.2822 2.6400
11.8789 -3.5497 2.6412
12.3778 -0.6086 2.6410
12.1556 2.3646 2.6408
11.2238 5.1936 2.6399
5.1354 4.1077 1.4054
4.0402 5.2615 1.4197
5.2287 11.9147 2.7886
2.2265 12.8005 2.7886
-0.8961 12.9441 2.7886
-3.7428 11.6655 2.6362
-6.7873 11.0252 2.7886
-2.8136 2.7701 0.8510
-11.1182 6.6077 2.7886
-12.3752 3.7584 2.7886
-12.9192 0.6916 2.7886
-12.7184 -2.4182 2.7886
-11.7829 -5.3932 2.7886
-10.1644 -8.0628 2.7886
-7.9536 -10.2723 2.7886
-5.2758 -11.8926 2.7886
-2.2843 -12.8273 2.7886
0.4904 -7.5278 1.6123
3.2390 -10.2405 2.2928
4.5944 -7.5341 1.8819
8.9640 -8.9019 2.6923
10.6239 -6.3780 2.6398
11.8464 -3.6571 2.6412
12.3721 -0.7206 2.6410
12.1769 2.2546 2.6408
11.2714 5.0923 2.6400
5.1704 4.0595 1.4048
4.0865 5.2233 1.4192
5.3366 11.8676 2.7886
2.3424 12.7806 2.7886
-0.7789 12.9523 2.7886
-3.6372 11.6994 2.6362
-6.6875 11.0866 2.7886
-2.7886 2.7956 0.8510
-11.0580 6.7081 2.7886
-12.3406 3.8703 2.7886
-12.9121 0.8085 2.7886
-12.7394 -2.3029 2.7886
-11.8308 -5.2861 2.7886
-10.2365 -7.9700 2.7886
-8.0458 -10.1993 2.7886
-5.3829 -11.8437 2.7886
-2.4002 -12.8054 2.7886
0.4222 -7.5274 1.6115
3.2373 -10.5663 2.3592
4.5012 -7.5335 1.8716
8.9561 -9.0565 2.7145
10.5651 -6.4735 2.6397
11.8129 -3.7641 2.6412
12.3653 -0.8325 2.6410
12.1972 2.1444 2.6408
11.3181 4.9906 2.6402
5.2050 4.0110 1.4042
4.1324 5.1846 1.4187
5.4441 11.8194 2.7886
2.4581 12.7595 2.7886
-0.6617 12.9595 2.7886
-3.5313 11.7323 2.6362
-6.5870 11.1470 2.7886
-2.7883 2.8464 0.8587
-10.9969 6.8080 2.7886
-12.3050 3.9818 2.7886
-12.9041 0.9253 2.7886
-12.7593 -2.1874 2.7886
-11.8777 -5.1786 2.7886
-10.3077 -7.8767 2.7886
-8.1374 -10.1256 2.7886
-5.4894 -11.7939 2.7886
-2.5156 -12.7825 2.7886
0.3538 -7.5270 1.6107
3.2356 -10.9121 2.4299
4.4088 -7.5329 1.8615
8.9483 -9.2139 2.7374
10.5054 -6.5684 2.6396
9.6144 -3.1597 2.1560
12.3575 -0.9444 2.6410
12.2165 2.0340 2.6408
11.3638 4.8884 2.6403
5.2390 3.9623 1.4036
4.1780 5.1455 1.4182
5.5511 11.7703 2.7886
2.5737 12.7374 2.7886
-0.5444 12.9655 2.7886
-3.4251 11.7643 2.6362
-6.4861 11.2065 2.7886
-8.9703 9.3246 2.7886
-10.9349 6.9073 2.7886
-12.2684 4.0930 2.7886
-12.8949 1.0421 2.7886
-12.7782 -2.0718 2.7886
-11.9236 -5.0707 2.7886
-10.3780 -7.7829 2.7886
-8.2281 -10.0511 2.7886
-5.5956 -11.7431 2.7886
-2.6311 -12.7586 2.7886
0.2856 -7.5267 1.6101
3.1435 -10.9646 2.4353
4.3174 -7.5324 1.8517
8.9404 -9.3740 2.7608
10.4449 -6.6628 2.6394
9.6154 -3.2567 2.1627
10.8895 -0.9314 2.3290
12.2348 1.9234 2.6408
11.4086 4.7858 2.6404
5.2727 3.9132 1.4030
4.2231 5.1060 1.4177
5.6577 11.7203 2.7886
2.6890 12.7143 2.7886
-0.4270 12.9706 2.7886
-3.3186 11.7953 2.6362
-6.3845 11.2640 2.7886
-8.8857 9.4056 2.7886
-10.8720 7.0061 2.7886
-12.2308 4.2039 2.7886
-12.8847 1.1587 2.7886
-12.7960 -1.9562 2.7886
-11.9685 -4.9626 2.7886
-10.4475 -7.6882 2.7886
-8.3183 -9.9757 2.7886
-5.7014 -11.6914 2.7886
-2.7463 -12.7336 2.7886
0.2174 -7.5263 1.6096
3.0527 -11.0236 2.4422
4.2270 -7.5318 1.8422
8.9322 -9.5367 2.7849
10.3835 -6.7566 2.6393
11.7067 -4.0835 2.6412
10.8905 -1.0308 2.3310
12.2521 1.8127 2.6408
11.4525 4.6828 2.6406
5.3058 3.8638 1.4024
4.2679 5.0661 1.4172
5.7639 11.6692 2.7886
2.8041 12.6901 2.7886
-0.3096 12.9745 2.7886
-3.2118 11.8254 2.6362
-6.2825 11.3229 2.7886
-8.8004 9.4859 2.7886
-10.8082 7.1043 2.7886
-12.1922 4.3142 2.7886
-12.8735 1.2751 2.7886
-12.8129 -1.8402 2.7886
-12.0124 -4.8538 2.7886
-10.5162 -7.5930 2.7886
-8.4078 -9.8995 2.7886
-5.8066 -11.6386 2.7886
-2.8612 -12.7075 2.7886
0.1492 -7.5260 1.6093
2.9731 -11.1265 2.4591
4.1375 -7.5312 1.8329
8.8569 -9.6295 2.7886
10.3212 -6.8498 2.6391
11.6693 -4.1892 2.6412
12.3281 -1.2795 2.6411
12.2684 1.7018 2.6409
11.4953 4.5794 2.6407
5.3385 3.8142 1.4018
4.3123 5.0258 1.4168
3.6113 7.1476 1.7157
2.9190 12.6649 2.7886
-0.1922 12.9775 2.7886
-3.1048 11.8545 2.6362
-6.1802 11.3795 2.7886
-8.7145 9.5653 2.7886
-10.7437 7.2017 2.7886
-12.1526 4.4244 2.7886
-12.8612 1.3915 2.7886
-12.8286 -1.7241 2.7886
-12.0554 -4.7447 2.7886
-10.5840 -7.4972 2.7886
-8.4966 -9.8225 2.7886
-5.9114 -11.5850 2.7886
-2.9760 -12.6804 2.7886
0.0811 -7.5256 1.6090
3.2570 -12.6468 2.7886
4.0490 -7.5307 1.8238
8.7692 -9.7091 2.7886
10.2581 -6.9424 2.6389
11.1685 -4.1239 2.5362
12.3162 -1.3910 2.6411
12.2837 1.5908 2.6409
11.5070 4.4638 2.6339
5.3706 3.7642 1.4012
4.3563 4.9850 1.4162
3.6105 6.9881 1.6851
3.0337 12.6386 2.7886
-0.0749 12.9793 2.7886
-2.9977 11.8826 2.6362
-6.0771 11.4354 2.7886
-8.6278 9.6440 2.7886
-10.6782 7.2988 2.7886
-12.1120 4.5343 2.7886
-12.8479 1.5079 2.7886
-12.8434 -1.6078 2.7886
-12.0974 -4.6352 2.7886
-10.6509 -7.4007 2.7886
-8.5847 -9.7447 2.7886
-6.0157 -11.5304 2.7886
-3.0904 -12.6523 2.7886
0.0130 -7.5253 1.6090
3.1422 -12.6752 2.7886
3.9613 -7.5301 1.8150
8.6808 -9.7878 2.7886
10.1942 -7.0344 2.6388
11.1663 -4.2383 2.5443
12.3034 -1.5024 2.6411
12.2980 1.4796 2.6409
11.5046 4.3435 2.6241
5.4023 3.7140 1.4005
4.3999 4.9439 1.4157
3.6097 6.8345 1.6558
3.1479 12.6114 2.7886
0.0425 12.9801 2.7886
-2.7220 11.2168 2.4828
-5.9736 11.4903 2.7886
-8.5403 9.7219 2.7886
-10.6118 7.3952 2.7886
-12.0705 4.6437 2.7886
-12.8336 1.6241 2.7886
-12.8570 -1.4915 2.7886
-12.1384 -4.5253 2.7886
-10.7170 -7.3037 2.7886
-8.6721 -9.6660 2.7886
-2.9711 -5.5712 1.3539
-3.2046 -12.6231 2.7886
-0.0551 -7.5249 1.6090
3.0273 -12.7026 2.7886
3.8744 -7.5296 1.8064
8.5917 -9.8657 2.7886
10.1294 -7.1259 2.6386
11.1641 -4.3534 2.5527
12.2895 -1.6137 2.6411
12.3112 1.3683 2.6409
11.5023 4.2241 2.6147
5.4335 3.6636 1.3999
4.4430 4.9024 1.4152
3.6090 6.6858 1.6275
3.2621 12.5830 2.7886
0.1600 12.9799 2.7886
-2.6203 11.2409 2.4827
-5.8695 11.5444 2.7886
-8.4522 9.7990 2.7886
-10.5445 7.4911 2.7886
-12.0279 4.7527 2.7886
-12.8181 1.7402 2.7886
-12.8697 -1.3750 2.7886
-12.1784 -4.4151 2.7886
-10.7821 -7.2060 2.7886
-8.7588 -9.5867 2.7886
-3.0359 -5.5707 1.3605
-3.3186 -12.5929 2.7886
-0.1232 -7.5246 1.6092
1.7237 -7.5345 1.6506
3.7883 -7.5290 1.7980
8.5019 -9.9428 2.7886
10.0638 -7.2167 2.6385
11.1283 -4.4559 2.5536
12.2746 -1.7249 2.6411
12.3234 1.2571 2.6409
11.5000 4.1058 2.6055
5.4642 3.6128 1.3993
4.4857 4.8605 1.4147
3.6082 6.5421 1.6003
3.3760 12.5537 2.7886
0.2776 12.9790 2.7886
-2.6743 11.9612 2.6362
-5.7650 11.5975 2.7886
-8.3633 9.8754 2.7886
-10.4764 7.5863 2.7886
-11.9844 4.8614 2.7886
-12.8017 1.8562 2.7886
-12.8812 -1.2584 2.7886
-12.2174 -4.3045 2.7886
-10.8464 -7.1078 2.7886
-8.8448 -9.5065 2.7886
-6.3255 -11.3609 2.7886
-3.4322 -12.5617 2.7886
-0.1913 -7.5243 1.6095
1.6520 -7.5341 1.6472
3.7031 -7.5285 1.7899
8.4114 -10.0191 2.7886
9.9974 -7.3067 2.6383
11.1261 -4.5720 2.5625
12.2587 -1.8357 2.6411
12.3347 1.1456 2.6409
11.6929 4.0558 2.6407
5.4945 3.5618 1.3987
4.5281 4.8182 1.4142
3.6075 6.4031 1.5741
3.4897 12.5233 2.7886
0.3950 12.9759 2.7886
-2.5662 11.9854 2.6362
-5.6597 11.6496 2.7886
-8.2739 9.9508 2.7886
-10.4073 7.6811 2.7886
-11.9400 4.9695 2.7886
-12.7841 1.9721 2.7886
-12.8917 -1.1419 2.7886
-12.2555 -4.1934 2.7886
-10.9097 -7.0092 2.7886
-8.9302 -9.4254 2.7886
-6.4275 -11.3027 2.7886
-3.5458 -12.5293 2.7886
-0.3786 -10.9831 2.3501
1.5805 -7.5337 1.6440
3.6188 -7.5279 1.7820
8.3203 -10.0944 2.7886
9.9302 -7.3963 2.6381
11.1238 -4.6892 2.5716
12.2418 -1.9466 2.6411
12.3449 1.0340 2.6409
11.7296 3.9500 2.6407
5.5242 3.5105 1.3980
4.5701 4.7755 1.4137
3.6068 6.2686 1.5489
3.6031 12.4919 2.7886
0.5125 12.9727 2.7886
-2.4575 12.0087 2.6362
-5.5545 11.7006 2.7886
-8.1836 10.0257 2.7886
-10.3376 7.7749 2.7886
-11.8944 5.0776 2.7886
-12.7656 2.0876 2.7886
-12.9012 -1.0249 2.7886
-12.2924 -4.0824 2.7886
-10.9723 -6.9097 2.7886
-9.0145 -9.3439 2.7886
-6.5294 -11.2434 2.7886
-3.6586 -12.4961 2.7886
-0.4818 -11.0635 2.3683
1.5095 -7.5333 1.6410
3.5349 -7.5274 1.7743
8.2283 -10.1691 2.7886
9.8620 -7.4855 2.6380
11.1550 -4.8219 2.5888
12.2239 -2.0575 2.6411
12.3541 0.9221 2.6409
11.7654 3.8436 2.6407
5.5535 3.4588 1.3974
4.6117 4.7323 1.4131
3.6062 6.1380 1.5246
3.7160 12.4595 2.7886
0.6297 12.9682 2.7886
-2.3490 12.0309 2.6362
-5.4487 11.7508 2.7886
-8.0928 10.0995 2.7886
-10.2670 7.8681 2.7886
-11.8480 5.1849 2.7886
-12.7461 2.2028 2.7886
-12.9096 -0.9083 2.7886
-12.3284 -3.9710 2.7886
-11.0338 -6.8099 2.7886
-9.0981 -9.2616 2.7886
-6.6303 -11.1833 2.7886
-3.7711 -12.4619 2.7886
-0.6849 -13.0205 2.7886
1.4388 -7.5329 1.6381
3.4520 -7.5269 1.7668
8.1359 -10.2428 2.7886
9.7932 -7.5736 2.6378
11.1527 -4.9409 2.5985
12.2050 -2.1678 2.6411
12.3623 0.8105 2.6409
11.8001 3.7373 2.6407
5.5822 3.4071 1.3967
4.6527 4.6889 1.4126
3.6055 6.0119 1.5012
3.8290 12.4260 2.7886
0.7473 12.9626 2.7886
-2.2399 12.0523 2.6362
-5.3421 11.8002 2.7886
-8.0011 10.1727 2.7886
-10.1954 7.9610 2.7886
-11.8005 5.2921 2.7886
-12.7254 2.3183 2.7886
-12.9170 -0.7912 2.7886
-12.3634 -3.8589 2.7886
-11.0946 -6.7093 2.7886
-9.1812 -9.1782 2.7886
-6.7311 -11.1221 2.7886
-3.8837 -12.4265 2.7886
-0.8029 -13.0131 2.7886
1.3681 -7.5325 1.6353
3.3695 -7.5264 1.7595
8.0425 -10.3158 2.7886
9.7234 -7.6615 2.6376
11.1504 -5.0613 2.6086
10.9011 -2.0383 2.3628
12.3695 0.6984 2.6409
11.8338 3.6308 2.6407
10.6015 6.3399 2.6381
4.6933 4.6452 1.4121
3.6049 5.8896 1.4787
3.9413 12.3916 2.7886
0.8644 12.9560 2.7886
-2.1310 12.0726 2.6362
-5.2355 11.8484 2.7886
-7.9091 10.2449 2.7886
-10.1232 8.0529 2.7886
-11.7522 5.3985 2.7886
-12.7038 2.4331 2.7886
-12.9233 -0.6744 2.7886
-12.3974 -3.7469 2.7886
-11.1543 -6.6085 2.7886
-9.2633 -9.0945 2.7886
-6.8309 -11.0603 2.7886
-3.9956 -12.3903 2.7886
-0.9203 -13.0046 2.7886
1.2978 -7.5321 1.6327
3.2880 -7.5259 1.7524
7.9488 -10.3878 2.7886
9.6530 -7.7484 2.6374
11.1481 -5.1821 2.6189
10.9021 -2.1406 2.3671
12.3756 0.5867 2.6409
11.8667 3.5235 2.6407
10.6597 6.2442 2.6382
4.7336 4.6009 1.4115
3.6043 5.7704 1.4568
4.0537 12.3560 2.7886
0.9819 12.9483 2.7886
-2.0216 12.0920 2.6362
-5.1280 11.8959 2.7886
-7.8161 10.3164 2.7886
-10.0499 8.1445 2.7886
-11.7028 5.5049 2.7886
-12.6810 2.5482 2.7886
-12.9286 -0.5572 2.7886
-12.4304 -3.6342 2.7886
-11.2133 -6.5068 2.7886
-9.3449 -9.0096 2.7886
-6.9305 -10.9973 2.7886
-4.1076 -12.3528 2.7886
-1.0382 -12.9950 2.7886
1.2276 -7.5317 1.6302
3.2522 -7.6318 1.7702
7.8544 -10.4588 2.7886
9.5818 -7.8346 2.6373
11.1457 -5.3040 2.6295
12.1422 -2.4982 2.6411
12.3807 0.4749 2.6409
11.8985 3.4163 2.6407
10.7168 6.1483 2.6384
4.7734 4.5564 1.4110
3.6037 5.6552 1.4358
4.1654 12.3195 2.7886
1.0989 12.9396 2.7886
-1.9123 12.1103 2.6362
-5.0205 11.9426 2.7886
-7.7227 10.3869 2.7886
-9.9760 8.2351 2.7886
-11.6526 5.6104 2.7886
-12.6574 2.6627 2.7886
-12.9328 -0.4403 2.7886
-12.4623 -3.5216 2.7886
-11.2711 -6.4049 2.7886
-9.4254 -8.9244 2.7886
-7.0292 -10.9336 2.7886
-4.2188 -12.3146 2.7886
-1.1554 -12.9845 2.7886
1.1578 -7.5313 1.6278
3.2512 -7.8247 1.8081
7.7591 -10.5293 2.7886
9.5096 -7.9205 2.6371
11.1462 -5.4287 2.6411
12.1192 -2.6082 2.6411
12.3849 0.3627 2.6409
11.9294 3.3084 2.6407
10.7732 6.0516 2.6386
4.8128 4.5114 1.4104
3.6237 5.5744 1.4235
4.2772 12.2819 2.7886
1.2163 12.9297 2.7886
-1.8025 12.1277 2.6362
-4.9122 11.9881 2.7886
-7.6284 10.4568 2.7886
-9.9011 8.3254 2.7886
-11.6013 5.7159 2.7886
-12.6326 2.7773 2.7886
-12.9360 -0.3230 2.7886
-12.4933 -3.4083 2.7886
-11.3282 -6.3022 2.7886
-9.5055 -8.8381 2.7886
-7.1277 -10.8689 2.7886
-4.3296 -12.2753 2.7886
-1.2726 -12.9728 2.7886
1.0882 -7.5310 1.6257
3.2502 -8.0260 1.8479
7.6635 -10.5987 2.7886
9.4369 -8.0053 2.6369
11.0962 -5.5288 2.6410
12.0954 -2.7176 2.6411
12.3879 0.2508 2.6409
11.9593 3.2006 2.6408
10.8286 5.9546 2.6387
4.8517 4.4662 1.4098
3.6730 5.5401 1.4231
4.3882 12.2434 2.7886
1.3331 12.9189 2.7886
-1.6929 12.1440 2.6362
-4.8038 12.0320 2.7886
-7.5338 10.5256 2.7886
-9.8256 8.4147 2.7886
-11.5492 5.8205 2.7886
-12.6068 2.8913 2.7886
-12.9381 -0.2061 2.7886
-12.5232 -3.2951 2.7886
-11.3842 -6.1993 2.7886
-9.5845 -8.7514 2.7886
-7.2252 -10.8034 2.7886
-4.4405 -12.2348 2.7886
-1.3901 -12.9601 2.7886
1.0185 -7.5306 1.6236
3.2491 -8.2373 1.8897
7.5669 -10.6674 2.7886
9.3631 -8.0898 2.6367
11.0451 -5.6289 2.6409
12.0704 -2.8272 2.6412
10.0499 0.1123 2.1422
11.9882 3.0922 2.6408
10.8832 5.8568 2.6389
4.8903 4.4204 1.4093
3.7222 5.5052 1.4227
4.4993 12.2038 2.7886
1.4503 12.9070 2.7886
-1.5828 12.1595 2.6362
-4.4381 11.4156 2.6362
-7.4383 10.5938 2.7886
-9.7490 8.5036 2.7886
-11.4960 5.9250 2.7886
-12.5800 3.0055 2.7886
-12.9391 -0.0887 2.7886
-12.5520 -3.1818 2.7886
-11.4393 -6.0959 2.7886
-9.6627 -8.6641 2.7886
-7.3221 -10.7372 2.7886
-4.5506 -12.1936 2.7886
-1.5070 -12.9463 2.7886
0.9493 -7.5302 1.6217
3.2480 -8.4574 1.9335
5.2456 -7.5384 1.9582
9.2888 -8.1733 2.6365
10.9932 -5.7281 2.6407
12.0445 -2.9361 2.6412
12.3911 0.0266 2.6410
12.0161 2.9839 2.6408
10.9368 5.7589 2.6390
4.9283 4.3745 1.4087
3.7708 5.4699 1.4222
4.6096 12.1632 2.7886
1.5669 12.8940 2.7886
-1.4730 12.1738 2.6362
-4.3350 11.4555 2.6362
-7.3425 10.6609 2.7886
-9.6720 8.5914 2.7886
-11.4420 6.0287 2.7886
-12.5522 3.1190 2.7886
-12.9391 0.0282 2.7886
-12.5799 -3.0677 2.7886
-11.4936 -5.9917 2.7886
-9.7404 -8.5757 2.7886
-7.4188 -10.6697 2.7886
-4.6607 -12.1511 2.7886
-1.6243 -12.9314 2.7886
0.8800 -7.5298 1.6199
3.2468 -8.6889 1.9797
5.1444 -7.5377 1.9459
9.2135 -8.2564 2.6363
10.9403 -5.8273 2.6406
12.0175 -3.0452 2.6412
12.3911 -0.0857 2.6410
12.0431 2.8750 2.6408
10.9897 5.6600 2.6392
4.9659 4.3281 1.4081
3.8193 5.4341 1.4218
4.7199 12.1217 2.7886
1.6838 12.8799 2.7886
-1.3626 12.1873 2.6362
-4.2311 11.4950 2.6362
-7.2461 10.7271 2.7886
-9.5941 8.6786 2.7886
-11.3871 6.1319 2.7886
-12.5234 3.2323 2.7886
-12.9381 0.1451 2.7886
-12.6067 -2.9538 2.7886
-11.5468 -5.8873 2.7886
-9.8170 -8.4869 2.7886
-7.5145 -10.6017 2.7886
-4.7700 -12.1079 2.7886
-1.7409 -12.9155 2.7886
0.8111 -7.5295 1.6182
3.2456 -8.9308 2.0281
5.0447 -7.5371 1.9339
9.1379 -8.3387 2.6362
10.8866 -5.9255 2.6405
11.9897 -3.1536 2.6412
12.3901 -0.1977 2.6410
12.0690 2.7662 2.6408
11.0414 5.5611 2.6393
5.0030 4.2816 1.4076
3.8672 5.3980 1.4213
4.8295 12.0792 2.7886
1.8002 12.8649 2.7886
-1.2525 12.1997 2.6362
-4.1272 11.5332 2.6362
-7.1487 10.7927 2.7886
-9.5152 8.7655 2.7886
-11.3311 6.2349 2.7886
-12.4934 3.3458 2.7886
-12.9359 0.2624 2.7886
-12.6326 -2.8393 2.7886
-11.5992 -5.7821 2.7886
-9.8930 -8.3971 2.7886
-7.6099 -10.5326 2.7886
-4.8793 -12.0635 2.7886
-1.8579 -12.8986 2.7886
0.7420 -7.5291 1.6167
3.2443 -9.1858 2.0793
4.9460 -7.5364 1.9222
9.0617 -8.4210 2.6362
10.8319 -6.0236 2.6403
11.9607 -3.2622 2.6412
12.3881 -0.3100 2.6410
12.0940 2.6567 2.6408
11.0925 5.4613 2.6395
5.0398 4.2345 1.4070
3.9150 5.3613 1.4209
4.9387 12.0358 2.7886
1.9165 12.8488 2.7886
-1.1423 12.2111 2.6362
-4.0230 11.5705 2.6362
-7.0511 10.8572 2.7886
-9.4357 8.8512 2.7886
-11.2743 6.3371 2.7886
-12.4626 3.4584 2.7886
-12.9328 0.3793 2.7886
-12.6573 -2.7249 2.7886
-11.6505 -5.6769 2.7886
-9.9680 -8.3070 2.7886
-7.7043 -10.4629 2.7886
-4.9878 -12.0183 2.7886
-1.9742 -12.8806 2.7886
0.6734 -7.5287 1.6153
3.2430 -9.4530 2.1332
4.8488 -7.5358 1.9109
8.9942 -8.5109 2.6388
10.7764 -6.1208 2.6402
11.9309 -3.3701 2.6412
12.3851 -0.4218 2.6410
12.1179 2.5475 2.6408
11.1424 5.3614 2.6396
5.0760 4.1873 1.4064
3.9622 5.3243 1.4204
5.0479 11.9911 2.7886
2.0330 12.8315 2.7886
-1.0315 12.2215 2.6362
-3.9181 11.6070 2.6362
-6.9525 10.9210 2.7886
-9.3553 8.9366 2.7886
-11.2165 6.4391 2.7886
-12.4306 3.5713 2.7886
-12.9286 0.4966 2.7886
-12.6811 -2.6100 2.7886
-11.7010 -5.5708 2.7886
-10.0424 -8.2158 2.7886
-7.7984 -10.3920 2.7886
-5.0963 -11.9719 2.7886
-2.0908 -12.8615 2.7886
0.6046 -7.5284 1.6141
3.2415 -9.7355 2.1903
4.7523 -7.5352 1.8998
8.9770 -8.6502 2.6567
10.7198 -6.2179 2.6401
10.9404 -3.1977 2.4282
12.3811 -0.5337 2.6410
12.1408 2.4380 2.6408
11.1915 5.2611 2.6398
5.1117 4.1397 1.4058
4.0090 5.2869 1.4200
5.1563 11.9457 2.7886
2.1490 12.8133 2.7886
-0.9545 12.6748 2.7318
-3.8132 11.6423 2.6362
-6.8538 10.9837 2.7886
-2.8380 2.7605 0.8533
-11.1579 6.5402 2.7886
-12.3978 3.6835 2.7886
-12.9233 0.6134 2.7886
-12.7038 -2.4952 2.7886
-11.7504 -5.4646 2.7886
-10.1158 -8.1244 2.7886
-7.8916 -10.3206 2.7886
-5.2040 -11.9247 2.7886
-2.2067 -12.8414 2.7886
0.5362 -7.5280 1.6130
3.2400 -10.0324 2.2505
4.6574 -7.5346 1.8890
8.9692 -8.8003 2.6779
10.6626 -6.3141 2.6399
11.8682 -3.5855 2.6412
12.3760 -0.6459 2.6410
12.1628 2.3280 2.6408
11.2398 5.1599 2.6399
5.1471 4.0917 1.4052
4.0557 5.2488 1.4195
5.2647 11.8991 2.7886
2.2652 12.7940 2.7886
-0.8570 12.9469 2.7886
-3.7076 11.6769 2.6362
-6.7541 11.0458 2.7886
-2.8015 2.7748 0.8499
-11.0982 6.6412 2.7886
-12.3638 3.7957 2.7886
-12.9169 0.7305 2.7886
-12.7255 -2.3798 2.7886
-11.7990 -5.3576 2.7886
-10.1885 -8.0319 2.7886
-7.9844 -10.2481 2.7886
-5.3116 -11.8764 2.7886
-2.3230 -12.8201 2.7886
0.4676 -7.5276 1.6120
3.2384 -10.3473 2.3146
4.5635 -7.5339 1.8785
8.9613 -8.9528 2.6996
10.6045 -6.4097 2.6398
11.8354 -3.6926 2.6412
12.3699 -0.7577 2.6410
12.1838 2.2181 2.6408
11.2870 5.0586 2.6401
5.1819 4.0435 1.4046
4.1017 5.2105 1.4190
5.3723 11.8517 2.7886
2.3808 12.7737 2.7886
-0.7401 12.9548 2.7886
-3.6021 11.7104 2.6362
-6.6542 11.1067 2.7886
-2.7835 2.8073 0.8520
-11.0378 6.7413 2.7886
-12.3289 3.9073 2.7886
-12.9096 0.8472 2.7886
-12.7461 -2.2646 2.7886
-11.8464 -5.2506 2.7886
-10.2602 -7.9392 2.7886
-8.0763 -10.1750 2.7886
-5.4184 -11.8273 2.7886
-2.4385 -12.7979 2.7886
0.3994 -7.5273 1.6112
3.2367 -10.6793 2.3823
4.4703 -7.5333 1.8682
8.9535 -9.1087 2.7221
10.5453 -6.5052 2.6396
11.8016 -3.7998 2.6412
12.3628 -0.8698 2.6410
12.2038 2.1076 2.6408
11.3334 4.9565 2.6402
5.2164 3.9948 1.4040
4.1476 5.1717 1.4186
5.4798 11.8032 2.7886
2.4967 12.7523 2.7886
-0.6226 12.9616 2.7886
-3.4959 11.7431 2.6362
-6.5534 11.1669 2.7886
-9.0263 9.2702 2.7886
-10.9763 6.8412 2.7886
-12.2929 4.0189 2.7886
-12.9011 0.9642 2.7886
-12.7657 -2.1489 2.7886
-11.8931 -5.1427 2.7886
-10.3313 -7.8454 2.7886
-8.1678 -10.1008 2.7886
-5.5247 -11.7772 2.7886
-2.5539 -12.7747 2.7886
0.3312 -7.5269 1.6105
3.2088 -10.9421 2.4345
4.3784 -7.5328 1.8583
8.9457 -9.2667 2.7451
10.4855 -6.5997 2.6395
9.6421 -3.2009 2.1643
12.3547 -0.9814 2.6410
12.2227 1.9974 2.6408
11.3788 4.8544 2.6403
5.2502 3.9460 1.4034
4.1930 5.1325 1.4181
5.5865 11.7538 2.7886
2.6119 12.7298 2.7886
-0.5055 12.9673 2.7886
-3.3898 11.7747 2.6362
-6.4525 11.2261 2.7886
-8.9424 9.3516 2.7886
-10.9141 6.9401 2.7886
-12.2560 4.1298 2.7886
-12.8917 1.0807 2.7886
-12.7843 -2.0334 2.7886
-11.9386 -5.0348 2.7886
-10.4013 -7.7514 2.7886
-8.2582 -10.0261 2.7886
-5.6309 -11.7260 2.7886
-2.6695 -12.7504 2.7886
0.2628 -7.5266 1.6099
3.1122 -10.9806 2.4368
4.2872 -7.5322 1.8485
8.9377 -9.4279 2.7688
10.4245 -6.6941 2.6394
11.7310 -4.0128 2.6412
10.9172 -0.9669 2.3355
12.2407 1.8866 2.6408
11.4233 4.7515 2.6405
5.2838 3.8968 1.4028
4.2381 5.0928 1.4176
5.6932 11.7033 2.7886
2.7274 12.7063 2.7886
-0.3879 12.9720 2.7886
-3.2830 11.8055 2.6362
-6.3506 11.2845 2.7886
-8.8574 9.4325 2.7886
-10.8508 7.0389 2.7886
-12.2180 4.2408 2.7886
-12.8812 1.1972 2.7886
-12.8017 -1.9178 2.7886
-11.9831 -4.9266 2.7886
-10.4704 -7.6567 2.7886
-8.3480 -9.9505 2.7886
-5.7363 -11.6740 2.7886
-2.7844 -12.7250 2.7886
0.1948 -7.5262 1.6095
3.0248 -11.0515 2.4464
4.1973 -7.5316 1.8391
8.9151 -9.5759 2.7886
10.3630 -6.7875 2.6392
11.6944 -4.1186 2.6412
12.3354 -1.2049 2.6410
12.2576 1.7760 2.6408
11.4668 4.6485 2.6406
5.3167 3.8474 1.4022
4.2827 5.0528 1.4171
3.6119 7.2574 1.7368
2.8422 12.6819 2.7886
-0.2707 12.9756 2.7886
-3.1764 11.8352 2.6362
-6.2486 11.3418 2.7886
-8.7720 9.5123 2.7886
-10.7869 7.1367 2.7886
-12.1791 4.3510 2.7886
-12.8696 1.3139 2.7886
-12.8182 -1.8015 2.7886
-12.0269 -4.8175 2.7886
-10.5389 -7.5611 2.7886
-8.4375 -9.8739 2.7886
-5.8416 -11.6209 2.7886
-2.8995 -12.6986 2.7886
0.1265 -7.5259 1.6092
2.9511 -11.1796 2.4689
4.1079 -7.5310 1.8298
8.8278 -9.6561 2.7886
10.3003 -6.8807 2.6390
11.3658 -4.1190 2.5753
12.3242 -1.3167 2.6411
12.2736 1.6648 2.6409
11.5085 4.5444 2.6405
5.3492 3.7975 1.4016
4.3270 5.0123 1.4166
3.6110 7.0938 1.7053
2.9572 12.6562 2.7886
-0.1530 12.9782 2.7886
-3.0690 11.8640 2.6362
-6.1461 11.3982 2.7886
-8.6859 9.5914 2.7886
-10.7221 7.2340 2.7886
-12.1393 4.4608 2.7886
-12.8570 1.4301 2.7886
-12.8336 -1.6856 2.7886
-12.0694 -4.7085 2.7886
-10.6063 -7.4653 2.7886
-8.5259 -9.7968 2.7886
-5.9460 -11.5670 2.7886
-3.0139 -12.6712 2.7886
0.0585 -7.5255 1.6090
3.2190 -12.6563 2.7886
4.0198 -7.5305 1.8208
8.7400 -9.7352 2.7886
10.2370 -6.9730 2.6389
11.1678 -4.1618 2.5389
12.3121 -1.4280 2.6411
12.2885 1.5540 2.6409
11.5062 4.4238 2.6306
5.3812 3.7476 1.4010
4.3708 4.9715 1.4161
3.6102 6.9365 1.6752
3.0716 12.6297 2.7886
-0.0358 12.9797 2.7886
-2.9618 11.8917 2.6362
-6.0427 11.4538 2.7886
-8.5987 9.6700 2.7886
-10.6561 7.3310 2.7886
-12.0983 4.5708 2.7886
-12.8432 1.5466 2.7886
-12.8480 -1.5691 2.7886
-12.1112 -4.5986 2.7886
-10.6730 -7.3684 2.7886
-8.6139 -9.7185 2.7886
-2.9464 -5.6061 1.3580
-3.1285 -12.6427 2.7886
-0.0097 -7.5252 1.6090
3.1040 -12.6844 2.7886
3.9322 -7.5299 1.8121
8.6512 -9.8138 2.7886
10.1727 -7.0650 2.6387
11.1656 -4.2766 2.5471
12.2988 -1.5395 2.6411
12.3025 1.4425 2.6409
11.5039 4.3036 2.6209
5.4128 3.6972 1.4003
4.4143 4.9301 1.4156
3.6095 6.7846 1.6463
3.1858 12.6021 2.7886
0.0815 12.9802 2.7886
-2.6822 11.1994 2.4771
-5.9391 11.5084 2.7886
-8.5112 9.7475 2.7886
-10.5896 7.4271 2.7886
-12.0565 4.6799 2.7886
-12.8286 1.6626 2.7886
-12.8613 -1.4529 2.7886
-12.1518 -4.4888 2.7886
-10.7387 -7.2714 2.7886
-8.7009 -9.6398 2.7886
-2.9885 -5.5636 1.3542
-3.2424 -12.6132 2.7886
-0.0777 -7.5248 1.6091
2.9892 -12.7114 2.7886
3.8458 -7.5294 1.8036
8.5620 -9.8913 2.7886
10.1077 -7.1560 2.6386
11.1633 -4.3918 2.5555
12.2847 -1.6506 2.6411
12.3154 1.3314 2.6409
11.5016 4.1847 2.6116
5.4438 3.6467 1.3997
4.4573 4.8885 1.4151
3.6087 6.6374 1.6183
3.3001 12.5734 2.7886
0.1992 12.9795 2.7886
-2.7463 11.9444 2.6362
-5.8347 11.5623 2.7886
-8.4226 9.8246 2.7886
-10.5219 7.5229 2.7886
-12.0135 4.7890 2.7886
-12.8128 1.7789 2.7886
-12.8736 -1.3361 2.7886
-12.1915 -4.3783 2.7886
-10.8037 -7.1733 2.7886
-8.7875 -9.5600 2.7886
-6.2570 -11.3993 2.7886
-3.3565 -12.5826 2.7886
-0.1459 -7.5245 1.6093
1.6998 -7.5344 1.6495
3.7598 -7.5288 1.7953
8.4718 -9.9683 2.7886
10.0417 -7.2468 2.6384
11.1276 -4.4946 2.5565
12.2695 -1.7615 2.6411
12.3273 1.2202 2.6409
11.5411 4.0815 2.6120
5.4743 3.5959 1.3991
4.4998 4.8465 1.4145
3.6080 6.4956 1.5915
3.4137 12.5437 2.7886
0.3165 12.9778 2.7886
-2.6384 11.9693 2.6362
-5.7302 11.6148 2.7886
-8.3337 9.9005 2.7886
-10.4536 7.6177 2.7886
-11.9697 4.8974 2.7886
-12.7960 1.8945 2.7886
-12.8848 -1.2197 2.7886
-12.2301 -4.2678 2.7886
-10.8675 -7.0751 2.7886
-8.8731 -9.4798 2.7886
-6.3594 -11.3417 2.7886
-3.4698 -12.5511 2.7886
-0.2139 -7.5241 1.6096
1.6283 -7.5339 1.6462
3.6750 -7.5283 1.7872
8.3812 -10.0442 2.7886
9.9751 -7.3367 2.6382
11.1253 -4.6110 2.5655
12.2532 -1.8727 2.6411
12.3382 1.1084 2.6409
11.7053 4.0205 2.6407
5.5044 3.5447 1.3984
4.5421 4.8040 1.4140
3.6073 6.3578 1.5656
3.5275 12.5130 2.7886
0.4342 12.9752 2.7886
-2.5299 11.9933 2.6362
-5.6248 11.6667 2.7886
-8.2438 9.9759 2.7886
-10.3842 7.7123 2.7886
-11.9248 5.0057 2.7886
-12.7781 2.0105 2.7886
-12.8950 -1.1028 2.7886
-12.2679 -4.1566 2.7886
-10.9308 -6.9760 2.7886
-8.9582 -9.3984 2.7886
-6.4616 -11.2830 2.7886
-3.5833 -12.5184 2.7886
-0.4127 -11.0034 2.3548
1.5569 -7.5335 1.6430
3.5909 -7.5278 1.7794
8.2899 -10.1192 2.7886
9.9077 -7.4259 2.6381
11.1231 -4.7282 2.5747
12.2360 -1.9833 2.6411
12.3481 0.9970 2.6409
11.7416 3.9148 2.6407
5.5340 3.4934 1.3978
4.5839 4.7612 1.4135
3.6066 6.2249 1.5408
3.6406 12.4812 2.7886
0.5514 12.9713 2.7886
-2.4215 12.0162 2.6362
-5.5194 11.7177 2.7886
-8.1535 10.0503 2.7886
-10.3142 7.8059 2.7886
-11.8791 5.1132 2.7886
-12.7592 2.1258 2.7886
-12.9041 -0.9862 2.7886
-12.3045 -4.0454 2.7886
-10.9928 -6.8766 2.7886
-9.0423 -9.3166 2.7886
-6.5629 -11.2235 2.7886
-3.6960 -12.4849 2.7886
-0.5172 -11.1106 2.3787
1.4860 -7.5332 1.6400
3.5073 -7.5273 1.7717
8.1977 -10.1937 2.7886
9.8392 -7.5148 2.6379
11.1543 -4.8613 2.5920
12.2177 -2.0942 2.6411
12.3569 0.8850 2.6409
11.7770 3.8084 2.6407
5.5631 3.4417 1.3972
4.6253 4.7179 1.4130
3.6060 6.0957 1.5168
3.7538 12.4484 2.7886
0.6690 12.9664 2.7886
-2.3125 12.0382 2.6362
-5.4131 11.7675 2.7886
-8.0622 10.1241 2.7886
-10.2432 7.8993 2.7886
-11.8322 5.2208 2.7886
-12.7393 2.2414 2.7886
-12.9122 -0.8691 2.7886
-12.3402 -3.9335 2.7886
-11.0543 -6.7763 2.7886
-9.1256 -9.2341 2.7886
-6.6637 -11.1632 2.7886
-3.8084 -12.4503 2.7886
-0.7239 -13.0181 2.7886
1.4154 -7.5328 1.6371
3.4246 -7.5267 1.7643
8.1051 -10.2670 2.7886
9.7702 -7.6028 2.6377
11.1520 -4.9806 2.6018
12.1985 -2.2044 2.6411
12.3648 0.7734 2.6409
11.8114 3.7020 2.6407
5.5916 3.3899 1.3965
4.6662 4.6744 1.4124
3.6053 5.9709 1.4937
3.8663 12.4146 2.7886
0.7862 12.9605 2.7886
-2.2038 12.0591 2.6362
-5.3067 11.8163 2.7886
-7.9706 10.1967 2.7886
-10.1715 7.9916 2.7886
-11.7846 5.3275 2.7886
-12.7183 2.3564 2.7886
-12.9192 -0.7524 2.7886
-12.3748 -3.8217 2.7886
-11.1145 -6.6759 2.7886
-9.2085 -9.1505 2.7886
-6.7643 -11.1017 2.7886
-3.9209 -12.4146 2.7886
-0.8419 -13.0104 2.7886
1.3447 -7.5324 1.6344
3.3424 -7.5262 1.7571
8.0114 -10.3398 2.7886
9.7001 -7.6904 2.6376
11.1496 -5.1013 2.6120
10.9287 -2.0775 2.3702
12.3716 0.6613 2.6409
11.8449 3.5949 2.6407
10.6210 6.3079 2.6381
4.7068 4.6304 1.4119
3.6047 5.8493 1.4713
3.9790 12.3798 2.7886
0.9037 12.9536 2.7886
-2.0944 12.0792 2.6362
-5.1996 11.8644 2.7886
-7.8780 10.2689 2.7886
-10.0987 8.0836 2.7886
-11.7358 5.4342 2.7886
-12.6964 2.4712 2.7886
-12.9252 -0.6356 2.7886
-12.4084 -3.7096 2.7886
-11.1739 -6.5749 2.7886
-9.2904 -9.0665 2.7886
-6.8639 -11.0395 2.7886
-4.0327 -12.3780 2.7886
-0.9593 -13.0016 2.7886
1.2746 -7.5320 1.6318
3.2611 -7.5257 1.7501
7.9174 -10.4114 2.7886
9.6294 -7.7771 2.6374
11.1473 -5.2225 2.6224
12.1570 -2.4249 2.6411
12.3774 0.5496 2.6409
11.8774 3.4879 2.6407
10.6787 6.2124 2.6383
4.7469 4.5861 1.4113
3.6041 5.7318 1.4498
4.0909 12.3440 2.7886
1.0208 12.9455 2.7886
-1.9853 12.0982 2.6362
-5.0923 11.9114 2.7886
-7.7851 10.3399 2.7886
-10.0254 8.1747 2.7886
-11.6862 5.5400 2.7886
-12.6733 2.5863 2.7886
-12.9301 -0.5183 2.7886
-12.4411 -3.5968 2.7886
-11.2326 -6.4730 2.7886
-9.3717 -8.9814 2.7886
-6.9634 -10.9762 2.7886
-4.1445 -12.3402 2.7886
-1.0771 -12.9916 2.7886
1.2044 -7.5316 1.6294
3.2519 -7.6949 1.7826
7.8226 -10.4825 2.7886
9.5577 -7.8634 2.6372
11.1449 -5.3451 2.6331
12.1346 -2.5350 2.6411
12.3822 0.4373 2.6409
11.9089 3.3802 2.6407
10.7358 6.1160 2.6385
4.7866 4.5414 1.4108
3.6035 5.6172 1.4289
4.2028 12.3071 2.7886
1.1382 12.9364 2.7886
-1.8756 12.1162 2.6362
-4.9847 11.9573 2.7886
-7.6916 10.4101 2.7886
-9.9513 8.2651 2.7886
-11.6357 5.6454 2.7886
-12.6493 2.7006 2.7886
-12.9340 -0.4015 2.7886
-12.4727 -3.4842 2.7886
-11.2901 -6.3710 2.7886
-9.4520 -8.8959 2.7886
-7.0619 -10.9123 2.7886
-4.2556 -12.3016 2.7886
-1.1944 -12.9807 2.7886
1.1346 -7.5312 1.6271
3.2509 -7.8906 1.8211
7.7274 -10.5525 2.7886
9.4855 -7.9487 2.6370
11.1297 -5.4620 2.6411
12.1114 -2.6445 2.6411
12.3860 0.3255 2.6409
11.9394 3.2726 2.6408
10.7917 6.0194 2.6386
4.8258 4.4964 1.4102
3.6401 5.5630 1.4234
4.3141 12.2693 2.7886
1.2551 12.9263 2.7886
-1.7661 12.1332 2.6362
-4.8762 12.0025 2.7886
-7.5971 10.4798 2.7886
-9.8761 8.3551 2.7886
-11.5841 5.7507 2.7886
-12.6241 2.8152 2.7886
-12.9368 -0.2842 2.7886
-12.5033 -3.3707 2.7886
-11.3469 -6.2681 2.7886
-9.5318 -8.8094 2.7886
-7.1601 -10.8472 2.7886
-4.3667 -12.2619 2.7886
-1.3119 -12.9687 2.7886
1.0648 -7.5308 1.6249
3.2498 -8.0957 1.8616
7.6312 -10.6218 2.7886
9.4123 -8.0337 2.6368
11.0792 -5.5624 2.6409
12.0871 -2.7543 2.6411
12.3888 0.2132 2.6410
11.9691 3.1644 2.6408
10.8469 5.9220 2.6388
4.8645 4.4511 1.4097
3.6893 5.5286 1.4230
4.4250 12.2305 2.7886
1.3719 12.9151 2.7886
-1.6565 12.1493 2.6362
-4.7678 12.0465 2.7886
-7.5023 10.5483 2.7886
-9.8004 8.4441 2.7886
-11.5317 5.8551 2.7886
-12.5980 2.9291 2.7886
-12.9385 -0.1673 2.7886
-11.2911 -2.9346 2.7886
-10.2719 -5.5536 2.7886
-8.6566 -7.8566 2.7886
-6.5363 -9.7101 2.7886
-4.0316 -11.0053 2.7886
-1.2866 -11.6651 2.7886
0.9958 -7.5327 1.8032
3.2144 -8.2216 2.0928
6.7820 -9.6222 2.7886
8.8894 -7.7275 2.7886
9.9140 -5.0903 2.6378
10.8511 -2.5763 2.6399
10.0502 0.0818 2.3799
10.7927 2.7488 2.6391
5.1642 2.7589 1.3887
4.3966 3.9499 1.4034
3.6019 5.2924 1.5220
4.0854 10.9780 2.7886
1.3417 11.6211 2.7886
-1.3924 10.9575 2.6362
-3.9670 10.2963 2.6362
-6.6726 9.5648 2.7886
-8.7607 7.6883 2.7886
-10.3419 5.3698 2.7886
-11.3265 2.7422 2.7886
-11.6580 -0.0449 2.7886
-11.3169 -2.8322 2.7886
-10.3214 -5.4602 2.7886
-8.7269 -7.7776 2.7886
-6.6235 -9.6500 2.7886
-4.1309 -10.9678 2.7886
-1.3921 -11.6524 2.7886
0.9265 -7.5323 1.8011
3.1478 -8.2711 2.0981
5.2135 -7.5409 2.1717
8.8190 -7.8075 2.7886
9.8671 -5.1795 2.6377
10.8273 -2.6743 2.6399
11.1506 -0.0101 2.6404
10.8177 2.6513 2.6391
5.1869 2.7110 1.3881
4.4308 3.9088 1.4029
3.6014 5.1900 1.5018
4.1848 10.9411 2.7886
1.4469 11.6091 2.7886
-1.2933 10.9701 2.6362
-3.8737 10.3321 2.6362
-6.5859 9.6251 2.7886
-8.6908 7.7674 2.7886
-10.2929 5.4633 2.7886
-11.3011 2.8445 2.7886
-11.6577 0.0606 2.7886
-11.3417 -2.7296 2.7886
-10.3700 -5.3663 2.7886
-8.7966 -7.6979 2.7886
-6.7103 -9.5892 2.7886
-4.2297 -10.9294 2.7886
-1.4974 -11.6388 2.7886
0.8573 -7.5319 1.7992
3.0951 -8.3592 2.1134
5.1129 -7.5402 2.1581
8.7479 -7.8868 2.7886
9.8194 -5.2683 2.6375
10.8025 -2.7721 2.6398
11.1503 -0.1110 2.6404
10.8419 2.5534 2.6392
5.2092 2.6629 1.3875
4.4645 3.8673 1.4024
3.6009 5.0903 1.4823
4.2839 10.9034 2.7886
1.5519 11.5961 2.7886
-1.1940 10.9818 2.6362
-3.7802 10.3671 2.6362
-6.4987 9.6846 2.7886
-8.6203 7.8459 2.7886
-10.2431 5.5562 2.7886
-11.2748 2.9467 2.7886
-11.6564 0.1661 2.7886
-11.3656 -2.6267 2.7886
-10.4177 -5.2721 2.7886
-8.8655 -7.6177 2.7886
-6.7964 -9.5276 2.7886
-4.3282 -10.8902 2.7886
-1.6025 -11.6242 2.7886
0.7883 -7.5316 1.7974
3.2452 -9.0143 2.2716
5.0135 -7.5395 2.1449
8.6760 -7.9655 2.7886
9.7708 -5.3567 2.6374
10.7769 -2.8697 2.6398
11.1491 -0.2119 2.6404
10.8652 2.4554 2.6393
5.3067 2.6524 1.4069
4.4979 3.8255 1.4019
3.6004 4.9932 1.4633
4.3826 10.8647 2.7886
1.6569 11.5821 2.7886
-1.0946 10.9927 2.6362
-3.6864 10.4013 2.6362
-6.4109 9.7433 2.7886
-8.5491 7.9237 2.7886
-10.1924 5.6487 2.7886
-11.2476 3.0486 2.7886
-11.6542 0.2716 2.7886
-11.3886 -2.5237 2.7886
-10.4646 -5.1773 2.7886
-8.9337 -7.5368 2.7886
-6.8820 -9.4653 2.7886
-4.4264 -10.8500 2.7886
-1.7076 -11.6086 2.7886
0.7194 -7.5312 1.7958
3.2439 -9.2731 2.3294
4.9153 -7.5389 2.1321
8.6035 -8.0435 2.7886
9.7215 -5.4446 2.6373
10.7503 -2.9670 2.6397
11.1470 -0.3127 2.6404
10.8876 2.3571 2.6394
5.4270 2.6515 1.4324
4.5308 3.7834 1.4013
3.5999 4.8984 1.4450
4.4809 10.8251 2.7886
1.7617 11.5672 2.7886
-1.0057 11.1201 2.6643
-3.5922 10.4346 2.6362
-6.3227 9.8012 2.7886
-8.4772 8.0009 2.7886
-10.1409 5.7408 2.7886
-11.2194 3.1502 2.7886
-11.6511 0.3771 2.7886
-11.4106 -2.4204 2.7886
-10.5106 -5.0822 2.7886
-9.0011 -7.4553 2.7886
-6.9671 -9.4022 2.7886
-4.5242 -10.8090 2.7886
-1.8125 -11.5922 2.7886
0.6507 -7.5308 1.7943
3.2425 -9.5453 2.3904
4.8182 -7.5382 2.1195
8.5302 -8.1209 2.7886
9.6714 -5.5320 2.6372
10.7228 -3.0641 2.6397
11.1439 -0.4135 2.6404
10.9091 2.2587 2.6394
5.5519 2.6505 1.4589
4.5634 3.7410 1.4008
3.5994 4.8060 1.4272
4.5790 10.7847 2.7886
1.8664 11.5513 2.7886
-0.9473 11.6482 2.7886
-3.4977 10.4671 2.6362
-6.2338 9.8583 2.7886
-8.4046 8.0774 2.7886
-10.0886 5.8324 2.7886
-11.1904 3.2516 2.7886
-11.6470 0.4825 2.7886
-11.4317 -2.3170 2.7886
-10.5558 -4.9867 2.7886
-9.0678 -7.3732 2.7886
-7.0515 -9.3383 2.7886
-4.6215 -10.7671 2.7886
-1.9172 -11.5747 2.7886
0.5821 -7.5305 1.7930
3.2410 -9.8323 2.4549
4.7223 -7.5376 2.1073
8.4562 -8.1976 2.7886
9.6204 -5.6190 2.6371
10.6945 -3.1609 2.6396
11.1400 -0.5144 2.6404
10.9297 2.1600 2.6395
10.0782 4.7000 2.6369
4.5955 3.6983 1.4003
3.6066 4.7259 1.4130
4.6766 10.7433 2.7886
1.9710 11.5345 2.7886
-0.8419 11.6568 2.7886
-3.4030 10.4987 2.6362
-6.1446 9.9146 2.7886
-2.8255 2.7652 0.9457
-10.0355 5.9235 2.7886
-11.1604 3.3528 2.7886
-11.6419 0.5879 2.7886
-11.4519 -2.2134 2.7886
-10.6001 -4.8908 2.7886
-9.1338 -7.2905 2.7886
-7.1354 -9.2737 2.7886
-4.7186 -10.7243 2.7886
-2.0217 -11.5563 2.7886
0.5136 -7.5301 1.7918
3.2395 -10.1350 2.5232
4.6275 -7.5370 2.0954
8.3816 -8.2736 2.7886
9.5686 -5.7055 2.6369
10.6653 -3.2575 2.6395
11.1350 -0.6151 2.6404
10.9493 2.0611 2.6396
10.1212 4.6091 2.6370
4.6272 3.6554 1.3998
3.6483 4.6919 1.4126
4.7738 10.7011 2.7886
2.0753 11.5167 2.7886
-0.7364 11.6645 2.7886
-3.3080 10.5295 2.6362
-6.0547 9.9700 2.7886
-2.7935 2.7838 0.9434
-9.9815 6.0141 2.7886
-11.1296 3.4536 2.7886
-11.6360 0.6932 2.7886
-11.4712 -2.1096 2.7886
-10.6435 -4.7945 2.7886
-9.1990 -7.2072 2.7886
-7.2187 -9.2083 2.7886
-4.8151 -10.6806 2.7886
-2.1261 -11.5370 2.7886
0.4451 -7.5297 1.7907
3.4786 -11.2326 2.7886
4.5337 -7.5363 2.0838
8.3062 -8.3489 2.7886
9.5161 -5.7915 2.6368
10.6352 -3.3537 2.6395
11.1292 -0.7158 2.6404
10.9681 1.9621 2.6396
10.1633 4.5177 2.6372
4.6586 3.6121 1.3992
3.6897 4.6576 1.4121
4.8707 10.6580 2.7886
2.1796 11.4980 2.7886
-0.6308 11.6712 2.7886
-3.2126 10.5594 2.6362
-5.9644 10.0247 2.7886
-2.7781 2.8190 0.9468
-9.9267 6.1043 2.7886
-11.0978 3.5542 2.7886
-11.6290 0.7986 2.7886
-11.4895 -2.0056 2.7886
-10.6861 -4.6978 2.7886
-9.2634 -7.1234 2.7886
-7.3013 -9.1421 2.7886
-4.9114 -10.6361 2.7886
-2.2303 -11.5168 2.7886
0.3768 -7.5294 1.7898
3.3767 -11.2632 2.7886
4.4410 -7.5357 2.0725
8.2302 -8.4236 2.7886
9.4628 -5.8770 2.6367
9.6539 -3.1406 2.4029
11.1224 -0.8165 2.6404
10.9860 1.8629 2.6397
10.2046 4.4259 2.6373
4.6894 3.5686 1.3987
3.7307 4.6228 1.4117
4.9672 10.6140 2.7886
2.2837 11.4784 2.7886
-0.5252 11.6770 2.7886
-3.1171 10.5884 2.6362
-5.8736 10.0786 2.7886
-8.1072 8.3770 2.7886
-9.8711 6.1939 2.7886
-11.0651 3.6545 2.7886
-11.6211 0.9037 2.7886
-11.5068 -1.9015 2.7886
-10.7278 -4.6007 2.7886
-9.3271 -7.0390 2.7886
-7.3834 -9.0752 2.7886
-5.0072 -10.5906 2.7886
-2.3343 -11.4955 2.7886
0.3085 -7.5290 1.7891
3.2371 -11.1635 2.7566
4.3493 -7.5351 2.0615
8.1535 -8.4975 2.7886
9.4087 -5.9620 2.6365
9.6425 -3.2336 2.4072
11.1147 -0.9171 2.6404
11.0029 1.7635 2.6398
10.2451 4.3338 2.6374
4.7199 3.5248 1.3982
3.7714 4.5877 1.4113
5.0632 10.5692 2.7886
2.3875 11.4578 2.7886
-0.4196 11.6817 2.7886
-3.0213 10.6166 2.6362
-5.7823 10.1315 2.7886
-8.0313 8.4501 2.7886
-9.8148 6.2830 2.7886
-11.0315 3.7545 2.7886
-11.6123 1.0089 2.7886
-11.5233 -1.7972 2.7886
-10.7686 -4.5033 2.7886
-9.3900 -6.9539 2.7886
-7.4649 -9.0076 2.7886
-5.1026 -10.5444 2.7886
-2.4381 -11.4734 2.7886
0.2403 -7.5287 1.7885
3.1721 -11.3216 2.7886
4.2585 -7.5345 2.0508
8.0762 -8.5708 2.7886
9.3538 -6.0465 2.6364
10.5395 -3.6408 2.6392
11.1061 -1.0176 2.6404
11.0189 1.6640 2.6398
10.2847 4.2412 2.6375
4.7500 3.4808 1.3976
3.8118 4.5522 1.4108
5.1590 10.5234 2.7886
2.4912 11.4363 2.7886
-0.3138 11.6856 2.7886
-2.9252 10.6439 2.6362
-5.6906 10.1838 2.7886
-7.9546 8.5227 2.7886
-9.7576 6.3717 2.7886
-10.9971 3.8542 2.7886
-11.6025 1.1139 2.7886
-11.5388 -1.6928 2.7886
-10.8086 -4.4054 2.7886
-9.4522 -6.8684 2.7886
-7.5458 -8.9392 2.7886
-5.1974 -10.4973 2.7886
-2.5416 -11.4503 2.7886
0.1721 -7.5283 1.7881
3.0695 -11.3494 2.7886
4.1688 -7.5339 2.0403
7.9981 -8.6433 2.7886
9.2982 -6.1305 2.6363
10.5059 -3.7360 2.6392
11.0966 -1.1181 2.6404
11.0341 1.5643 2.6399
10.3235 4.1483 2.6376
4.7796 3.4365 1.3971
3.8518 4.5163 1.4104
3.6116 7.2015 1.9168
2.5948 11.4139 2.7886
-0.2081 11.6885 2.7886
-2.8288 10.6704 2.6362
-5.5983 10.2353 2.7886
-7.8773 8.5945 2.7886
-9.6996 6.4598 2.7886
-10.9617 3.9536 2.7886
-11.5917 1.2189 2.7886
-11.5533 -1.5882 2.7886
-10.8476 -4.3073 2.7886
-9.5135 -6.7823 2.7886
-7.6260 -8.8702 2.7886
-5.2920 -10.4493 2.7886
-2.6450 -11.4263 2.7886
0.1040 -7.5280 1.7878
2.9666 -11.3762 2.7886
4.0799 -7.5334 2.0301
7.9194 -8.7151 2.7886
9.2419 -6.2141 2.6362
10.4713 -3.8308 2.6391
11.0861 -1.2184 2.6404
11.0483 1.4644 2.6399
10.3614 4.0551 2.6377
4.8088 3.3919 1.3965
3.8914 4.4801 1.4100
3.6108 7.0401 1.8823
2.6981 11.3905 2.7886
-0.1023 11.6904 2.7886
-2.7322 10.6960 2.6362
-5.5056 10.2858 2.7886
-7.7993 8.6656 2.7886
-9.6408 6.5474 2.7886
-10.9254 4.0527 2.7886
-11.5801 1.3238 2.7886
-11.5669 -1.4836 2.7886
-10.8858 -4.2088 2.7886
-9.5741 -6.6957 2.7886
-7.7056 -8.8004 2.7886
-5.3861 -10.4005 2.7886
-2.7482 -11.4013 2.7886
0.0358 -7.5276 1.7876
2.8634 -11.4022 2.7886
3.9918 -7.5328 2.0202
7.8401 -8.7862 2.7886
9.1852 -6.2971 2.6362
10.4360 -3.9252 2.6390
11.0747 -1.3186 2.6404
11.0615 1.3646 2.6400
10.3984 3.9615 2.6379
4.8376 3.3471 1.3960
3.9308 4.4435 1.4095
3.6100 6.8844 1.8493
2.8012 11.3661 2.7886
0.0036 11.6914 2.7886
-2.6354 10.7207 2.6362
-5.4124 10.3356 2.7886
-7.7207 8.7361 2.7886
-9.5812 6.6344 2.7886
-10.8883 4.1513 2.7886
-11.5675 1.4285 2.7886
-11.5796 -1.3788 2.7886
-10.9230 -4.1100 2.7886
-9.6339 -6.6084 2.7886
-7.7845 -8.7299 2.7886
-2.9553 -5.5824 1.5039
-2.8511 -11.3754 2.7886
-0.0323 -7.5273 1.7876
2.7600 -11.4271 2.7886
3.9046 -7.5322 2.0106
7.7602 -8.8566 2.7886
9.1278 -6.3801 2.6362
10.3998 -4.0193 2.6389
11.0624 -1.4188 2.6403
11.0739 1.2645 2.6400
10.4346 3.8676 2.6380
4.8659 3.3020 1.3954
3.9697 4.4065 1.4090
3.6092 6.7341 1.8175
2.9041 11.3409 2.7886
0.1094 11.6914 2.7886
-2.5383 10.7445 2.6362
-5.3189 10.3844 2.7886
-7.6415 8.8057 2.7886
-9.5209 6.7209 2.7886
-10.8502 4.2497 2.7886
-11.5539 1.5331 2.7886
-11.5913 -1.2739 2.7886
-10.9594 -4.0108 2.7886
-9.6929 -6.5207 2.7886
-7.8629 -8.6587 2.7886
-3.0078 -5.5592 1.5050
-2.9538 -11.3486 2.7886
-0.1004 -7.5269 1.7878
1.7484 -7.5369 1.8354
3.8184 -7.5317 2.0012
7.6796 -8.9262 2.7886
9.0696 -6.4624 2.6362
10.3626 -4.1131 2.6388
11.0492 -1.5188 2.6403
11.0854 1.1643 2.6401
10.4700 3.7733 2.6381
4.8938 3.2566 1.3948
4.0083 4.3692 1.4086
3.6085 6.5888 1.7869
3.0068 11.3147 2.7886
0.2151 11.6905 2.7886
-2.4412 10.7675 2.6362
-5.2249 10.4325 2.7886
-7.5617 8.8747 2.7886
-9.4598 6.8069 2.7886
-10.8113 4.3477 2.7886
-11.5394 1.6376 2.7886
-11.6021 -1.1689 2.7886
-10.9949 -3.9113 2.7886
-9.7511 -6.4324 2.7886
-7.9406 -8.5867 2.7886
-5.6656 -10.2489 2.7886
-3.0562 -11.3209 2.7886
-0.1685 -7.5266 1.7880
1.6766 -7.5365 1.8316
3.7328 -7.5311 1.9921
7.5983 -8.9951 2.7886
9.0386 -6.5644 2.6443
10.3247 -4.2065 2.6388
11.0351 -1.6187 2.6403
11.0959 1.0640 2.6401
10.5045 3.6787 2.6382
4.9213 3.2111 1.3943
4.0465 4.3315 1.4081
3.6078 6.4484 1.7576
3.1091 11.2876 2.7886
0.3209 11.6886 2.7886
-2.3437 10.7895 2.6362
-5.1304 10.4797 2.7886
-7.4812 8.9430 2.7886
-9.3978 6.8924 2.7886
-10.7715 4.4454 2.7886
-11.5239 1.7420 2.7886
-11.6119 -1.0637 2.7886
-11.0295 -3.8115 2.7886
-9.8086 -6.3436 2.7886
-8.0175 -8.5142 2.7886
-5.7577 -10.1967 2.7886
-3.1583 -11.2922 2.7886
-0.2366 -7.5262 1.7885
1.6051 -7.5361 1.8279
3.6481 -7.5306 1.9832
7.5165 -9.0633 2.7886
9.0272 -6.6817 2.6586
10.2858 -4.2996 2.6387
11.0200 -1.7185 2.6403
11.1055 0.9636 2.6401
10.5381 3.5837 2.6383
4.9483 3.1653 1.3937
4.0844 4.2935 1.4077
3.6071 6.3124 1.7292
3.2113 11.2596 2.7886
0.4267 11.6857 2.7886
-2.2460 10.8108 2.6362
-5.0354 10.5261 2.7886
-7.4001 9.0106 2.7886
-9.3352 6.9772 2.7886
-10.7308 4.5428 2.7886
-11.5076 1.8462 2.7886
-11.6208 -0.9586 2.7886
-11.0631 -3.7114 2.7886
-9.8651 -6.2544 2.7886
-8.0938 -8.4409 2.7886
-5.8495 -10.1437 2.7886
-3.2602 -11.2626 2.7886
-0.4519 -11.1574 2.6523
1.5339 -7.5357 1.8245
3.5640 -7.5301 1.9745
7.4340 -9.1308 2.7886
9.0211 -6.8043 2.6749
10.2462 -4.3924 2.6386
11.0040 -1.8181 2.6402
11.1142 0.8632 2.6402
10.5708 3.4886 2.6384
4.9749 3.1192 1.3931
4.1218 4.2551 1.4072
3.6064 6.1807 1.7019
3.3133 11.2306 2.7886
0.5325 11.6819 2.7886
-2.1482 10.8311 2.6362
-4.9401 10.5715 2.7886
-7.3184 9.0774 2.7886
-9.2717 7.0616 2.7886
-10.6893 4.6396 2.7886
-11.4903 1.9502 2.7886
-11.6287 -0.8534 2.7886
-11.0959 -3.6110 2.7886
-9.9209 -6.1646 2.7886
-8.1695 -8.3669 2.7886
-5.9408 -10.0898 2.7886
-3.3619 -11.2321 2.7886
-0.5812 -11.7251 2.7886
1.4629 -7.5353 1.8212
3.4807 -7.5295 1.9661
7.3509 -9.1974 2.7886
9.0148 -6.9283 2.6915
10.2057 -4.4846 2.6385
10.9871 -1.9175 2.6402
11.1219 0.7626 2.6402
10.6027 3.3930 2.6385
5.0011 3.0729 1.3926
4.1590 4.2164 1.4067
3.6057 6.0530 1.6756
3.4149 11.2007 2.7886
0.6383 11.6772 2.7886
-2.0501 10.8505 2.6362
-4.8444 10.6162 2.7886
-7.2361 9.1434 2.7886
-9.2076 7.1452 2.7886
-10.6468 4.7362 2.7886
-11.4720 2.0541 2.7886
-11.6357 -0.7481 2.7886
-11.1278 -3.5103 2.7886
-9.9759 -6.0743 2.7886
-8.2446 -8.2922 2.7886
-6.0315 -10.0352 2.7886
-3.4632 -11.2006 2.7886
-0.6872 -11.7188 2.7886
1.3922 -7.5349 1.8180
3.3982 -7.5290 1.9579
7.2673 -9.2633 2.7886
9.0084 -7.0540 2.7086
10.1643 -4.5766 2.6384
10.9693 -2.0169 2.6402
11.1287 0.6620 2.6402
10.6337 3.2972 2.6386
5.0268 3.0264 1.3920
4.1957 4.1774 1.4062
3.6051 5.9293 1.6503
3.5163 11.1699 2.7886
0.7440 11.6715 2.7886
-1.9520 10.8691 2.6362
-4.7483 10.6599 2.7886
-7.1532 9.2088 2.7886
-9.1427 7.2284 2.7886
-10.6035 4.8324 2.7886
-11.4528 2.1578 2.7886
-11.6417 -0.6427 2.7886
-11.1587 -3.4093 2.7886
-10.0301 -5.9835 2.7886
-8.3189 -8.2169 2.7886
-6.1218 -9.9797 2.7886
-3.5642 -11.1683 2.7886
-0.7932 -11.7116 2.7886
1.3217 -7.5345 1.8151
3.3163 -7.5285 1.9500
7.1830 -9.3285 2.7886
9.0019 -7.1813 2.7261
10.1220 -4.6683 2.6383
10.9506 -2.1161 2.6401
11.1347 0.5612 2.6403
10.6638 3.2009 2.6387
5.0521 2.9797 1.3914
4.2321 4.1379 1.4057
3.6045 5.8091 1.6257
3.6174 11.1382 2.7886
0.8495 11.6648 2.7886
-1.8536 10.8868 2.6362
-4.3976 10.1178 2.6362
-7.0698 9.2734 2.7886
-9.0770 7.3109 2.7886
-10.5594 4.9282 2.7886
-11.4327 2.2614 2.7886
-11.6468 -0.5373 2.7886
-11.1888 -3.3081 2.7886
-10.0834 -5.8922 2.7886
-8.3925 -8.1409 2.7886
-6.2116 -9.9234 2.7886
-3.6650 -11.1350 2.7886
-0.8991 -11.7034 2.7886
1.2515 -7.5341 1.8122
3.2525 -7.5687 1.9528
7.0980 -9.3929 2.7886
8.9953 -7.3100 2.7440
10.0791 -4.7593 2.6382
10.9309 -2.2149 2.6401
11.1396 0.4606 2.6403
10.6930 3.1047 2.6388
5.0769 2.9328 1.3908
4.2680 4.0983 1.4052
3.6039 5.6927 1.6021
3.7182 11.1055 2.7886
0.9551 11.6572 2.7886
-1.7550 10.9035 2.6362
-4.3059 10.1576 2.6362
-6.9857 9.3373 2.7886
-9.0105 7.3929 2.7886
-10.5143 5.0236 2.7886
-11.4116 2.3648 2.7886
-11.6510 -0.4318 2.7886
-11.2179 -3.2066 2.7886
-10.1360 -5.8005 2.7886
-8.4655 -8.0642 2.7886
-6.3008 -9.8662 2.7886
-3.7654 -11.1008 2.7886
-1.0049 -11.6942 2.7886
1.1815 -7.5337 1.8096
3.2516 -7.7589 1.9942
7.0127 -9.4564 2.7886
8.9885 -7.4405 2.7624
10.0352 -4.8501 2.6381
10.9104 -2.3137 2.6401
11.1437 0.3598 2.6403
10.7214 3.0080 2.6388
5.1013 2.8856 1.3902
4.3036 4.0583 1.4047
3.6033 5.5794 1.5793
3.8188 11.0720 2.7886
1.0606 11.6486 2.7886
-1.6563 10.9194 2.6362
-4.2140 10.1965 2.6362
-6.9010 9.4003 2.7886
-8.9434 7.4743 2.7886
-10.4685 5.1186 2.7886
-11.3896 2.4680 2.7886
-11.6541 -0.3263 2.7886
-11.2461 -3.1048 2.7886
-10.1876 -5.7083 2.7886
-8.5377 -7.9869 2.7886
-6.3896 -9.8083 2.7886
-3.8654 -11.0658 2.7886
-1.1105 -11.6841 2.7886
1.1118 -7.5333 1.8071
3.2505 -7.9577 2.0378
6.9267 -9.5192 2.7886
8.9816 -7.5728 2.7813
9.9904 -4.9405 2.6380
