ply
format ascii 1.0
element vertex 1974
property float32 x
property float32 y
property float32 z
end_header
-4.8466 29.7637 -5.9379
-21.1957 28.4978 -8.1367
-27.1048 5.7034 -7.8199
-27.6025 -0.9987 -8.2108
-28.1308 -8.1129 -9.0519
10.7172 -13.5920 -4.4671
11.0847 -8.6434 -3.3715
13.0605 -5.8702 -3.1797
27.9319 8.4342 -5.2667
17.3906 10.2147 -3.4903
11.3259 10.9556 -2.6727
16.1710 25.5457 -5.1505
-20.8956 28.8092 -8.1220
-35.3524 29.9646 -11.4132
-27.0796 6.0425 -7.8108
-27.5774 -0.6609 -8.1815
-28.1026 -7.7331 -8.9968
10.6940 -13.9045 -4.5429
11.0696 -8.8475 -3.4119
12.5756 -5.8342 -3.0904
39.6704 -7.8462 -8.3482
28.0014 8.0930 -5.2750
17.5096 10.0066 -3.4957
10.6448 10.0547 -2.4847
16.5798 25.5153 -5.1796
-20.6815 29.2451 -8.1428
-33.4617 29.0610 -10.8745
-27.0544 6.3827 -7.8026
-27.5524 -0.3241 -8.1533
-28.0746 -7.3567 -8.9432
11.0541 -9.0550 -3.4535
12.1204 -5.8004 -3.0071
36.0419 -7.5768 -7.6317
28.2070 7.7900 -5.3099
16.7865 9.3304 -3.3346
11.3091 10.4307 -2.6119
16.9939 25.4846 -5.2101
-20.5595 29.8243 -8.2029
-32.5867 28.9960 -10.6629
-27.0290 6.7242 -7.7954
-27.5275 0.0120 -8.1262
-28.0469 -6.9835 -8.8912
11.0385 -9.2661 -3.4962
11.6923 -5.7686 -2.9291
33.6831 -7.5019 -7.1777
26.7798 7.0541 -5.0386
17.5352 9.4755 -3.4667
11.8994 10.7163 -2.7202
17.4135 25.4534 -5.2421
-20.5019 30.5169 -8.2930
-31.7390 28.9331 -10.4594
-27.0036 7.0670 -7.7892
-27.5025 0.3474 -8.1001
-28.0194 -6.6133 -8.8407
11.0225 -9.4810 -3.5403
11.3000 -5.7444 -2.8590
30.4311 -7.1601 -6.5272
28.1062 7.0469 -5.2865
17.7482 9.3197 -3.4928
11.9952 10.5472 -2.7149
17.8390 25.4218 -5.2756
-20.4483 31.2390 -8.3894
-30.9171 28.8720 -10.2636
-26.9780 7.4112 -7.7840
-27.4777 0.6823 -8.0751
-27.9922 -6.2461 -8.7916
11.0063 -9.6997 -3.5857
11.2877 -5.9094 -2.8848
13.7658 -3.4130 -2.9724
27.8816 6.6390 -5.2435
17.6410 8.9975 -3.4567
11.2463 9.6541 -2.5210
18.2706 25.3898 -5.3107
-20.3930 31.9842 -8.4903
-30.1195 28.8128 -10.0751
-26.9523 7.7570 -7.7797
-27.4528 1.0167 -8.0510
-27.9651 -5.8817 -8.7439
10.9897 -9.9226 -3.6324
11.2754 -6.0761 -2.9113
13.2795 -3.4614 -2.8871
33.6931 7.6002 -6.3369
17.6785 8.7534 -3.4500
11.9060 9.9771 -2.6440
18.7085 25.3573 -5.3473
14.0074 33.3213 -6.2659
-21.0219 33.8581 -8.8857
-29.3451 28.7553 -9.8936
-26.7195 8.0422 -7.7167
-27.4281 1.3507 -8.0281
-27.7235 -5.4775 -8.6307
10.9729 -10.1497 -3.6806
11.2628 -6.2447 -2.9385
13.2953 -3.6356 -2.9109
33.6848 7.1782 -6.3368
17.6523 8.4806 -3.4316
11.7829 9.6379 -2.5932
19.1530 25.3243 -5.3857
13.9108 32.0208 -6.0422
-20.9612 34.6802 -8.9999
-28.5925 28.6994 -9.7186
-27.4033 1.6844 -8.0061
-27.9116 -5.1606 -8.6527
-4.8753 -3.8926 -1.9965
10.9557 -10.3812 -3.7303
11.2502 -6.4152 -2.9665
13.3124 -3.8118 -2.9356
33.4853 6.7201 -6.3020
17.6263 8.2117 -3.4141
12.3646 9.8708 -2.6975
19.5456 25.2149 -5.4094
13.8206 30.8059 -5.8344
-1.6092 29.6753 -5.6752
-20.8985 35.5303 -9.1194
-28.2324 29.0272 -9.6772
-27.3785 2.0179 -7.9852
-27.6707 -4.7668 -8.5429
10.9381 -10.6173 -3.7815
11.2374 -6.5876 -2.9953
13.3442 -3.9941 -2.9643
33.2320 6.2588 -6.2582
17.6840 7.9841 -3.4136
12.3999 9.6600 -2.6824
20.0027 25.1809 -5.4510
13.7362 29.6683 -5.6410
-20.8337 36.4102 -9.2446
-4.2474 4.4733 -1.4686
-27.3537 2.3513 -7.9652
-27.6518 -4.4160 -8.5031
10.9202 -10.8583 -3.8343
11.2244 -6.7622 -3.0250
13.3779 -4.1790 -2.9941
38.0089 6.6911 -7.1635
17.5944 7.6931 -3.3854
12.8604 9.7754 -2.7594
20.4673 25.1464 -5.4944
13.5292 28.3332 -5.4095
-20.3140 36.5086 -9.1716
-27.2197 29.3653 -9.4966
-27.3290 2.6848 -7.9463
-27.7587 -4.0856 -8.5031
10.9020 -11.1044 -3.8887
11.2113 -6.9389 -3.0554
13.4169 -4.3679 -3.0259
38.6867 6.3366 -7.2984
18.2929 7.7408 -3.5094
12.3422 9.1522 -2.6274
21.0027 25.1869 -5.5564
13.4553 27.3380 -5.2424
-20.6953 38.2643 -9.5128
-26.5240 29.3130 -9.3402
-27.3042 3.0184 -7.9283
-27.8065 -3.7459 -8.4860
10.7832 -11.2514 -3.9086
11.1980 -7.1178 -3.0867
13.4579 -4.5599 -3.0590
43.9696 6.6654 -8.3047
18.2552 7.4701 -3.4925
12.3927 8.9634 -2.6182
21.4846 25.1511 -5.6037
13.5120 26.6489 -5.1338
-20.6220 39.2437 -9.6567
-25.8458 29.2620 -9.1892
-29.1898 20.2598 -9.0101
-27.2794 3.3521 -7.9114
-27.7806 -3.3972 -8.4475
10.9246 -11.6773 -4.0252
11.1845 -7.2991 -3.1189
13.5007 -4.7551 -3.0934
43.5741 6.0758 -8.2411
22.7600 8.9991 -4.3433
12.3323 8.6983 -2.5864
21.9750 25.1147 -5.6530
13.4455 25.7544 -4.9855
-20.2722 39.7247 -9.6772
-25.1842 29.2122 -9.0432
-28.0481 19.9725 -8.7000
-27.2546 3.6862 -7.8954
-27.7548 -3.0500 -8.4102
10.9050 -11.9416 -4.0854
11.1709 -7.4830 -3.1520
16.8137 -6.1490 -3.8840
22.9219 8.7491 -4.3640
12.2737 8.4404 -2.5560
25.3501 28.2862 -6.4342
13.8192 25.7203 -5.0043
-19.8724 40.1191 -9.6772
-24.5380 29.1636 -8.9020
-27.8332 20.3294 -8.6773
-27.2298 4.0207 -7.8804
-27.7292 -2.7047 -8.3741
-28.0587 -9.9913 -9.2803
10.8337 -12.1545 -4.1281
11.1570 -7.6693 -3.1861
16.0631 -6.0932 -3.7417
48.7799 5.6212 -9.2554
23.1173 8.5101 -4.3919
12.9762 8.6982 -2.6840
25.2962 27.5601 -6.3374
14.2000 25.6921 -5.0254
-19.7206 41.0391 -9.8036
-23.2388 28.3019 -8.5204
-27.2049 4.3557 -7.8663
-27.7037 -2.3610 -8.3392
-28.1518 -9.6371 -9.2576
10.8043 -12.4197 -4.1886
11.1430 -7.8583 -3.2211
15.3705 -6.0418 -3.6109
22.2475 7.8908 -4.2185
12.9408 8.4532 -2.6592
25.2438 26.8554 -6.2447
14.5850 25.6635 -5.0478
-19.6380 42.1508 -9.9739
-22.6404 28.2574 -8.3922
-27.1800 4.6914 -7.8533
-27.6783 -2.0189 -8.3054
-28.2170 -9.2746 -9.2270
10.7834 -12.7017 -4.2547
11.1288 -8.0500 -3.2571
14.7288 -5.9941 -3.4903
22.6447 7.7297 -4.2865
12.9056 8.2130 -2.6354
25.1931 26.1716 -6.1559
15.0140 25.7025 -5.0849
-19.5530 43.3134 -10.1538
-22.0700 28.2328 -8.2737
-27.1550 5.0277 -7.8412
-27.6529 -1.6776 -8.2728
-28.1880 -8.8835 -9.1669
10.7619 -12.9910 -4.3231
11.1143 -8.2446 -3.2941
14.1338 -5.9499 -3.3790
23.0327 7.5577 -4.3534
16.9248 10.4904 -3.4354
25.1437 25.5062 -6.0708
15.4093 25.6731 -5.1100
-21.5722 28.2882 -8.1819
-27.1299 5.3651 -7.8301
-27.6277 -1.3380 -8.2413
-27.9428 -8.4314 -9.0386
10.7399 -13.2873 -4.3938
11.0996 -8.4424 -3.3323
13.5788 -5.9087 -3.2757
22.9308 7.2231 -4.3285
17.2718 10.4232 -3.4857
25.1172 24.8814 -5.9945
15.8087 25.6435 -5.1364
-4.8472 29.7635 -5.9379
-21.1960 28.4975 -8.1367
-27.1049 5.7029 -7.8200
-27.6025 -0.9990 -8.2109
-28.1308 -8.1131 -9.0519
10.7173 -13.5918 -4.4670
11.0847 -8.6430 -3.3715
13.0612 -5.8703 -3.1798
27.9310 8.4345 -5.2665
17.3904 10.2150 -3.4903
11.3257 10.9557 -2.6727
16.1707 25.5457 -5.1505
-20.8961 28.8086 -8.1220
-35.3537 29.9647 -11.4136
-27.0797 6.0423 -7.8108
-27.5775 -0.6615 -8.1816
-28.1026 -7.7336 -8.9969
10.6941 -13.9040 -4.5428
11.0696 -8.8473 -3.4119
12.5759 -5.8343 -3.0905
39.6774 -7.8467 -8.3495
28.0013 8.0933 -5.2750
17.5095 10.0067 -3.4957
10.6440 10.0543 -2.4846
16.5792 25.5154 -5.1795
-20.6816 29.2445 -8.1427
-33.4623 29.0610 -10.8746
-27.0544 6.3822 -7.8026
-27.5524 -0.3244 -8.1534
-28.0747 -7.3569 -8.9433
11.0542 -9.0547 -3.4534
12.1210 -5.8005 -3.0072
36.0454 -7.5770 -7.6324
28.2070 7.7907 -5.3099
16.7858 9.3304 -3.3345
11.3052 10.4273 -2.6111
16.9936 25.4846 -5.2101
-20.5597 29.8233 -8.2028
-32.5879 28.9961 -10.6632
-27.0290 6.7239 -7.7954
-27.5275 0.0114 -8.1262
-28.0470 -6.9840 -8.8913
11.0385 -9.2659 -3.4962
11.6926 -5.7687 -2.9292
33.6831 -7.5012 -7.1777
26.7822 7.0551 -5.0391
17.5354 9.4758 -3.4667
11.8992 10.7166 -2.7202
17.4129 25.4535 -5.2421
-20.5020 30.5161 -8.2929
-31.7396 28.9331 -10.4596
-27.0036 7.0665 -7.7892
-27.5026 0.3471 -8.1001
-28.0195 -6.6136 -8.8407
11.0225 -9.4809 -3.5403
11.3000 -5.7442 -2.8589
30.4337 -7.1603 -6.5277
28.1062 7.0471 -5.2865
17.7483 9.3202 -3.4929
11.9951 10.5473 -2.7149
17.8387 25.4219 -5.2756
-20.4483 31.2387 -8.3894
-30.9182 28.8721 -10.2639
-26.9780 7.4110 -7.7840
-27.4777 0.6822 -8.0751
-27.9922 -6.2467 -8.7916
11.0063 -9.6995 -3.5856
11.2877 -5.9093 -2.8847
13.7658 -3.4129 -2.9724
27.8818 6.6395 -5.2436
17.6410 8.9978 -3.4568
11.2459 9.6539 -2.5209
18.2700 25.3898 -5.3106
-20.3931 31.9831 -8.4901
-30.1201 28.8129 -10.0753
-26.9524 7.7566 -7.7797
-27.4529 1.0163 -8.0511
-27.9651 -5.8820 -8.7439
10.9897 -9.9224 -3.6324
11.2754 -6.0759 -2.9112
13.2795 -3.4611 -2.8871
33.6936 7.6006 -6.3369
17.6786 8.7538 -3.4500
11.9059 9.9773 -2.6440
18.7082 25.3573 -5.3473
14.0075 33.3223 -6.2660
-21.0219 33.8575 -8.8856
-29.3461 28.7554 -9.8938
-26.7196 8.0420 -7.7167
-27.4281 1.3505 -8.0281
-27.7235 -5.4780 -8.6308
10.9729 -10.1493 -3.6805
11.2628 -6.2446 -2.9385
13.2953 -3.6355 -2.9109
33.6847 7.1788 -6.3368
17.6523 8.4808 -3.4316
11.7824 9.6377 -2.5931
19.1524 25.3243 -5.3856
13.9110 32.0225 -6.0425
-20.9613 34.6790 -8.9997
-28.5930 28.6995 -9.7187
-27.4033 1.6839 -8.0061
-27.9116 -5.1609 -8.6527
-4.8753 -3.8927 -1.9965
10.9557 -10.3810 -3.7302
11.2502 -6.4149 -2.9665
13.3124 -3.8116 -2.9356
33.4855 6.7205 -6.3020
17.6264 8.2121 -3.4141
12.3644 9.8710 -2.6975
19.5453 25.2149 -5.4093
13.8207 30.8068 -5.8346
-1.6096 29.6752 -5.6752
-20.8986 35.5297 -9.1193
-28.2326 29.0265 -9.6772
-27.3785 2.0177 -7.9852
-27.6707 -4.7673 -8.5429
10.9382 -10.6170 -3.7814
11.2374 -6.5875 -2.9953
13.3442 -3.9939 -2.9642
33.2324 6.2595 -6.2583
17.6840 7.9843 -3.4136
12.4000 9.6602 -2.6825
20.0021 25.1810 -5.4509
13.7363 29.6699 -5.6413
-20.8337 36.4090 -9.2445
-4.2475 4.4732 -1.4686
-27.3538 2.3509 -7.9652
-27.6517 -4.4162 -8.5031
10.9203 -10.8582 -3.8342
11.2244 -6.7619 -3.0249
13.3779 -4.1788 -2.9941
38.0114 6.6918 -7.1640
17.5945 7.6935 -3.3855
12.8612 9.7764 -2.7596
20.4670 25.1465 -5.4944
13.5293 28.3339 -5.4096
-20.3144 36.5087 -9.1717
-27.2207 29.3654 -9.4968
-27.3290 2.6846 -7.9463
-27.7585 -4.0860 -8.5031
10.9020 -11.1040 -3.8886
11.2113 -6.9387 -3.0554
13.4169 -4.3677 -3.0259
38.6868 6.3373 -7.2984
18.2930 7.7410 -3.5094
12.3426 9.1526 -2.6275
21.0020 25.1870 -5.5563
13.4554 27.3394 -5.2426
-20.6954 38.2630 -9.5126
-26.5245 29.3130 -9.3403
-27.3043 3.0179 -7.9283
-27.8065 -3.7461 -8.4860
10.7833 -11.2512 -3.9086
11.1980 -7.1176 -3.0867
13.4578 -4.5596 -3.0590
43.9699 6.6659 -8.3047
18.2553 7.4705 -3.4926
12.3928 8.9638 -2.6183
21.4842 25.1512 -5.6037
13.5120 26.6496 -5.1339
-20.6221 39.2430 -9.6567
-25.8467 29.2620 -9.1894
-29.1901 20.2593 -9.0101
-27.2794 3.3519 -7.9114
-27.7807 -3.3977 -8.4476
10.9247 -11.6770 -4.0251
11.1845 -7.2990 -3.1189
13.5007 -4.7549 -3.0933
43.5749 6.0766 -8.2412
22.7601 8.9993 -4.3433
12.3324 8.6985 -2.5864
21.9750 25.1147 -5.6530
13.4456 25.7556 -4.9857
-20.2728 39.7241 -9.6772
-25.1847 29.2122 -9.0433
-28.0481 19.9722 -8.7000
-27.2547 3.6857 -7.8954
-27.7549 -3.0505 -8.4102
10.7422 -11.8036 -3.6527
11.1690 -7.5090 -2.8378
12.7751 -4.6949 -2.6341
44.2500 5.5835 -7.3460
22.7156 8.6500 -3.7612
12.9709 8.9119 -2.3370
25.3500 28.2851 -5.5574
13.8073 25.7212 -4.3293
-19.8098 39.8375 -8.5752
-23.9373 28.3537 -7.7924
-27.6604 20.1321 -7.8002
-27.2327 3.9817 -7.2144
-27.5300 -2.7175 -7.6409
-28.0606 -10.0179 -8.5530
10.7224 -12.0708 -3.7097
11.1551 -7.6957 -2.8696
12.8132 -4.8837 -2.6653
22.1914 8.1491 -3.6678
12.9167 8.6501 -2.3119
25.1787 27.4300 -5.4482
14.1886 25.6929 -4.3468
-20.1830 41.8363 -8.9144
-23.3227 28.3081 -7.6698
-27.7076 20.6816 -7.8520
-27.2078 4.3163 -7.1998
-27.6245 -2.3869 -7.6409
-28.0614 -9.6324 -8.5031
10.8014 -12.4590 -3.8035
11.1410 -7.8851 -2.9023
12.8529 -5.0759 -2.6976
23.2940 8.2405 -3.8440
12.8815 8.4061 -2.2910
25.1265 26.7275 -5.3685
14.5742 25.6643 -4.3655
-20.3235 43.4481 -9.1660
-22.7222 28.2635 -7.5511
-27.1829 4.6516 -7.1862
-27.6807 -2.0519 -7.6311
-28.2191 -9.3020 -8.5020
10.7804 -12.7420 -3.8650
11.1267 -8.0773 -2.9360
12.8943 -5.2716 -2.7310
23.0799 7.8566 -3.8035
12.8470 8.1672 -2.2710
25.1927 26.1666 -5.3168
15.0037 25.7033 -4.3969
-22.1392 28.2251 -7.4376
-27.1580 4.9875 -7.1734
-27.6554 -1.7111 -7.5998
-28.1901 -8.9114 -8.4457
10.7588 -13.0320 -3.9285
11.1123 -8.2724 -2.9706
12.9345 -5.4696 -2.7651
22.9717 7.5157 -3.7813
16.8748 10.4479 -2.9658
25.1432 25.5007 -5.2435
15.3992 25.6739 -4.4180
-21.6399 28.2807 -7.3519
-27.1330 5.3243 -7.1616
-27.6302 -1.3716 -7.5695
-27.9449 -8.4591 -8.3265
10.7367 -13.3295 -3.9942
11.0975 -8.4706 -3.0062
12.9764 -5.6715 -2.8004
46.3678 -8.0941 -8.5470
22.8703 7.1821 -3.7611
17.0608 10.2841 -2.9819
25.1231 24.8809 -5.1790
15.7994 25.6442 -4.4402
-21.2421 28.4618 -7.3010
-35.4343 29.2075 -10.2626
-27.1079 5.6620 -7.1505
-27.6051 -1.0331 -7.5402
-28.1329 -8.1416 -8.3378
10.7141 -13.6348 -4.0621
11.0826 -8.6719 -3.0428
12.9934 -5.8653 -2.8312
41.8926 -7.8298 -7.7712
28.2334 8.4981 -4.6396
17.3497 10.1786 -3.0164
11.2919 10.9198 -2.3018
16.1619 25.5464 -4.4518
-20.9321 28.7596 -7.2812
-34.4952 29.1377 -10.0506
-27.0828 6.0007 -7.1404
-27.5800 -0.6957 -7.5119
-28.1047 -7.7621 -8.2860
11.0674 -8.8765 -3.0805
12.5124 -5.8295 -2.7532
38.5499 -7.6828 -7.1977
27.8759 8.0296 -4.5784
17.2429 9.8419 -2.9827
11.4849 10.8450 -2.3158
16.5712 25.5160 -4.4765
-20.6991 29.1681 -7.2900
-33.5872 29.0703 -9.8471
-27.0575 6.3405 -7.1311
-27.5550 -0.3591 -7.4846
-28.0768 -7.3859 -8.2357
11.0520 -9.0845 -3.1193
12.0609 -5.7960 -2.6805
35.6415 -7.5470 -6.6991
28.6788 7.8921 -4.7087
17.3609 9.6371 -2.9888
10.9748 10.1189 -2.1897
16.9859 25.4852 -4.5024
-20.5763 29.7443 -7.3403
-32.7953 29.0822 -9.6772
-27.0322 6.6815 -7.1227
-27.5301 -0.0233 -7.4583
-28.0491 -7.0130 -8.1867
11.0362 -9.2962 -3.1592
11.6360 -5.7645 -2.6124
33.6793 -7.5532 -6.3737
27.1072 7.1134 -4.4501
17.1029 9.2292 -2.9310
11.7542 10.5815 -2.3214
17.4061 25.4540 -4.5296
-20.5091 30.4200 -7.4140
-32.5765 29.5956 -9.6772
-27.0068 7.0239 -7.1152
-27.5052 0.3118 -7.4329
-28.0217 -6.6432 -8.1391
-28.4089 -14.7075 -9.3215
11.0202 -9.5116 -3.2002
11.2983 -5.7668 -2.5629
30.1383 -7.1384 -5.7435
27.9486 6.9793 -4.5885
17.4883 9.1700 -2.9843
11.8889 10.4493 -2.3250
17.8322 25.4223 -4.5582
-20.4557 31.1395 -7.4967
-31.9264 29.7135 -9.5502
-26.9812 7.3677 -7.1085
-27.4804 0.6463 -7.4085
-27.9944 -6.2763 -8.0928
-28.4244 -14.2764 -9.2576
11.0040 -9.7309 -3.2425
11.2860 -5.9321 -2.5872
13.8233 -3.4491 -2.6532
33.2745 7.8893 -5.4643
17.4623 8.8929 -2.9678
10.8954 9.3486 -2.1104
18.2644 25.3902 -4.5881
-20.4006 31.8818 -7.5833
-31.1033 29.6532 -9.3712
-26.9556 7.7130 -7.1028
-27.4555 0.9804 -7.3850
-27.9674 -5.9121 -8.0478
-28.5441 -13.9008 -9.2292
10.9874 -9.9543 -3.2861
11.2736 -6.0992 -2.6121
12.6035 -3.3054 -2.4368
33.3666 7.4923 -5.4819
18.0720 8.9341 -3.0597
12.0787 10.1167 -2.3181
18.7030 25.3577 -4.6195
14.0120 33.3824 -5.4395
-2.3596 29.7288 -5.0402
-20.3437 32.6479 -7.6739
-30.3040 29.5947 -9.1987
-26.7228 7.9981 -7.0434
-27.4308 1.3141 -7.3624
-27.7257 -5.5079 -7.9426
-28.5281 -13.4628 -9.1585
10.9705 -10.1820 -3.3309
11.2611 -6.2681 -2.6377
12.5752 -3.4591 -2.4496
32.8900 6.9746 -5.4070
18.4558 8.8519 -3.1135
12.1732 9.9518 -2.3155
19.1481 25.3246 -4.6523
13.9516 32.1601 -5.2572
-20.2849 33.4394 -7.7688
-28.8477 28.8579 -8.8246
-27.4060 1.6474 -7.3407
-27.9139 -5.1916 -7.9616
-28.4954 -13.0228 -9.0844
-4.8743 -3.8941 -1.8428
10.9532 -10.4141 -3.3772
11.2484 -6.4389 -2.6640
12.5970 -3.6277 -2.4726
33.4160 6.6711 -5.4981
17.7245 8.2430 -2.9801
11.9488 9.5333 -2.2533
19.5454 25.2203 -4.6736
13.8243 30.8554 -5.0614
-20.2241 34.2578 -7.8681
-28.7719 29.4821 -8.8720
-27.3813 1.9806 -7.3200
-27.8874 -4.8350 -7.9203
-28.4083 -12.5644 -8.9949
10.9356 -10.6509 -3.4248
11.2356 -6.6117 -2.6910
12.6133 -3.7963 -2.4952
33.1632 6.2106 -5.4621
17.6336 7.9468 -2.9556
12.5953 9.8060 -2.3555
20.1126 25.3239 -4.7351
13.7395 29.7129 -4.8920
-20.1612 35.1048 -7.9723
-4.2521 4.4631 -1.3221
-27.3565 2.3137 -7.3002
-27.8611 -4.4806 -7.8802
-28.4313 -12.1603 -8.9422
10.9177 -10.8926 -3.4740
11.2226 -6.7865 -2.7188
12.6408 -3.9701 -2.5206
38.9588 6.8164 -6.4244
18.2569 7.9675 -3.0513
12.6765 9.6291 -2.3517
20.5805 25.2891 -4.7727
13.5322 28.3730 -4.6898
-20.0961 35.9821 -8.0814
-26.5515 28.5479 -8.3265
-27.3318 2.6468 -7.2812
-27.6851 -4.1061 -7.7991
-28.3999 -11.7374 -8.8740
10.8994 -11.1394 -3.5246
11.2095 -6.9636 -2.7473
12.6697 -4.1463 -2.5470
38.7694 6.3080 -6.4021
18.2191 7.6940 -3.0368
12.3019 9.1157 -2.2646
21.0007 25.1871 -4.7992
13.4580 27.3740 -4.5436
-20.0285 36.8918 -8.1959
-25.8734 28.4975 -8.1861
-27.3071 2.9800 -7.2632
-27.8089 -3.7780 -7.8035
-28.1602 -11.2364 -8.7429
10.8806 -11.3915 -3.5769
11.1961 -7.1429 -2.7766
12.7034 -4.3262 -2.5750
38.4868 5.7920 -6.3655
21.9787 8.9748 -3.6546
12.2421 8.8476 -2.2369
21.4834 25.1512 -4.8401
13.5144 26.6817 -4.4482
-19.9584 37.8359 -8.3161
-25.2124 28.4484 -8.0505
-27.2823 3.3134 -7.2460
-27.7830 -3.4296 -7.7669
-28.3383 -10.9070 -8.7432
10.8615 -11.6493 -3.6309
11.1826 -7.3246 -2.8068
12.7384 -4.5090 -2.6040
43.9739 6.0827 -7.2859
22.9271 9.0451 -3.8038
12.1838 8.5866 -2.2104
21.9745 25.1147 -4.8827
13.4477 25.7840 -4.3186
-19.8856 38.8165 -8.4423
-24.5676 28.4005 -7.9194
-28.0692 19.9162 -7.8782
-27.2575 3.6472 -7.2298
-27.5439 -3.0590 -7.6719
-28.3080 -10.4992 -8.6804
10.7423 -11.8033 -3.6527
11.1690 -7.5089 -2.8378
12.7750 -4.6947 -2.6341
44.2501 5.5841 -7.3460
22.7157 8.6502 -3.7612
12.9710 8.9122 -2.3370
25.3500 28.2856 -5.5574
13.8069 25.7212 -4.3293
-19.8099 39.8363 -8.5750
-23.9378 28.3538 -7.7925
-27.6594 20.1308 -7.7999
-27.2327 3.9813 -7.2144
-27.5299 -2.7178 -7.6409
-28.0607 -10.0183 -8.5530
10.7224 -12.0705 -3.7096
11.1551 -7.6956 -2.8696
12.8131 -4.8835 -2.6652
22.1920 8.1495 -3.6680
12.9167 8.6504 -2.3119
25.1787 27.4305 -5.4483
14.1882 25.6929 -4.3468
-20.1838 41.8363 -8.9146
-23.3232 28.3081 -7.6699
-27.7078 20.6811 -7.8520
-27.2079 4.3159 -7.1999
-27.6244 -2.3872 -7.6409
-28.0612 -9.6328 -8.5031
10.8014 -12.4587 -3.8035
11.1410 -7.8850 -2.9023
12.8529 -5.0757 -2.6975
23.2946 8.2409 -3.8441
12.8815 8.4064 -2.2910
25.1266 26.7280 -5.3685
14.5737 25.6643 -4.3655
-20.3234 43.4463 -9.1657
-22.7227 28.2635 -7.5512
-27.1830 4.6512 -7.1862
-27.6808 -2.0524 -7.6311
-28.2191 -9.3024 -8.5021
10.7804 -12.7416 -3.8649
11.1268 -8.0772 -2.9360
12.8943 -5.2714 -2.7310
23.0799 7.8569 -3.8035
12.8470 8.1673 -2.2710
25.1928 26.1677 -5.3169
15.0033 25.7033 -4.3969
-22.1396 28.2251 -7.4377
-27.1580 4.9871 -7.1735
-27.6554 -1.7114 -7.5998
-28.1901 -8.9116 -8.4458
10.7588 -13.0319 -3.9284
11.1123 -8.2721 -2.9706
12.9345 -5.4694 -2.7651
22.9719 7.5163 -3.7814
16.8745 10.4480 -2.9657
25.1433 25.5013 -5.2435
15.3990 25.6739 -4.4180
-21.6407 28.2806 -7.3521
-27.1330 5.3241 -7.1616
-27.6302 -1.3721 -7.5696
-27.9449 -8.4596 -8.3266
10.7368 -13.3291 -3.9941
11.0976 -8.4704 -3.0062
12.9764 -5.6714 -2.8004
46.3677 -8.0931 -8.5469
22.8704 7.1824 -3.7611
17.0597 10.2836 -2.9817
25.1223 24.8810 -5.1789
15.7989 25.6442 -4.4402
-21.2425 28.4616 -7.3010
-35.4348 29.2075 -10.2627
-27.1079 5.6615 -7.1505
-27.6051 -1.0335 -7.5403
-28.1329 -8.1418 -8.3378
10.7141 -13.6346 -4.0621
11.0826 -8.6715 -3.0428
12.9941 -5.8653 -2.8313
41.8927 -7.8292 -7.7711
28.2332 8.4987 -4.6396
17.3495 10.1788 -3.0164
11.2917 10.9199 -2.3018
16.1616 25.5464 -4.4518
-20.9326 28.7590 -7.2812
-34.4966 29.1378 -10.0509
-27.0828 6.0005 -7.1404
-27.5801 -0.6962 -7.5120
-28.1048 -7.7626 -8.2861
11.0674 -8.8763 -3.0805
12.5127 -5.8296 -2.7533
38.5567 -7.6833 -7.1989
27.8759 8.0300 -4.5784
17.2428 9.8420 -2.9827
11.4845 10.8451 -2.3158
16.5706 25.5160 -4.4764
-20.6993 29.1677 -7.2900
-33.5879 29.0704 -9.8473
-27.0576 6.3400 -7.1311
-27.5550 -0.3594 -7.4847
-28.0768 -7.3862 -8.2357
11.0520 -9.0842 -3.1192
12.0615 -5.7961 -2.6806
35.6450 -7.5473 -6.6997
28.6783 7.8927 -4.7086
17.3607 9.6373 -2.9888
10.9743 10.1187 -2.1897
16.9856 25.4852 -4.5024
-20.5765 29.7433 -7.3402
-32.7956 29.0815 -9.6772
-27.0322 6.6813 -7.1227
-27.5301 -0.0239 -7.4583
-28.0492 -7.0135 -8.1868
11.0363 -9.2960 -3.1591
11.6363 -5.7645 -2.6125
33.6793 -7.5524 -6.3736
27.1083 7.1140 -4.4502
17.1025 9.2292 -2.9310
11.7532 10.5810 -2.3213
17.4055 25.4540 -4.5296
-20.5092 30.4193 -7.4139
-32.5766 29.5952 -9.6772
-27.0068 7.0234 -7.1152
-27.5052 0.3114 -7.4329
-28.0217 -6.6434 -8.1391
-28.4089 -14.7077 -9.3215
11.0203 -9.5115 -3.2002
11.2983 -5.7666 -2.5629
30.1407 -7.1386 -5.7439
27.9486 6.9794 -4.5885
17.4883 9.1704 -2.9843
11.8888 10.4495 -2.3250
17.8319 25.4224 -4.5581
-20.4557 31.1392 -7.4967
-31.9276 29.7136 -9.5505
-26.9813 7.3674 -7.1086
-27.4804 0.6462 -7.4085
-27.9945 -6.2768 -8.0929
-28.4242 -14.2767 -9.2576
11.0040 -9.7306 -3.2425
11.2861 -5.9320 -2.5872
13.8236 -3.4491 -2.6533
33.2750 7.8899 -5.4643
17.4623 8.8931 -2.9678
10.8952 9.3485 -2.1104
18.2638 25.3903 -4.5881
-20.4007 31.8807 -7.5832
-31.1039 29.6533 -9.3713
-26.9556 7.7125 -7.1028
-27.4556 0.9800 -7.3850
-27.9674 -5.9124 -8.0479
-28.5435 -13.9008 -9.2290
10.9874 -9.9542 -3.2861
11.2737 -6.0989 -2.6121
12.6047 -3.3054 -2.4370
33.3666 7.4925 -5.4819
18.0725 8.9347 -3.0598
12.0786 10.1170 -2.3181
18.7027 25.3577 -4.6195
14.0120 33.3832 -5.4396
-2.3601 29.7286 -5.0402
-20.3437 32.6473 -7.6739
-30.3051 29.5947 -9.1990
-26.7228 7.9978 -7.0434
-27.4308 1.3138 -7.3624
-27.7258 -5.5084 -7.9426
-28.5281 -13.4635 -9.1586
10.9705 -10.1817 -3.3309
11.2611 -6.2679 -2.6377
12.5752 -3.4590 -2.4496
32.8914 6.9755 -5.4073
18.4559 8.8522 -3.1135
12.1732 9.9519 -2.3155
19.1475 25.3247 -4.6523
13.9509 32.1602 -5.2572
-20.2850 33.4383 -7.7687
-28.8477 28.8574 -8.8245
-27.4061 1.6470 -7.3408
-27.9139 -5.1918 -7.9616
-28.4954 -13.0231 -9.0845
-4.8743 -3.8943 -1.8428
10.9532 -10.4140 -3.3771
11.2484 -6.4386 -2.6639
12.5970 -3.6275 -2.4726
33.4162 6.6714 -5.4981
17.7246 8.2435 -2.9802
11.9480 9.5330 -2.2531
19.5454 25.2208 -4.6736
13.8244 30.8562 -5.0615
-20.2242 34.2572 -7.8681
-28.7729 29.4822 -8.8723
-27.3813 1.9804 -7.3200
-27.8874 -4.8355 -7.9204
-28.4071 -12.5645 -8.9947
10.9357 -10.6506 -3.4248
11.2356 -6.6115 -2.6910
12.6133 -3.7962 -2.4952
33.1635 6.2112 -5.4621
17.6337 7.9470 -2.9557
12.5950 9.8060 -2.3554
20.1119 25.3239 -4.7350
13.7396 29.7145 -4.8923
-20.1613 35.1036 -7.9721
-4.2522 4.4631 -1.3221
-27.3566 2.3132 -7.3002
-27.8611 -4.4808 -7.8803
-28.4314 -12.1606 -8.9423
10.9177 -10.8925 -3.4739
11.2226 -6.7863 -2.7187
12.6408 -3.9698 -2.5206
38.9588 6.8167 -6.4244
18.2569 7.9679 -3.0513
12.6760 9.6291 -2.3517
20.5802 25.2892 -4.7726
13.5322 28.3738 -4.6899
-20.0961 35.9815 -8.0813
-26.5525 28.5479 -8.3267
-27.3318 2.6466 -7.2812
-27.6829 -4.1062 -7.7985
-28.4000 -11.7380 -8.8741
10.8994 -11.1391 -3.5246
11.2095 -6.9635 -2.7473
12.6697 -4.1462 -2.5470
38.7698 6.3087 -6.4022
18.2191 7.6942 -3.0369
12.3019 9.1159 -2.2646
21.0000 25.1871 -4.7991
13.6619 27.7900 -4.6126
-20.0286 36.8905 -8.1957
-25.8739 28.4975 -8.1862
-27.3071 2.9795 -7.2632
-27.8089 -3.7782 -7.8036
-28.1597 -11.2365 -8.7428
10.8807 -11.3914 -3.5769
11.1962 -7.1427 -2.7766
12.7033 -4.3260 -2.5750
38.4869 5.7923 -6.3656
21.9775 8.9748 -3.6544
12.2422 8.8480 -2.2369
21.4830 25.1512 -4.8400
13.5144 26.6824 -4.4483
-19.9585 37.8352 -8.3160
-25.2133 28.4485 -8.0507
-27.2823 3.3132 -7.2460
-27.7831 -3.4301 -7.7669
-28.3383 -10.9076 -8.7433
10.8615 -11.6489 -3.6308
11.1827 -7.3245 -2.8067
12.7384 -4.5088 -2.6040
43.9740 6.0834 -7.2859
22.9273 9.0453 -3.8039
12.1839 8.5868 -2.2104
21.9745 25.1147 -4.8827
13.4478 25.7853 -4.3188
-19.8857 38.8151 -8.4422
-24.5680 28.4006 -7.9195
-28.0693 19.9159 -7.8782
-27.2576 3.6467 -7.2298
-27.5439 -3.0595 -7.6719
-28.3080 -10.4994 -8.6804
10.8392 -11.9502 -3.3130
11.1670 -7.5347 -2.5259
12.0905 -4.4647 -2.1952
43.8141 5.4797 -6.2560
22.1434 8.4126 -3.1213
12.8953 8.8523 -1.9639
25.3500 28.2845 -4.6863
13.7951 25.7221 -3.6590
-19.8198 39.7032 -7.5231
-24.7152 29.1769 -7.1372
-28.2255 20.4712 -7.1301
-25.1376 10.2187 -6.0248
-25.6210 3.7090 -6.1676
-27.6537 -2.7620 -7.0073
-28.2800 -10.1223 -7.8952
-28.7413 -19.1840 -9.3186
10.8191 -12.2207 -3.3662
11.1531 -7.7218 -2.5555
12.1191 -4.6409 -2.2211
22.8386 8.3663 -3.2150
12.8576 8.6027 -1.9457
25.1797 27.4294 -4.5945
14.1769 25.6938 -3.6730
-19.7413 40.7601 -7.6409
-24.0802 29.1291 -7.0210
-25.1120 10.5639 -6.0256
-25.5976 4.0234 -6.1535
-25.8529 -2.2643 -6.5273
-28.2504 -9.7238 -7.8398
-28.8103 -18.7239 -9.2576
10.7985 -12.4978 -3.4211
11.1391 -7.9116 -2.5860
12.1490 -4.8200 -2.2478
22.8145 8.0502 -3.2080
12.8231 8.3600 -1.9288
25.3142 26.9244 -4.5609
14.5630 25.6651 -3.6879
-19.6595 41.8614 -7.7649
-23.4597 29.0824 -6.9085
-27.3778 20.8808 -6.9794
-24.9400 10.8482 -5.9920
-25.5742 4.3384 -6.1402
-25.8292 -1.9454 -6.4984
-28.2211 -9.3295 -7.7858
-28.8853 -18.2733 -9.2005
10.7774 -12.7816 -3.4778
11.1247 -8.1043 -2.6173
12.1801 -5.0020 -2.2755
23.3079 7.9129 -3.2745
16.5510 10.5113 -2.4751
25.1924 26.1627 -4.4835
14.9085 25.5592 -3.6928
-19.5742 43.0104 -7.8957
-22.8532 29.0368 -6.7996
-25.5508 4.6541 -6.1275
-25.8057 -1.6277 -6.4704
-27.9754 -8.8704 -7.6738
-28.8470 -17.7580 -9.1094
10.7558 -13.0726 -3.5365
11.1102 -8.2998 -2.6495
12.2125 -5.1871 -2.3042
22.9113 7.4747 -3.2166
16.8251 10.4060 -2.5023
25.1429 25.4959 -4.4218
15.3023 25.5300 -3.7097
-22.2599 28.9922 -6.6941
-25.5273 4.9706 -6.1156
-25.8711 -1.3157 -6.4655
-27.9469 -8.4870 -7.6231
-28.8094 -17.2519 -9.0210
10.7337 -13.3710 -3.5972
11.0955 -8.4984 -2.6826
12.2462 -5.3756 -2.3338
48.1528 -8.4761 -7.7474
23.5383 7.3697 -3.3031
15.9736 9.6180 -2.3632
25.1282 24.8806 -4.3686
15.7008 25.5004 -3.7277
-21.7452 29.0365 -6.6120
-25.5037 5.2879 -6.1044
-25.9536 -1.0032 -6.4655
-28.1350 -8.1699 -7.6323
-28.5513 -16.6256 -8.8663
10.7109 -13.6774 -3.6600
11.0805 -8.7002 -2.7166
12.2814 -5.5675 -2.3645
44.5862 -8.3992 -7.2235
23.4954 7.0496 -3.2962
17.2039 10.0811 -2.5325
25.6915 24.8387 -4.4169
16.1528 25.5470 -3.7580
-21.4491 29.3689 -6.5970
-35.6183 29.9841 -9.2709
-25.4801 5.6061 -6.0939
-25.7354 -0.6811 -6.3915
-28.1069 -7.7907 -7.5838
-28.7362 -16.2653 -8.8515
11.0653 -8.9053 -2.7516
12.3181 -5.7631 -2.3962
38.7276 -7.7762 -6.3190
28.0024 8.0391 -3.9283
17.3249 9.8764 -2.5384
11.4506 10.8094 -1.9475
16.5627 25.5166 -3.7782
-3.0054 21.3081 -3.2111
-21.3161 29.9342 -6.6341
-34.2253 29.5223 -8.9597
-25.4564 5.9254 -6.0842
-25.9239 -0.3704 -6.4194
-28.0790 -7.4149 -7.5366
-28.7004 -15.7842 -8.7703
11.0498 -9.1138 -2.7875
12.0023 -5.7917 -2.3595
35.2529 -7.5182 -5.7939
27.2832 7.4815 -3.8281
17.4462 9.6718 -2.5448
10.8317 9.9836 -1.8230
16.9779 25.4858 -3.7995
-21.2602 30.6263 -6.6983
-33.7740 29.8489 -8.8945
-25.4326 6.2458 -6.0752
-25.9005 -0.0548 -6.3953
-28.0513 -7.0423 -7.4907
-28.5460 -15.2470 -8.6552
11.0340 -9.3260 -2.8246
11.5807 -5.7604 -2.3011
33.6755 -7.6040 -5.5759
28.4346 7.4336 -3.9911
17.4626 9.4104 -2.5365
11.6537 10.4871 -1.9417
17.3988 25.4545 -3.8220
-21.2071 31.3457 -6.7669
-31.9741 28.9505 -8.4730
-25.4087 6.5674 -6.0669
-25.8771 0.2601 -6.3721
-28.0238 -6.6727 -7.4460
-28.4106 -14.7305 -8.5484
11.0180 -9.5419 -2.8627
11.2967 -5.7890 -2.2692
14.6076 -3.4826 -2.4371
28.2366 7.0231 -3.9656
17.5543 9.1915 -2.5398
12.0069 10.5486 -1.9811
17.8255 25.4228 -3.8456
-21.1525 32.0871 -6.8387
-31.1450 28.8890 -8.3068
-25.1773 6.8341 -6.0099
-25.8537 0.5745 -6.3497
-27.9966 -6.3060 -7.4025
-28.4734 -14.3235 -8.5031
11.0017 -9.7618 -2.9019
11.2844 -5.9546 -2.2919
13.7003 -3.4400 -2.3034
28.1207 6.6390 -3.9524
17.7787 9.0405 -2.5628
11.8797 10.1885 -1.9417
18.2583 25.3907 -3.8705
-21.0960 32.8522 -6.9138
-30.3407 28.8292 -8.1467
-25.3607 7.2148 -6.0525
-25.8304 0.8886 -6.3280
-27.9696 -5.9422 -7.3601
-28.5031 -13.9038 -8.4495
10.9850 -9.9859 -2.9423
11.2719 -6.1220 -2.3152
12.7782 -3.3715 -2.1654
33.1828 7.4171 -4.6685
18.4441 9.1037 -2.6496
11.2743 9.4382 -1.8260
18.6975 25.3581 -3.8966
14.0165 33.4431 -4.6160
-2.3948 29.7204 -4.3520
-21.0378 33.6416 -6.9926
-29.5598 28.7713 -7.9925
-25.3364 7.5408 -6.0465
-25.8071 1.2021 -6.3072
-27.7280 -5.5380 -7.2626
-28.5299 -13.4871 -8.3966
10.9681 -10.2141 -2.9838
11.2594 -6.2912 -2.3392
11.9214 -3.2985 -2.0366
32.4809 6.8543 -4.5751
17.6084 8.4316 -2.5214
12.0681 9.8605 -1.9375
19.1433 25.3250 -3.9239
13.9325 32.1616 -4.4520
-20.9777 34.4572 -7.0750
-28.8011 28.7149 -7.8439
-25.3121 7.8685 -6.0411
-25.5732 1.5030 -6.2357
-27.9161 -5.2222 -7.2788
-28.4972 -13.0474 -8.3278
-4.8734 -3.8957 -1.6911
10.9508 -10.4469 -3.0267
11.2467 -6.4624 -2.3637
11.9424 -3.4587 -2.0570
33.2942 6.6120 -4.6961
17.5499 8.1477 -2.5056
12.3516 9.8490 -1.9664
19.5458 25.2266 -3.9425
13.8280 30.9047 -4.2915
-2.1618 38.2053 -5.5374
-20.9155 35.3005 -7.1615
-28.0634 28.6601 -7.7005
-25.0810 8.1309 -5.9872
-25.7606 1.8285 -6.2678
-27.8897 -4.8658 -7.2398
-28.3617 -12.5679 -8.2309
10.9332 -10.6843 -3.0708
11.2338 -6.6355 -2.3890
11.9644 -3.6208 -2.0781
38.5941 7.1869 -5.4522
18.2213 8.1967 -2.5944
12.2727 9.5489 -1.9380
20.1091 25.3242 -3.9933
13.7428 29.7574 -4.1462
-20.8511 36.1733 -7.2521
-4.2576 4.4539 -1.1774
-25.2630 8.5293 -6.0327
-25.7374 2.1416 -6.2492
-27.8634 -4.5117 -7.2019
-28.4332 -12.1856 -8.1958
10.9152 -10.9267 -3.1163
11.2208 -6.8107 -2.4149
11.9854 -3.7843 -2.0996
38.8230 6.7512 -5.4941
18.1834 7.9203 -2.5826
12.2117 9.2699 -1.9133
20.5778 25.2894 -4.0248
13.5351 28.4128 -3.9732
-20.4724 36.5204 -7.2369
-26.6470 28.5550 -7.4285
-25.2383 8.8626 -6.0296
-25.7141 2.4546 -6.2314
-27.6233 -4.1277 -7.1100
-28.4018 -11.7630 -8.1324
10.8968 -11.1742 -3.1632
11.2076 -6.9881 -2.4415
12.0088 -3.9504 -2.1221
38.6912 6.2535 -5.4862
18.1458 7.6477 -2.5715
12.1526 8.9986 -1.8897
20.9987 25.1872 -4.0471
13.6645 27.8249 -3.9062
-20.2430 37.1476 -7.2772
-25.9664 28.5044 -7.2994
-28.1699 18.9156 -7.0294
-25.2134 9.1980 -6.0272
-25.6909 2.7677 -6.2144
-27.8113 -3.8097 -7.1292
-28.1527 -11.2584 -8.0087
10.8780 -11.4270 -3.2115
11.1943 -7.1678 -2.4689
12.0337 -4.1189 -2.1455
38.4090 5.7384 -5.4578
22.7497 9.2702 -3.2175
12.7349 9.1968 -1.9660
21.4821 25.1513 -4.0815
13.5168 26.7144 -3.7659
-19.9678 37.7105 -7.3046
-25.6644 28.8616 -7.2772
-27.7673 19.1347 -6.9560
-24.9880 9.4598 -5.9777
-25.6676 3.0810 -6.1980
-27.7854 -3.4616 -7.0944
-28.3402 -10.9333 -8.0107
10.8588 -11.6855 -3.2614
11.1808 -7.3499 -2.4970
12.0625 -4.2907 -2.1701
44.2652 6.0741 -6.3046
22.4905 8.8533 -3.1751
12.9404 9.1124 -1.9839
21.9741 25.1148 -4.1174
13.4499 25.8135 -3.6549
-19.8953 38.6869 -7.4110
-25.3665 29.2259 -7.2575
-25.1630 9.8760 -6.0248
-25.6443 3.3946 -6.1825
-27.7597 -3.1150 -7.0606
-28.3100 -10.5257 -7.9522
10.8392 -11.9499 -3.3129
11.1671 -7.5346 -2.5258
12.0905 -4.4645 -2.1952
43.8144 5.4803 -6.2561
22.1440 8.4130 -3.1214
12.8954 8.8526 -1.9639
25.3500 28.2850 -4.6864
13.7947 25.7222 -3.6590
-19.8199 39.7021 -7.5229
-24.7157 29.1769 -7.1373
-28.2254 20.4706 -7.1300
-25.1376 10.2185 -6.0248
-25.6210 3.7086 -6.1676
-27.6523 -2.7621 -7.0070
-28.2800 -10.1228 -7.8953
-28.7413 -19.1845 -9.3187
10.8191 -12.2204 -3.3661
11.1532 -7.7217 -2.5555
12.1191 -4.6407 -2.2211
22.8386 8.3666 -3.2150
12.8577 8.6030 -1.9458
25.1792 27.4295 -4.5944
14.1765 25.6938 -3.6729
-19.7414 40.7588 -7.6407
-24.0806 29.1292 -7.0211
-25.1120 10.5636 -6.0256
-25.5977 4.0231 -6.1535
-25.8529 -2.2645 -6.5273
-28.2504 -9.7242 -7.8398
-28.8101 -18.7242 -9.2576
10.7985 -12.4974 -3.4210
11.1391 -7.9115 -2.5860
12.1489 -4.8198 -2.2478
22.8145 8.0504 -3.2080
12.8231 8.3603 -1.9288
25.3142 26.9250 -4.5609
14.5625 25.6651 -3.6879
-19.6596 41.8601 -7.7648
-23.4602 29.0825 -6.9086
-27.3773 20.8799 -6.9793
-24.9408 10.8482 -5.9922
-25.5743 4.3381 -6.1402
-25.8293 -1.9459 -6.4985
-28.2212 -9.3299 -7.7859
-28.8853 -18.2737 -9.2006
10.7774 -12.7813 -3.4778
11.1248 -8.1041 -2.6173
12.1800 -5.0019 -2.2755
23.3086 7.9134 -3.2746
16.5509 10.5114 -2.4751
25.1925 26.1638 -4.4836
14.9081 25.5593 -3.6928
-19.5743 43.0090 -7.8955
-22.8537 29.0368 -6.7997
-25.5508 4.6537 -6.1275
-25.8057 -1.6280 -6.4705
-27.9754 -8.8706 -7.6739
-28.8471 -17.7588 -9.1096
10.7558 -13.0724 -3.5365
11.1103 -8.2995 -2.6494
12.2124 -5.1869 -2.3041
22.9115 7.4752 -3.2166
16.8247 10.4061 -2.5022
25.1429 25.4964 -4.4218
15.3021 25.5300 -3.7097
-22.2609 28.9922 -6.6943
-25.5273 4.9704 -6.1156
-25.8710 -1.3162 -6.4655
-27.9470 -8.4875 -7.6231
-28.8095 -17.2524 -9.0211
10.7337 -13.3706 -3.5971
11.0955 -8.4982 -2.6825
12.2462 -5.3755 -2.3338
48.1621 -8.4768 -7.7489
23.5383 7.3700 -3.3031
15.9729 9.6177 -2.3631
25.1273 24.8806 -4.3685
15.7003 25.5004 -3.7277
-21.7455 29.0362 -6.6120
-25.5038 5.2874 -6.1044
-25.9535 -1.0035 -6.4655
-28.1351 -8.1702 -7.6324
-28.5514 -16.6264 -8.8665
10.7109 -13.6771 -3.6599
11.0805 -8.6998 -2.7165
12.2814 -5.5672 -2.3644
44.5862 -8.3986 -7.2235
23.4955 7.0502 -3.2962
17.2037 10.0814 -2.5325
25.6910 24.8388 -4.4169
16.1525 25.5471 -3.7580
-21.4495 29.3682 -6.5969
-35.6197 29.9842 -9.2712
-25.4801 5.6059 -6.0939
-25.7354 -0.6816 -6.3916
-28.1069 -7.7913 -7.5839
-28.7362 -16.2658 -8.8516
11.0653 -8.9051 -2.7515
12.3180 -5.7629 -2.3962
38.7342 -7.7767 -6.3200
28.0025 8.0395 -3.9284
17.3248 9.8766 -2.5383
11.4503 10.8095 -1.9474
16.5621 25.5167 -3.7781
-3.0058 21.3074 -3.2110
-21.3162 29.9335 -6.6341
-34.2254 29.5218 -8.9597
-25.4564 5.9249 -6.0842
-25.9239 -0.3707 -6.4194
-28.0790 -7.4151 -7.5367
-28.7005 -15.7850 -8.7705
11.0498 -9.1135 -2.7875
12.0029 -5.7917 -2.3596
35.2562 -7.5184 -5.7944
27.2845 7.4824 -3.8283
17.4460 9.6721 -2.5448
10.8312 9.9834 -1.8230
16.9776 25.4858 -3.7995
-21.2603 30.6251 -6.6982
-33.7752 29.8490 -8.8948
-25.4326 6.2455 -6.0752
-25.9005 -0.0554 -6.3954
-28.0513 -7.0428 -7.4908
-28.5452 -15.2471 -8.6550
11.0340 -9.3258 -2.8245
11.5810 -5.7604 -2.3011
33.6756 -7.6033 -5.5758
28.4346 7.4340 -3.9911
17.4625 9.4106 -2.5365
11.6470 10.4815 -1.9406
17.3982 25.4546 -3.8219
-21.2072 31.3449 -6.7668
-31.9747 28.9506 -8.4732
-25.4088 6.5669 -6.0669
-25.8771 0.2598 -6.3721
-28.0239 -6.6729 -7.4460
-28.4106 -14.7307 -8.5484
11.0180 -9.5419 -2.8626
11.2967 -5.7888 -2.2692
14.6077 -3.4824 -2.4371
28.2367 7.0232 -3.9656
17.5545 9.1919 -2.5398
12.0067 10.5487 -1.9811
17.8252 25.4229 -3.8456
-21.1525 32.0868 -6.8386
-31.1462 28.8890 -8.3070
-25.1773 6.8339 -6.0099
-25.8537 0.5744 -6.3497
-27.9967 -6.3065 -7.4025
-28.4732 -14.3239 -8.5031
11.0017 -9.7616 -2.9018
11.2844 -5.9545 -2.2919
13.7007 -3.4400 -2.3035
28.1208 6.6394 -3.9524
17.7789 9.0408 -2.5628
11.8797 10.1886 -1.9417
18.2577 25.3907 -3.8704
-21.0961 32.8510 -6.9137
-30.3413 28.8293 -8.1469
-25.3607 7.2144 -6.0526
-25.8305 0.8881 -6.3281
-27.9696 -5.9424 -7.3601
-28.5026 -13.9038 -8.4494
10.9850 -9.9857 -2.9422
11.2720 -6.1218 -2.3152
12.7794 -3.3716 -2.1656
33.1828 7.4174 -4.6685
18.4442 9.1041 -2.6496
11.2731 9.4376 -1.8259
18.6972 25.3581 -3.8965
14.0165 33.4441 -4.6161
-2.3953 29.7202 -4.3520
-21.0379 33.6410 -6.9925
-29.5609 28.7713 -7.9927
-25.3365 7.5406 -6.0465
-25.8072 1.2019 -6.3072
-27.7280 -5.5385 -7.2627
-28.5299 -13.4877 -8.3967
10.9681 -10.2138 -2.9838
11.2594 -6.2911 -2.3391
11.9214 -3.2984 -2.0366
32.4838 6.8555 -4.5755
17.6085 8.4318 -2.5214
12.0680 9.8606 -1.9375
19.1427 25.3250 -3.9239
13.9319 32.1616 -4.4520
-20.9778 34.4560 -7.0749
-28.8016 28.7149 -7.8440
-25.3121 7.8680 -6.0411
-25.5732 1.5026 -6.2358
-27.9162 -5.2225 -7.2788
-28.4972 -13.0477 -8.3279
-4.8733 -3.8958 -1.6911
10.9508 -10.4467 -3.0266
11.2467 -6.4621 -2.3637
11.9424 -3.4585 -2.0570
33.2943 6.6123 -4.6961
17.5500 8.1481 -2.5057
12.3513 9.8490 -1.9663
19.5459 25.2271 -3.9426
13.8280 30.9055 -4.2916
-2.1624 38.2058 -5.5375
-20.9155 35.2999 -7.1614
-28.0644 28.6602 -7.7007
-25.0810 8.1307 -5.9872
-25.7606 1.8283 -6.2678
-27.8897 -4.8663 -7.2399
-28.3605 -12.5680 -8.2307
10.9332 -10.6840 -3.0707
11.2338 -6.6354 -2.3890
11.9644 -3.6207 -2.0781
38.5939 7.1875 -5.4521
18.2213 8.1969 -2.5944
12.2728 9.5491 -1.9380
20.1084 25.3242 -3.9932
13.7429 29.7590 -4.1464
-20.8512 36.1720 -7.2520
-4.2576 4.4539 -1.1774
-25.2631 8.5288 -6.0327
-25.7374 2.1411 -6.2492
-27.8634 -4.5120 -7.2019
-28.4332 -12.1859 -8.1959
10.9152 -10.9265 -3.1162
11.2208 -6.8105 -2.4149
11.9853 -3.7841 -2.0996
38.8230 6.7515 -5.4941
18.1835 7.9207 -2.5826
12.2118 9.2703 -1.9133
20.5774 25.2894 -4.0248
13.5352 28.4135 -3.9734
-20.4728 36.5204 -7.2369
-26.6481 28.5550 -7.4287
-25.2383 8.8623 -6.0296
-25.7142 2.4544 -6.2314
-27.6233 -4.1282 -7.1100
-28.4019 -11.7636 -8.1325
10.8968 -11.1738 -3.1631
11.2076 -6.9880 -2.4415
12.0088 -3.9503 -2.1221
38.6916 6.2543 -5.4862
18.1458 7.6479 -2.5715
12.1526 8.9988 -1.8897
20.9980 25.1873 -4.0470
13.6646 27.8263 -3.9064
-20.2435 37.1470 -7.2772
-25.9669 28.5045 -7.2995
-28.1701 18.9154 -7.0295
-25.2134 9.1975 -6.0272
-25.6909 2.7673 -6.2144
-27.8113 -3.8100 -7.1292
-28.1528 -11.2587 -8.0087
10.8780 -11.4269 -3.2115
11.1943 -7.1676 -2.4688
12.0337 -4.1186 -2.1454
38.4092 5.7388 -5.4578
22.7494 9.2705 -3.2174
12.7348 9.1970 -1.9660
21.4818 25.1513 -4.0814
13.5169 26.7150 -3.7660
-19.9678 37.7098 -7.3045
-25.6647 28.8610 -7.2772
-27.7678 19.1344 -6.9561
-24.9887 9.4599 -5.9779
-25.6676 3.0808 -6.1981
-27.7854 -3.4621 -7.0945
-28.3403 -10.9339 -8.0108
10.8588 -11.6851 -3.2614
11.1808 -7.3498 -2.4969
12.0625 -4.2906 -2.1701
44.2650 6.0749 -6.3045
22.4900 8.8533 -3.1751
12.9404 9.1126 -1.9839
21.9741 25.1148 -4.1174
13.4500 25.8147 -3.6551
-19.8954 38.6854 -7.4109
-25.3670 29.2259 -7.2576
-25.1631 9.8757 -6.0248
-25.6444 3.3942 -6.1825
-27.7597 -3.1155 -7.0606
-28.3100 -10.5260 -7.9522
10.8364 -11.9870 -2.9416
11.1651 -7.5602 -2.2160
11.4866 -4.2618 -1.8045
43.7272 5.4204 -5.2348
22.5774 8.5577 -2.6302
12.7085 8.7166 -1.5834
25.3499 28.2839 -3.8202
13.7830 25.7230 -2.9927
-20.4979 40.9042 -6.7029
-24.1090 28.3665 -6.0868
-27.8994 20.1642 -6.2372
-25.1409 10.1739 -5.3854
-25.6237 3.6727 -5.5553
-26.0921 -2.6361 -5.9885
-28.2820 -10.1489 -7.1792
-28.7815 -19.2288 -8.5031
10.8163 -12.2583 -2.9905
11.1512 -7.7477 -2.2435
11.5083 -4.4275 -1.8263
48.2722 5.3989 -5.7990
22.9915 8.4020 -2.6766
12.6993 8.4891 -1.5728
25.1784 27.4265 -3.7451
14.1653 25.6946 -3.0031
-20.4166 41.9907 -6.8023
-23.4901 28.3205 -5.9838
-27.8712 20.6594 -6.2554
-25.1153 10.5185 -5.3838
-25.6004 3.9868 -5.5407
-26.0682 -2.3135 -5.9599
-28.2524 -9.7507 -7.1277
-28.9257 -18.8174 -8.4689
10.7956 -12.5362 -3.0409
11.1371 -7.9380 -2.2717
11.5310 -4.5956 -1.8487
48.9750 4.8855 -5.9050
22.9393 8.0736 -2.6693
36.8620 24.0092 -4.5394
25.1261 26.7218 -3.6903
14.5519 25.6659 -3.0144
-20.3320 43.1227 -6.9071
-22.8854 28.2756 -5.8841
-27.3570 20.7932 -6.1653
-25.0712 10.8579 -5.3788
-25.5770 4.3015 -5.5268
-26.0347 -1.9915 -5.9299
-28.2231 -9.3567 -7.0776
-28.8867 -18.2932 -8.3829
10.7745 -12.8210 -3.0930
11.1228 -8.1310 -2.3006
11.5546 -4.7663 -1.8719
22.8751 7.7451 -2.6612
37.8400 24.0075 -4.6348
25.1921 26.1588 -3.6550
14.9428 25.6369 -3.0265
-22.2943 28.2317 -5.7875
-27.7671 21.6373 -6.2848
-25.5536 4.6168 -5.5136
-26.0206 -1.6723 -5.9051
-28.1942 -8.9666 -7.0287
-28.8485 -17.7784 -8.2993
10.7528 -13.1129 -3.1469
11.1082 -8.3270 -2.3304
11.5791 -4.9396 -1.8959
22.8119 7.4212 -2.6538
16.7757 10.3645 -2.0443
25.1425 25.4910 -3.6049
15.3382 25.6075 -3.0395
-21.7754 28.2656 -5.7094
-25.5301 4.9329 -5.5009
-25.9969 -1.3534 -5.8788
-26.2793 -8.0059 -6.5135
-28.8110 -17.2727 -8.2181
10.7306 -13.4123 -3.2026
11.0934 -8.5260 -2.3610
11.6047 -5.1158 -1.9206
47.4747 -8.4257 -6.5330
23.4492 7.3199 -2.7285
17.0534 10.2566 -2.0681
25.1332 24.8802 -3.5625
15.3249 24.9057 -2.9731
-21.3447 28.4053 -5.6547
-35.7007 29.2273 -8.1554
-25.5066 5.2498 -5.4889
-25.9733 -1.0355 -5.8533
-26.2528 -7.6490 -6.4702
-28.5529 -16.6467 -8.0765
10.7078 -13.7196 -3.2602
11.0784 -8.7283 -2.3924
11.6313 -5.2950 -1.9461
42.3929 -8.0484 -5.8789
27.9709 8.3660 -3.2561
17.3749 10.1694 -2.0976
25.6976 24.8383 -3.6024
15.0512 23.8187 -2.8606
-21.0120 28.6727 -5.6266
-34.7528 29.1569 -7.9782
-25.2747 5.5222 -5.4328
-25.7377 -0.7128 -5.7809
-26.3797 -7.3380 -6.4655
-28.7378 -16.2870 -8.0623
11.0631 -8.9339 -2.4247
11.6589 -5.4773 -1.9724
38.2774 -7.7428 -5.3502
28.1028 8.0410 -3.2736
17.1815 9.7826 -2.0655
26.2741 24.7955 -3.6441
15.0206 23.1533 -2.7983
-3.0304 21.2917 -2.7164
-20.7597 29.0532 -5.6212
-33.8365 29.0888 -7.8080
-25.4593 5.8865 -5.4668
-25.7144 -0.3993 -5.7571
-26.4164 -7.0022 -6.4395
-28.7021 -15.8063 -7.9876
11.0476 -9.1429 -2.4579
11.6877 -5.6629 -1.9997
34.8750 -7.4901 -4.9140
28.1185 7.6833 -3.2783
17.2428 9.5467 -2.0646
11.4687 10.5672 -1.5743
15.3979 23.1253 -2.8135
-20.6094 29.5870 -5.6453
-32.9497 29.0230 -7.6445
-25.4355 6.2065 -5.4567
-25.6912 -0.0866 -5.7340
-26.3904 -6.6520 -6.3991
-28.5106 -15.2496 -7.8717
11.0318 -9.3556 -2.4921
11.5262 -5.7563 -1.9947
33.6718 -7.6545 -4.7835
28.5152 7.4267 -3.3282
17.4225 9.3761 -2.0784
11.1715 10.0494 -1.5183
15.7690 23.0803 -2.8275
-20.5232 30.2300 -5.6893
-32.0908 28.9592 -7.4871
-25.4117 6.5278 -5.4473
-25.6680 0.2255 -5.7116
-26.3646 -6.3046 -6.3597
-28.6324 -14.8675 -7.8442
11.0158 -9.5721 -2.5272
11.2950 -5.8111 -1.9774
14.6212 -3.5084 -2.0946
28.1656 6.9774 -3.2916
17.2084 8.9975 -2.0458
11.8138 10.3747 -1.5903
17.8187 25.4233 -3.1372
-20.4702 30.9442 -5.7454
-31.2582 28.8974 -7.3356
-25.1803 6.7944 -5.3940
-25.7402 0.5390 -5.7111
-26.3390 -5.9599 -6.3213
-28.5983 -14.4088 -7.7754
10.9994 -9.7925 -2.5634
11.2827 -5.9770 -1.9986
13.5804 -3.4311 -1.9621
28.7928 6.7688 -3.3700
17.5490 8.9103 -2.0797
11.9891 10.2777 -1.5991
18.2522 25.3912 -3.1569
-20.4155 31.6810 -5.8043
-30.8209 29.1882 -7.2772
-25.3637 7.1743 -5.4302
-25.6218 0.8482 -5.6689
-26.3136 -5.6179 -6.2839
-28.3451 -13.8494 -7.6491
10.9827 -10.0172 -2.6006
11.2703 -6.1447 -2.0203
12.6725 -3.3637 -1.8469
32.9010 7.3207 -3.8574
17.4897 8.6191 -2.0667
12.1468 10.1636 -1.6058
18.6920 25.3585 -3.1778
14.0210 33.5038 -3.7946
-2.4298 29.7137 -3.6689
-20.3590 32.4413 -5.8660
-30.5236 29.6107 -7.2529
-25.3395 7.4999 -5.4227
-25.8096 1.1684 -5.6951
-26.0736 -5.2352 -6.1965
-28.5229 -13.5070 -7.6409
-29.0882 -23.8560 -9.2982
10.9657 -10.2460 -2.6389
11.2577 -6.3142 -2.0426
11.8738 -3.3043 -1.7458
32.4194 6.8081 -3.8082
17.4316 8.3332 -2.0544
11.6774 9.5362 -1.5306
19.1385 25.3253 -3.1997
13.8522 32.0211 -3.6355
-20.3007 33.2266 -5.9307
-28.9046 28.7226 -6.9137
-25.3152 7.8271 -5.4157
-25.5757 1.4693 -5.6290
-26.2633 -4.9411 -6.2120
-28.4990 -13.0718 -7.5797
-4.8724 -3.8973 -1.5412
10.9484 -10.4794 -2.6783
11.2449 -6.4857 -2.0655
11.5134 -3.3531 -1.7081
33.5109 6.6203 -3.9448
18.1941 8.4322 -2.1391
12.4458 9.9182 -1.6179
19.5919 25.2917 -3.2228
13.8316 30.9538 -3.5238
-20.2404 34.0385 -5.9985
-28.8128 29.3280 -6.9392
-25.2094 8.1299 -5.3920
-25.7632 1.7942 -5.6562
-26.2384 -4.6061 -6.1775
-28.3158 -12.5713 -7.4780
-29.2208 -22.7919 -9.1480
10.9307 -10.7175 -2.7189
11.2321 -6.6592 -2.0890
11.4871 -3.4952 -1.7199
33.3790 6.1808 -3.9384
18.1482 8.1490 -2.1291
12.1223 9.4260 -1.5635
20.0525 25.2575 -3.2470
13.7461 29.8017 -3.4027
-1.7470 38.1735 -4.6316
-20.1780 34.8787 -6.0698
-4.2681 4.4501 -1.0353
-30.0631 19.0823 -6.6090
-25.2662 8.4870 -5.4038
-25.7400 2.1069 -5.6378
-26.2137 -4.2732 -6.1438
-28.4351 -12.2106 -7.4577
-28.9517 -22.0175 -8.9725
10.9126 -10.9605 -2.7608
11.2190 -6.8347 -2.1130
11.4678 -3.6400 -1.7330
38.5102 6.6560 -4.5552
18.1105 7.8736 -2.1207
12.0640 9.1516 -1.5443
20.5206 25.2227 -3.2725
13.6658 28.7208 -3.2898
-3.6146 12.9109 -1.7971
-20.1134 35.7488 -6.1446
-27.5151 29.3875 -6.7238
-25.2415 8.8198 -5.3988
-25.7167 2.4197 -5.6200
-25.9752 -3.9102 -6.0611
-28.4037 -11.7884 -7.3991
-29.1321 -21.5973 -8.9392
10.8942 -11.2087 -2.8039
11.2058 -7.0125 -2.1378
11.4484 -3.7853 -1.7465
38.4962 6.1807 -4.5659
22.5980 9.5053 -2.6418
12.6666 9.3725 -1.6097
20.9967 25.1874 -3.2992
13.5903 27.7045 -3.1845
-20.0464 36.6508 -6.2232
-26.8115 29.3346 -6.6025
-27.6720 18.5150 -6.1211
-25.2166 9.1548 -5.3945
-25.6935 2.7325 -5.6028
-26.1647 -3.6134 -6.0791
-28.1546 -11.2839 -7.2855
-29.0891 -21.0188 -8.8394
10.8754 -11.4623 -2.8484
11.1924 -7.1926 -2.1632
11.4458 -3.9372 -1.7630
43.9710 6.5217 -5.2305
22.4163 9.1152 -2.6169
12.7153 9.1757 -1.6048
21.4809 25.1514 -3.3271
13.5192 26.7469 -3.0860
-20.6511 38.8552 -6.5186
-26.1258 29.2830 -6.4853
-27.7967 19.0873 -6.1693
-25.1354 9.4708 -5.3788
-25.6703 3.0455 -5.5863
-26.1404 -3.2862 -6.0481
-28.3421 -10.9593 -7.2863
-29.0471 -20.4522 -8.7427
10.8561 -11.7215 -2.8942
11.1789 -7.3750 -2.1892
11.4657 -4.0983 -1.7834
42.7590 5.8206 -5.1021
22.8777 8.9859 -2.6676
12.7180 8.9486 -1.5946
21.9737 25.1148 -3.3564
13.4521 25.8428 -2.9937
-20.5760 39.8592 -6.6083
-25.4570 29.2327 -6.3719
-29.3849 20.7031 -6.5449
-25.1663 9.8317 -5.3878
-25.6470 3.3587 -5.5705
-26.1162 -2.9604 -6.0179
-28.3119 -10.5520 -7.2321
-29.0058 -19.8965 -8.6487
10.8364 -11.9867 -2.9416
11.1652 -7.5601 -2.2160
11.4866 -4.2617 -1.8045
43.7276 5.4211 -5.2348
22.5774 8.5579 -2.6302
12.7085 8.7169 -1.5834
25.3500 28.2845 -3.8202
13.7826 25.7230 -2.9927
-20.4980 40.9030 -6.7027
-24.1094 28.3665 -6.0868
-27.8994 20.1637 -6.2372
-25.1409 10.1737 -5.3854
-25.6237 3.6724 -5.5553
-26.0922 -2.6363 -5.9885
-28.2820 -10.1494 -7.1792
-28.7813 -19.2290 -8.5031
10.8163 -12.2580 -2.9904
11.1512 -7.7476 -2.2434
11.5083 -4.4273 -1.8263
48.2735 5.3996 -5.7991
22.9918 8.4023 -2.6766
12.6993 8.4894 -1.5728
25.1785 27.4270 -3.7451
14.1649 25.6947 -3.0031
-20.4167 41.9894 -6.8022
-23.4905 28.3206 -5.9838
-27.8713 20.6588 -6.2554
-25.1153 10.5183 -5.3838
-25.6004 3.9865 -5.5408
-26.0682 -2.3138 -5.9599
-28.2524 -9.7511 -7.1278
-28.9257 -18.8179 -8.4690
10.7957 -12.5359 -3.0409
11.1371 -7.9378 -2.2716
11.5309 -4.5954 -1.8487
48.9754 4.8863 -5.9050
22.9394 8.0739 -2.6693
36.8610 24.0093 -4.5393
25.1262 26.7223 -3.6904
14.5514 25.6660 -3.0143
-20.3321 43.1214 -6.9070
-22.8859 28.2757 -5.8841
-27.3566 20.7923 -6.1652
-25.0720 10.8580 -5.3790
-25.5770 4.3011 -5.5269
-26.0315 -1.9918 -5.9292
-28.2232 -9.3571 -7.0776
-28.8868 -18.2936 -8.3830
10.7745 -12.8206 -3.0930
11.1228 -8.1308 -2.3006
11.5545 -4.7662 -1.8719
22.8751 7.7454 -2.6612
37.8395 24.0075 -4.6347
25.1922 26.1599 -3.6551
14.9423 25.6369 -3.0265
-22.2948 28.2318 -5.7876
-27.7669 21.6368 -6.2847
-25.5536 4.6164 -5.5136
-26.0206 -1.6725 -5.9051
-28.1942 -8.9668 -7.0287
-28.8486 -17.7792 -8.2994
10.7528 -13.1127 -3.1468
11.1082 -8.3267 -2.3303
11.5791 -4.9394 -1.8958
22.8120 7.4217 -2.6538
16.7754 10.3646 -2.0443
25.1426 25.4916 -3.6049
15.3380 25.6075 -3.0395
-21.7762 28.2655 -5.7096
-25.5301 4.9327 -5.5009
-25.9969 -1.3539 -5.8788
-26.2793 -8.0063 -6.5136
-28.8110 -17.2732 -8.2181
10.7306 -13.4119 -3.2025
11.0934 -8.5259 -2.3609
11.6046 -5.1157 -1.9206
47.4839 -8.4264 -6.5342
23.4492 7.3202 -2.7285
17.0532 10.2567 -2.0681
25.1323 24.8802 -3.5624
15.3253 24.9071 -2.9733
-21.3451 28.4052 -5.6548
-35.7012 29.2273 -8.1555
-25.5066 5.2494 -5.4890
-25.9733 -1.0359 -5.8533
-26.2528 -7.6492 -6.4702
-28.5529 -16.6476 -8.0766
10.7078 -13.7194 -3.2601
11.0784 -8.7280 -2.3924
11.6312 -5.2947 -1.9460
42.3978 -8.0488 -5.8796
27.9723 8.3671 -3.2563
17.3744 10.1695 -2.0976
25.6970 24.8383 -3.6024
15.0514 23.8195 -2.8606
-21.0126 28.6722 -5.6267
-34.7542 29.1570 -7.9785
-25.2747 5.5219 -5.4328
-25.7378 -0.7133 -5.7810
-26.3796 -7.3385 -6.4655
-28.7378 -16.2875 -8.0623
11.0632 -8.9337 -2.4247
11.6589 -5.4771 -1.9724
38.2840 -7.7433 -5.3511
28.1026 8.0413 -3.2736
17.1814 9.7828 -2.0655
26.2730 24.7955 -3.6440
15.0201 23.1534 -2.7983
-3.0308 21.2915 -2.7164
-20.7599 29.0528 -5.6212
-33.8372 29.0889 -7.8082
-25.4593 5.8861 -5.4669
-25.7145 -0.3996 -5.7571
-26.4164 -7.0025 -6.4395
-28.7021 -15.8071 -7.9877
11.0476 -9.1426 -2.4579
11.6877 -5.6626 -1.9996
34.8783 -7.4904 -4.9144
28.1185 7.6839 -3.2783
17.2422 9.5467 -2.0645
11.4685 10.5673 -1.5743
15.3976 23.1254 -2.8134
-20.6097 29.5860 -5.6452
-32.9510 29.0231 -7.6447
-25.4355 6.2063 -5.4567
-25.6913 -0.0871 -5.7341
-26.3904 -6.6524 -6.3991
-28.5099 -15.2497 -7.8716
11.0318 -9.3554 -2.4920
11.5265 -5.7563 -1.9947
33.6718 -7.6537 -4.7835
28.5160 7.4273 -3.3282
17.4225 9.3762 -2.0784
11.1706 10.0490 -1.5182
15.7689 23.0811 -2.8276
-20.5233 30.2293 -5.6893
-32.0914 28.9592 -7.4872
-25.4117 6.5273 -5.4473
-25.6681 0.2252 -5.7116
-26.3646 -6.3048 -6.3597
-28.6324 -14.8677 -7.8442
11.0158 -9.5720 -2.5272
11.2950 -5.8109 -1.9774
14.6224 -3.5085 -2.0947
28.1656 6.9776 -3.2916
17.2054 8.9963 -2.0455
11.8136 10.3748 -1.5903
17.8184 25.4234 -3.1371
-20.4702 30.9440 -5.7454
-31.2593 28.8974 -7.3358
-25.1803 6.7941 -5.3940
-25.7402 0.5389 -5.7111
-26.3390 -5.9604 -6.3214
-28.5983 -14.4093 -7.7755
10.9994 -9.7923 -2.5633
11.2827 -5.9769 -1.9986
13.5807 -3.4311 -1.9621
28.7929 6.7692 -3.3700
17.5490 8.9105 -2.0797
11.9891 10.2777 -1.5991
18.2516 25.3912 -3.1569
-20.4156 31.6800 -5.8042
-30.8210 29.1878 -7.2772
-25.3637 7.1739 -5.4302
-25.6218 0.8478 -5.6689
-26.3136 -5.6181 -6.2839
-28.3452 -13.8497 -7.6492
10.9827 -10.0170 -2.6005
11.2703 -6.1445 -2.0203
12.6737 -3.3637 -1.8470
32.9015 7.3211 -3.8575
17.4898 8.6195 -2.0667
12.1465 10.1638 -1.6057
18.6917 25.3585 -3.1778
14.0210 33.5047 -3.7947
-2.4304 29.7140 -3.6689
-20.3591 32.4407 -5.8659
-30.5247 29.6108 -7.2531
