ply
format ascii 1.0
element vertex 2175
property float32 x
property float32 y
property float32 z
end_header
3.7478 4.8613 2.2407
2.4723 5.6872 2.2407
1.0355 6.2608 2.2407
-0.5337 6.5506 2.2407
-1.1295 3.3487 1.1508
-3.6449 5.7116 2.0883
-5.2176 4.9730 2.0883
-7.1637 4.1133 2.2407
-8.4785 2.4570 2.2407
-9.3892 0.4109 2.2407
-9.7369 -1.9130 2.2407
-9.3953 -4.3237 2.2407
-4.8965 -3.8664 1.3190
-6.5764 -8.3788 2.2407
-4.3592 -9.5441 2.2407
-1.9292 -9.9622 2.2407
0.4467 -9.6566 2.2407
1.6015 -5.4821 1.4045
1.7475 -3.0314 0.9183
2.1814 -2.2832 0.8858
2.5215 -1.6071 0.8945
6.6927 -2.2579 2.2407
6.6920 -0.5500 2.2407
6.3624 1.0440 2.2407
5.7476 2.4869 2.2407
4.8852 3.7512 2.2407
3.8069 4.8139 2.2407
2.5401 5.6517 2.2407
1.1108 6.2385 2.2407
-0.4526 6.5434 2.2407
-1.0858 3.3535 1.1507
-3.5650 5.7384 2.0883
-5.1408 5.0193 2.0883
-7.0902 4.1849 2.2407
-8.4210 2.5496 2.2407
-9.3558 0.5210 2.2407
-9.7351 -1.7928 2.2407
-9.4299 -4.2049 2.2407
-8.3888 -6.4640 2.2407
-6.6767 -8.3022 2.2407
-4.4774 -9.5032 2.2407
-2.0514 -9.9592 2.2407
0.3328 -9.6875 2.2407
1.5891 -5.6906 1.4484
1.7429 -3.1087 0.9323
2.1599 -2.3158 0.8854
2.5085 -1.6417 0.8940
6.6833 -2.3455 2.2407
6.7003 -0.6330 2.2407
6.3860 0.9676 2.2407
5.7845 2.4188 2.2407
4.9337 3.6926 2.2407
3.8655 4.7659 2.2407
2.6075 5.6155 2.2407
1.1857 6.2156 2.2407
-0.3717 6.5354 2.2407
-2.0296 6.5386 2.2407
-3.4851 5.7643 2.0883
-5.0638 5.0646 2.0883
-7.0161 4.2552 2.2407
-8.3626 2.6413 2.2407
-9.3209 0.6304 2.2407
-9.7316 -1.6730 2.2407
-9.4626 -4.0856 2.2407
-8.4578 -6.3589 2.2407
-6.7758 -8.2240 2.2407
-4.5951 -9.4605 2.2407
-2.1738 -9.9543 2.2407
0.2182 -9.7169 2.2407
1.5758 -5.9140 1.4957
1.7381 -3.1889 0.9469
2.1380 -2.3482 0.8850
2.4951 -1.6762 0.8936
6.6729 -2.4331 2.2407
6.7077 -0.7164 2.2407
6.4089 0.8909 2.2407
5.8208 2.3502 2.2407
4.9817 3.6335 2.2407
3.9236 4.7174 2.2407
2.6745 5.5788 2.2407
1.2602 6.1920 2.2407
-0.2912 6.5266 2.2407
-1.9450 6.5466 2.2407
-3.4052 5.7893 2.0883
-4.9865 5.1089 2.0883
-6.9414 4.3246 2.2407
-8.3031 2.7320 2.2407
-9.2847 0.7391 2.2407
-9.7263 -1.5534 2.2407
-9.4935 -3.9661 2.2407
-8.5251 -6.2528 2.2407
-6.8737 -8.1442 2.2407
-4.7121 -9.4159 2.2407
-2.2963 -9.9475 2.2407
0.1030 -9.7447 2.2407
2.2620 -8.9150 2.2407
1.7332 -3.2723 0.9622
2.1157 -2.3804 0.8846
2.4812 -1.7107 0.8932
6.6615 -2.5209 2.2407
6.7142 -0.8000 2.2407
6.4310 0.8138 2.2407
5.8564 2.2813 2.2407
5.0291 3.5739 2.2407
3.9813 4.6683 2.2407
2.7411 5.5413 2.2407
1.3344 6.1677 2.2407
-0.2108 6.5170 2.2407
-1.8605 6.5537 2.2407
-3.3252 5.8133 2.0883
-4.2477 4.4582 1.8070
-6.8662 4.3929 2.2407
-8.2427 2.8216 2.2407
-9.2472 0.8470 2.2407
-9.7193 -1.4341 2.2407
-9.5225 -3.8462 2.2407
-8.5907 -6.1457 2.2407
-6.9702 -8.0629 2.2407
-4.8285 -9.3694 2.2407
-2.4188 -9.9389 2.2407
-0.0128 -9.7709 2.2407
2.1623 -8.9690 2.2407
1.7280 -3.3589 0.9783
2.0929 -2.4125 0.8842
2.4670 -1.7451 0.8927
6.6492 -2.6088 2.2407
6.7200 -0.8839 2.2407
6.4524 0.7363 2.2407
5.8915 2.2118 2.2407
5.0759 3.5138 2.2407
4.0385 4.6186 2.2407
2.8073 5.5033 2.2407
1.4083 6.1427 2.2407
-0.1308 6.5067 2.2407
-1.7762 6.5599 2.2407
-3.2453 5.8365 2.0883
-4.8311 5.1944 2.0883
-6.7904 4.4600 2.2407
-8.1814 2.9103 2.2407
-9.2083 0.9541 2.2407
-9.7107 -1.3151 2.2407
-9.5496 -3.7260 2.2407
-8.6546 -6.0375 2.2407
-7.0654 -7.9800 2.2407
-4.9444 -9.3210 2.2407
-2.5414 -9.9285 2.2407
-0.1293 -9.7955 2.2407
2.0617 -9.0217 2.2407
1.7226 -3.4492 0.9952
2.0697 -2.4444 0.8837
2.4523 -1.7795 0.8923
3.7629 -1.5292 1.2706
6.7249 -0.9681 2.2407
6.4731 0.6584 2.2407
5.9259 2.1419 2.2407
5.1222 3.4532 2.2407
4.0952 4.5684 2.2407
2.8730 5.4647 2.2407
1.4819 6.1170 2.2407
-0.0510 6.4955 2.2407
-1.6920 6.5652 2.2407
-3.1653 5.8587 2.0883
-4.7531 5.2357 2.0883
-6.7140 4.5261 2.2407
-8.1192 2.9979 2.2407
-9.1681 1.0604 2.2407
-9.7004 -1.1965 2.2407
-9.5749 -3.6057 2.2407
-8.7167 -5.9285 2.2407
-7.1593 -7.8955 2.2407
-5.0594 -9.2708 2.2407
-2.6639 -9.9161 2.2407
-0.2462 -9.8186 2.2407
1.9601 -9.0733 2.2407
1.7170 -3.5433 1.0130
2.0461 -2.4761 0.8833
2.4372 -1.8138 0.8918
3.6133 -1.5197 1.2227
6.7289 -1.0525 2.2407
6.4931 0.5802 2.2407
5.9596 2.0716 2.2407
5.1679 3.3921 2.2407
4.1514 4.5176 2.2407
2.9384 5.4255 2.2407
1.5550 6.0906 2.2407
0.0285 6.4836 2.2407
-1.6080 6.5697 2.2407
-3.0853 5.8800 2.0883
-4.6749 5.2760 2.0883
-6.6372 4.5911 2.2407
-8.0561 3.0845 2.2407
-9.1266 1.1659 2.2407
-9.6884 -1.0784 2.2407
-9.5984 -3.4851 2.2407
-8.7770 -5.8186 2.2407
-7.2518 -7.8096 2.2407
-5.1737 -9.2187 2.2407
-2.7864 -9.9019 2.2407
-0.3638 -9.8400 2.2407
1.8576 -9.1237 2.2407
1.7112 -3.6414 1.0318
2.0221 -2.5077 0.8829
2.4217 -1.8480 0.8914
3.4739 -1.5109 1.1782
6.7321 -1.1372 2.2407
6.5123 0.5017 2.2407
5.9927 2.0009 2.2407
5.2131 3.3305 2.2407
4.2071 4.4663 2.2407
3.0033 5.3856 2.2407
1.6278 6.0635 2.2407
0.1078 6.4709 2.2407
-1.5242 6.5732 2.2407
-3.0053 5.9004 2.0883
-4.5965 5.3154 2.0883
-6.1137 4.3383 2.0883
-7.9921 3.1700 2.2407
-9.0838 1.2706 2.2407
-9.6748 -0.9607 2.2407
-9.6199 -3.3643 2.2407
-8.8355 -5.7078 2.2407
-7.3430 -7.7221 2.2407
-5.2871 -9.1648 2.2407
-2.9089 -9.8858 2.2407
-0.4818 -9.8597 2.2407
1.7541 -9.1728 2.2407
1.7051 -3.7438 1.0515
1.9976 -2.5390 0.8825
2.4057 -1.8821 0.8910
3.3435 -1.5026 1.1368
6.7344 -1.2220 2.2407
6.5308 0.4228 2.2407
6.0252 1.9298 2.2407
5.2578 3.2684 2.2407
4.2623 4.4145 2.2407
3.0678 5.3452 2.2407
1.7003 6.0358 2.2407
0.1868 6.4575 2.2407
-1.4406 6.5760 2.2407
-2.9254 5.9199 2.0883
-4.5179 5.3537 2.0883
-6.0411 4.3969 2.0883
-7.9273 3.2545 2.2407
-9.0398 1.3744 2.2407
-9.6595 -0.8433 2.2407
-9.6397 -3.2433 2.2407
-8.8922 -5.5963 2.2407
-7.4326 -7.6333 2.2407
-5.3999 -9.1091 2.2407
-3.0312 -9.8678 2.2407
-0.6002 -9.8778 2.2407
1.6498 -9.2206 2.2407
1.6987 -3.8511 1.0723
1.9727 -2.5702 0.8821
2.3894 -1.9161 0.8905
3.2214 -1.4948 1.0982
6.7359 -1.3072 2.2407
6.5485 0.3434 2.2407
6.0570 1.8582 2.2407
5.3018 3.2059 2.2407
4.3171 4.3621 2.2407
3.1318 5.3041 2.2407
1.7723 6.0074 2.2407
0.2654 6.4433 2.2407
-1.3571 6.5779 2.2407
-2.8454 5.9385 2.0883
-4.4392 5.3910 2.0883
-5.9681 4.4543 2.0883
-7.8616 3.3379 2.2407
-8.9945 1.4775 2.2407
-9.6427 -0.7266 2.2407
-9.6576 -3.1223 2.2407
-8.9471 -5.4839 2.2407
-7.5209 -7.5429 2.2407
-5.5116 -9.0515 2.2407
-3.1533 -9.8479 2.2407
-0.7193 -9.8941 2.2407
1.5445 -9.2671 2.2407
1.6920 -3.9633 1.0943
1.9474 -2.6011 0.8817
2.3726 -1.9501 0.8901
3.1066 -1.4876 1.0620
6.7364 -1.3925 2.2407
6.5654 0.2639 2.2407
6.0881 1.7862 2.2407
5.3453 3.1429 2.2407
4.3712 4.3092 2.2407
3.1954 5.2625 2.2407
1.8441 5.9783 2.2407
0.3439 6.4284 2.2407
-1.2739 6.5789 2.2407
-2.7656 5.9563 2.0883
-4.3603 5.4274 2.0883
-5.8947 4.5108 2.0883
-7.7952 3.4202 2.2407
-8.9481 1.5795 2.2407
-9.6242 -0.6101 2.2407
-9.6736 -3.0012 2.2407
-9.0002 -5.3708 2.2407
-7.6076 -7.4513 2.2407
-5.6227 -8.9921 2.2407
-3.2754 -9.8260 2.2407
-0.8387 -9.9088 2.2407
1.4385 -9.3123 2.2407
1.6850 -4.0811 1.1175
1.9216 -2.6318 0.8813
2.3554 -1.9839 0.8897
2.9987 -1.4807 1.0281
6.7361 -1.4782 2.2407
6.5816 0.1839 2.2407
6.1186 1.7139 2.2407
5.3881 3.0794 2.2407
4.4250 4.2558 2.2407
3.2586 5.2202 2.2407
1.9153 5.9486 2.2407
0.4219 6.4127 2.2407
-1.1908 6.5790 2.2407
-2.6857 5.9730 2.0883
-4.2813 5.4628 2.0883
-5.8210 4.5662 2.0883
-7.7279 3.5016 2.2407
-8.9004 1.6808 2.2407
-9.6042 -0.4944 2.2407
-9.6879 -2.8801 2.2407
-9.0515 -5.2568 2.2407
-7.6929 -7.3582 2.2407
-5.7327 -8.9310 2.2407
-3.3970 -9.8024 2.2407
-0.9586 -9.9218 2.2407
1.3314 -9.3562 2.2407
1.6776 -4.2047 1.1421
1.8954 -2.6623 0.8809
2.3377 -2.0176 0.8892
2.8967 -1.4742 0.9962
6.7349 -1.5640 2.2407
6.5970 0.1037 2.2407
6.1484 1.6410 2.2407
5.4305 3.0154 2.2407
4.4782 4.2018 2.2407
3.3213 5.1774 2.2407
1.9863 5.9182 2.2407
0.4997 6.3962 2.2407
-1.1079 6.5784 2.2407
-2.6060 5.9891 2.0883
-4.2021 5.4973 2.0883
-5.7467 4.6206 2.0883
-7.6599 3.5817 2.2407
-8.8516 1.7810 2.2407
-9.5826 -0.3791 2.2407
-9.7003 -2.7589 2.2407
-9.1009 -5.1423 2.2407
-7.7765 -7.2639 2.2407
-5.8418 -8.8680 2.2407
-3.5186 -9.7767 2.2407
-1.0788 -9.9331 2.2407
1.2237 -9.3987 2.2407
1.6699 -4.3349 1.1682
1.8688 -2.6926 0.8805
2.3197 -2.0512 0.8888
2.8005 -1.4681 0.9663
6.7329 -1.6501 2.2407
6.6117 0.0230 2.2407
6.1775 1.5678 2.2407
5.4722 2.9510 2.2407
4.5309 4.1473 2.2407
3.3836 5.1340 2.2407
2.0569 5.8872 2.2407
0.5771 6.3791 2.2407
-1.0252 6.5768 2.2407
-1.3927 3.3102 1.1513
-4.1228 5.5307 2.0883
-5.6722 4.6740 2.0883
-7.5911 3.6610 2.2407
-8.8016 1.8804 2.2407
-9.5594 -0.2645 2.2407
-9.7109 -2.6378 2.2407
-9.1485 -5.0270 2.2407
-7.8587 -7.1681 2.2407
-5.9499 -8.8033 2.2407
-3.6397 -9.7492 2.2407
-1.1995 -9.9426 2.2407
1.1149 -9.4399 2.2407
1.6617 -4.4719 1.1958
1.8417 -2.7226 0.8801
2.3012 -2.0848 0.8884
2.7092 -1.4623 0.9380
6.7299 -1.7363 2.2407
6.6256 -0.0578 2.2407
6.2060 1.4941 2.2407
5.5133 2.8861 2.2407
4.5830 4.0923 2.2407
3.4454 5.0900 2.2407
2.1271 5.8554 2.2407
0.3354 3.2603 1.1484
-0.9427 6.5745 2.2407
-1.3488 3.3178 1.1512
-4.0434 5.5632 2.0883
-5.5972 4.7264 2.0883
-7.5216 3.7391 2.2407
-8.7505 1.9788 2.2407
-9.5348 -0.1503 2.2407
-9.7197 -2.5166 2.2407
-9.1943 -4.9111 2.2407
-7.9393 -7.0712 2.2407
-6.0571 -8.7368 2.2407
-3.7607 -9.7198 2.2407
-1.3205 -9.9503 2.2407
1.0056 -9.4796 2.2407
1.6531 -4.6167 1.2252
1.8142 -2.7525 0.8797
2.2823 -2.1182 0.8879
2.6228 -1.4568 0.9113
6.7260 -1.8228 2.2407
6.6386 -0.1391 2.2407
6.2338 1.4201 2.2407
5.5538 2.8207 2.2407
4.6347 4.0367 2.2407
3.5069 5.0454 2.2407
2.1970 5.8231 2.2407
0.3747 3.2506 1.1484
-0.8605 6.5714 2.2407
-1.3048 3.3249 1.1511
-3.9638 5.5948 2.0883
-5.5220 4.7777 2.0883
-7.4514 3.8160 2.2407
-8.6982 2.0764 2.2407
-9.5086 -0.0367 2.2407
-9.7267 -2.3957 2.2407
-9.2382 -4.7948 2.2407
-8.0183 -6.9729 2.2407
-6.1632 -8.6686 2.2407
-3.8812 -9.6885 2.2407
-1.4417 -9.9563 2.2407
0.8952 -9.5179 2.2407
1.6440 -4.7698 1.2565
1.7864 -2.7820 0.8793
2.2630 -2.1514 0.8875
2.5696 -1.4682 0.8962
6.7212 -1.9095 2.2407
6.6509 -0.2206 2.2407
6.2609 1.3457 2.2407
5.5938 2.7548 2.2407
4.6859 3.9806 2.2407
3.5677 5.0003 2.2407
2.2663 5.7901 2.2407
0.8078 6.3232 2.2407
-0.7784 6.5674 2.2407
-1.2609 3.3315 1.1511
-3.8843 5.6254 2.0883
-5.4464 4.8280 2.0883
-7.3805 3.8920 2.2407
-8.6449 2.1729 2.2407
-9.4809 0.0761 2.2407
-9.7319 -2.2747 2.2407
-9.2802 -4.6777 2.2407
-8.0956 -6.8735 2.2407
-6.2681 -8.5987 2.2407
-4.0014 -9.6552 2.2407
-1.5632 -9.9605 2.2407
0.7843 -9.5548 2.2407
1.6343 -4.9318 1.2898
1.7604 -2.8152 0.8802
2.2432 -2.1846 0.8871
2.5582 -1.5030 0.8958
6.7155 -1.9963 2.2407
6.6624 -0.3025 2.2407
6.2873 1.2708 2.2407
5.6331 2.6886 2.2407
4.7365 3.9241 2.2407
3.6282 4.9545 2.2407
2.3354 5.7564 2.2407
0.8840 6.3031 2.2407
-0.6967 6.5626 2.2407
-1.2170 3.3377 1.1510
-3.8045 5.6551 2.0883
-5.3705 4.8773 2.0883
-7.3089 3.9668 2.2407
-8.5905 2.2686 2.2407
-9.4518 0.1884 2.2407
-9.7353 -2.1541 2.2407
-9.3204 -4.5603 2.2407
-8.1714 -6.7728 2.2407
-6.3720 -8.5271 2.2407
-4.1210 -9.6201 2.2407
-1.6849 -9.9629 2.2407
0.6725 -9.5902 2.2407
1.6240 -5.1039 1.3255
1.7563 -2.8847 0.8923
2.2231 -2.2176 0.8867
2.5464 -1.5377 0.8953
6.7088 -2.0833 2.2407
6.6731 -0.3847 2.2407
6.3130 1.1957 2.2407
5.6719 2.6218 2.2407
4.7866 3.8670 2.2407
3.6882 4.9083 2.2407
2.4040 5.7222 2.2407
0.9599 6.2823 2.2407
-0.6151 6.5569 2.2407
-1.1733 3.3434 1.1509
-3.7248 5.6838 2.0883
-5.2942 4.9257 2.0883
-7.2366 4.0406 2.2407
-8.5351 2.3632 2.2407
-9.4212 0.2999 2.2407
-9.7370 -2.0334 2.2407
-9.3588 -4.4422 2.2407
-4.8581 -3.9305 1.3202
-6.4747 -8.4538 2.2407
-4.2404 -9.5830 2.2407
-1.8069 -9.9635 2.2407
0.5600 -9.6241 2.2407
1.6132 -5.2868 1.3635
1.7520 -2.9567 0.9050
2.2024 -2.2505 0.8862
2.5342 -1.5724 0.8949
6.7012 -2.1705 2.2407
6.6830 -0.4672 2.2407
6.3381 1.1200 2.2407
5.7100 2.5546 2.2407
4.8361 3.8094 2.2407
3.7478 4.8614 2.2407
2.4722 5.6873 2.2407
1.0354 6.2608 2.2407
-0.5338 6.5506 2.2407
-1.1295 3.3487 1.1508
-3.6449 5.7115 2.0883
-5.2177 4.9729 2.0883
-7.1638 4.1131 2.2407
-8.4786 2.4569 2.2407
-9.3892 0.4108 2.2407
-9.7369 -1.9131 2.2407
-9.3952 -4.3239 2.2407
-4.8965 -3.8664 1.3190
-6.5763 -8.3789 2.2407
-4.3590 -9.5441 2.2407
-1.9290 -9.9622 2.2407
0.4468 -9.6566 2.2407
1.6015 -5.4820 1.4044
1.7475 -3.0313 0.9183
2.1814 -2.2832 0.8858
2.5216 -1.6071 0.8945
6.6927 -2.2579 2.2407
6.6920 -0.5499 2.2407
6.3624 1.0441 2.2407
5.7476 2.4869 2.2407
4.8852 3.7513 2.2407
3.8068 4.8140 2.2407
2.5400 5.6518 2.2407
1.1107 6.2385 2.2407
-0.4526 6.5434 2.2407
-1.0859 3.3535 1.1507
-3.5651 5.7384 2.0883
-5.1409 5.0192 2.0883
-7.0903 4.1847 2.2407
-8.4211 2.5495 2.2407
-9.3558 0.5209 2.2407
-9.7351 -1.7929 2.2407
-9.4298 -4.2049 2.2407
-8.3887 -6.4641 2.2407
-6.6766 -8.3023 2.2407
-4.4773 -9.5033 2.2407
-2.0514 -9.9592 2.2407
0.3330 -9.6874 2.2407
1.5891 -5.6903 1.4483
1.7429 -3.1086 0.9322
2.1599 -2.3158 0.8854
2.5085 -1.6416 0.8940
6.6833 -2.3453 2.2407
6.7003 -0.6330 2.2407
6.3860 0.9677 2.2407
5.7844 2.4189 2.2407
4.9337 3.6927 2.2407
3.8655 4.7660 2.2407
2.6075 5.6156 2.2407
1.1856 6.2156 2.2407
-0.3719 6.5354 2.2407
-2.0296 6.5386 2.2407
-3.4852 5.7643 2.0883
-5.0639 5.0645 2.0883
-7.0162 4.2552 2.2407
-8.3626 2.6413 2.2407
-9.3210 0.6304 2.2407
-9.7316 -1.6731 2.2407
-9.4626 -4.0858 2.2407
-8.4578 -6.3590 2.2407
-6.7758 -8.2241 2.2407
-4.5949 -9.4606 2.2407
-2.1737 -9.9543 2.2407
0.2183 -9.7168 2.2407
1.5758 -5.9139 1.4956
1.7382 -3.1888 0.9468
2.1380 -2.3482 0.8850
2.4951 -1.6762 0.8936
6.6729 -2.4331 2.2407
6.7077 -0.7163 2.2407
6.4088 0.8910 2.2407
5.8207 2.3503 2.2407
4.9816 3.6336 2.2407
3.9236 4.7174 2.2407
2.6744 5.5788 2.2407
1.2602 6.1920 2.2407
-0.2912 6.5266 2.2407
-1.9451 6.5466 2.2407
-3.4053 5.7892 2.0883
-4.9865 5.1088 2.0883
-6.9415 4.3246 2.2407
-8.3032 2.7319 2.2407
-9.2848 0.7390 2.2407
-9.7263 -1.5535 2.2407
-9.4935 -3.9662 2.2407
-8.5250 -6.2529 2.2407
-6.8735 -8.1443 2.2407
-4.7120 -9.4159 2.2407
-2.2962 -9.9475 2.2407
0.1032 -9.7446 2.2407
2.2621 -8.9149 2.2407
1.7332 -3.2722 0.9622
2.1157 -2.3804 0.8846
2.4812 -1.7107 0.8932
6.6615 -2.5208 2.2407
6.7142 -0.8000 2.2407
6.4310 0.8138 2.2407
5.8564 2.2814 2.2407
5.0290 3.5740 2.2407
3.9813 4.6683 2.2407
2.7411 5.5414 2.2407
1.3343 6.1677 2.2407
-0.2109 6.5170 2.2407
-1.8606 6.5537 2.2407
-3.3253 5.8133 2.0883
-4.2478 4.4581 1.8070
-6.8663 4.3928 2.2407
-8.2428 2.8216 2.2407
-9.2472 0.8469 2.2407
-9.7193 -1.4343 2.2407
-9.5224 -3.8464 2.2407
-8.5907 -6.1458 2.2407
-6.9701 -8.0629 2.2407
-4.8284 -9.3695 2.2407
-2.4187 -9.9389 2.2407
-0.0127 -9.7709 2.2407
2.1624 -8.9689 2.2407
1.7280 -3.3588 0.9783
2.0930 -2.4125 0.8842
2.4670 -1.7451 0.8927
6.6492 -2.6087 2.2407
6.7200 -0.8838 2.2407
6.4524 0.7364 2.2407
5.8914 2.2119 2.2407
5.0759 3.5138 2.2407
4.0385 4.6186 2.2407
2.8072 5.5034 2.2407
1.4083 6.1427 2.2407
-0.1308 6.5067 2.2407
-1.7762 6.5599 2.2407
-3.2454 5.8364 2.0883
-4.8312 5.1944 2.0883
-6.7904 4.4600 2.2407
-8.1814 2.9103 2.2407
-9.2084 0.9540 2.2407
-9.7107 -1.3152 2.2407
-9.5496 -3.7261 2.2407
-8.6545 -6.0376 2.2407
-7.0653 -7.9801 2.2407
-4.9442 -9.3211 2.2407
-2.5413 -9.9285 2.2407
-0.1272 -8.8723 2.2407
1.8646 -8.2129 2.2407
1.7219 -3.4618 1.0912
1.9029 -2.2554 0.8860
2.2643 -1.6492 0.8938
3.7452 -1.5294 1.3660
6.2477 -0.9089 2.2407
6.0299 0.6059 2.2407
5.5302 1.9935 2.2407
4.7849 3.2226 2.2407
3.8256 4.2691 2.2407
2.6809 5.1045 2.2407
1.3778 5.7082 2.2407
-0.0280 3.1031 1.1492
-0.8120 3.1316 1.1505
-2.9418 5.4236 2.0883
-4.3962 4.8257 2.0883
-5.7582 3.8674 2.0883
-7.4317 2.7305 2.2407
-8.3466 0.9535 2.2407
-8.7867 -1.0939 2.2407
-8.6371 -3.2603 2.2407
-7.8417 -5.3381 2.2407
-5.9981 -6.6150 2.0883
-4.5553 -8.3393 2.2407
-2.4100 -8.9428 2.2407
-0.2329 -8.8911 2.2407
1.7718 -8.2577 2.2407
1.7163 -3.5563 1.1111
1.8808 -2.2841 0.8856
2.2499 -1.6806 0.8934
3.5968 -1.5199 1.3149
6.2505 -0.9873 2.2407
6.0478 0.5329 2.2407
5.5613 1.9277 2.2407
4.8275 3.1656 2.2407
3.8782 4.2200 2.2407
2.7422 5.0679 2.2407
1.4463 5.6840 2.2407
0.0100 3.0976 1.1491
-0.7719 3.1340 1.1504
-2.8681 5.4444 2.0883
-4.3249 4.8640 2.0883
-5.6938 3.9241 2.0883
-7.3759 2.8104 2.2407
-8.3110 1.0498 2.2407
-8.7779 -0.9872 2.2407
-8.6598 -3.1522 2.2407
-7.8966 -5.2399 2.2407
-6.0755 -6.5431 2.0883
-4.6575 -8.2918 2.2407
-2.5199 -8.9285 2.2407
-0.3392 -8.9084 2.2407
1.6781 -8.3013 2.2407
1.7104 -3.6549 1.1320
1.8582 -2.3127 0.8852
2.2351 -1.7119 0.8930
3.4583 -1.5111 1.2675
6.2525 -1.0659 2.2407
6.0650 0.4596 2.2407
5.5918 1.8614 2.2407
4.8695 3.1076 2.2407
3.9304 4.1720 2.2407
2.8030 5.0308 2.2407
1.5145 5.6591 2.2407
0.0479 3.0918 1.1491
-0.7320 3.1360 1.1504
-2.7945 5.4644 2.0883
-4.2534 4.9015 2.0883
-5.6289 3.9798 2.0883
-7.3193 2.8894 2.2407
-8.2743 1.1453 2.2407
-8.7677 -0.8808 2.2407
-8.6808 -3.0439 2.2407
-7.9501 -5.1409 2.2407
-6.1518 -6.4701 2.0883
-4.7591 -8.2427 2.2407
-2.6297 -8.9125 2.2407
-0.4458 -8.9242 2.2407
1.5837 -8.3438 2.2407
1.7042 -3.7580 1.1540
1.8353 -2.3411 0.8849
2.2200 -1.7431 0.8926
3.3289 -1.5028 1.2233
6.2536 -1.1447 2.2407
6.0815 0.3859 2.2407
5.6216 1.7948 2.2407
4.9110 3.0494 2.2407
3.9820 4.1235 2.2407
2.8634 4.9932 2.2407
1.5823 5.6336 2.2407
0.0857 3.0855 1.1490
-0.6920 3.1376 1.1503
-2.7208 5.4835 2.0883
-4.1817 4.9380 2.0883
-5.5636 4.0346 2.0883
-7.2619 2.9675 2.2407
-8.2364 1.2401 2.2407
-8.7560 -0.7748 2.2407
-8.7002 -2.9354 2.2407
-8.0019 -5.0412 2.2407
-6.2269 -6.3959 2.0883
-4.8599 -8.1919 2.2407
-2.7394 -8.8948 2.2407
-0.5529 -8.9386 2.2407
1.4885 -8.3851 2.2407
1.6978 -3.8657 1.1773
1.8120 -2.3692 0.8845
2.2044 -1.7742 0.8922
3.2076 -1.4951 1.1820
6.2540 -1.2237 2.2407
6.0973 0.3120 2.2407
5.6509 1.7278 2.2407
4.9520 2.9907 2.2407
4.0332 4.0744 2.2407
2.9234 4.9549 2.2407
1.6498 5.6074 2.2407
0.1234 3.0789 1.1490
-0.6522 3.1388 1.1502
-2.6471 5.5018 2.0883
-4.1098 4.9736 2.0883
-5.4978 4.0885 2.0883
-7.2037 3.0447 2.2407
-8.1973 1.3342 2.2407
-8.7428 -0.6692 2.2407
-8.7180 -2.8269 2.2407
-8.0522 -4.9408 2.2407
-6.3008 -6.3205 2.0883
-4.9600 -8.1396 2.2407
-2.8489 -8.8755 2.2407
-0.6603 -8.9514 2.2407
1.3925 -8.4252 2.2407
1.6911 -3.9786 1.2018
1.7883 -2.3972 0.8841
2.1885 -1.8052 0.8918
3.0936 -1.4878 1.1434
6.2535 -1.3029 2.2407
6.1123 0.2377 2.2407
5.6795 1.6604 2.2407
4.9924 2.9316 2.2407
4.0839 4.0249 2.2407
2.9830 4.9161 2.2407
1.7169 5.5806 2.2407
0.1609 3.0719 1.1489
-0.6125 3.1395 1.1502
-2.5872 5.5486 2.0994
-4.0378 5.0083 2.0883
-5.4316 4.1414 2.0883
-7.1448 3.1209 2.2407
-8.1572 1.4276 2.2407
-8.7282 -0.5639 2.2407
-8.7342 -2.7182 2.2407
-8.1009 -4.8396 2.2407
-6.3735 -6.2440 2.0883
-5.0593 -8.0857 2.2407
-2.9582 -8.8544 2.2407
-0.7681 -8.9627 2.2407
1.2958 -8.4641 2.2407
1.6840 -4.0971 1.2277
1.7822 -2.4497 0.8928
2.1722 -1.8362 0.8914
2.9863 -1.4809 1.1072
6.2521 -1.3822 2.2407
6.1266 0.1632 2.2407
5.7075 1.5926 2.2407
5.0323 2.8721 2.2407
4.1341 3.9748 2.2407
3.0422 4.8767 2.2407
1.7837 5.5532 2.2407
0.1983 3.0646 1.1489
-0.5728 3.1399 1.1501
-1.3784 3.0526 1.1515
-3.9655 5.0421 2.0883
-5.3649 4.1935 2.0883
-7.0850 3.1963 2.2407
-8.1159 1.5202 2.2407
-8.7122 -0.4591 2.2407
-8.7488 -2.6094 2.2407
-8.1480 -4.7378 2.2407
-6.4450 -6.1663 2.0883
-5.1577 -8.0303 2.2407
-3.0673 -8.8318 2.2407
-0.8762 -8.9725 2.2407
1.1983 -8.5017 2.2407
1.6766 -4.2215 1.2551
1.7787 -2.5075 0.9032
2.1555 -1.8670 0.8910
2.8850 -1.4745 1.0732
6.2500 -1.4618 2.2407
6.1402 0.0883 2.2407
5.7348 1.5245 2.2407
5.0716 2.8121 2.2407
4.1839 3.9243 2.2407
3.1010 4.8367 2.2407
1.8502 5.5251 2.2407
0.2355 3.0569 1.1488
-0.5332 3.1398 1.1500
-1.3378 3.0611 1.1515
-3.8931 5.0751 2.0883
-5.2979 4.2446 2.0883
-7.0246 3.2706 2.2407
-8.0735 1.6120 2.2407
-8.6947 -0.3547 2.2407
-8.7617 -2.5006 2.2407
-8.1935 -4.6354 2.2407
-6.5153 -6.0876 2.0883
-5.2554 -7.9733 2.2407
-3.1762 -8.8074 2.2407
-0.9846 -8.9807 2.2407
1.1002 -8.5382 2.2407
1.6688 -4.3524 1.2842
1.7752 -2.5671 0.9141
2.1384 -1.8977 0.8906
2.7893 -1.4684 1.0412
6.2470 -1.5415 2.2407
6.1530 0.0132 2.2407
5.7615 1.4559 2.2407
5.1103 2.7517 2.2407
4.2331 3.8732 2.2407
3.1593 4.7962 2.2407
1.9163 5.4964 2.2407
0.2726 3.0488 1.1487
-0.4937 3.1394 1.1500
-1.2971 3.0692 1.1514
-3.8206 5.1071 2.0883
-5.2305 4.2948 2.0883
-6.9634 3.3440 2.2407
-8.0301 1.7030 2.2407
-8.6759 -0.2508 2.2407
-8.7731 -2.3918 2.2407
-8.2373 -4.5324 2.2407
-6.5843 -6.0078 2.0883
-5.3521 -7.9147 2.2407
-3.2848 -8.7814 2.2407
-1.0933 -8.9874 2.2407
1.0013 -8.5733 2.2407
1.6606 -4.4903 1.3150
1.7715 -2.6285 0.9255
2.1209 -1.9282 0.8902
2.6986 -1.4626 1.0110
6.2432 -1.6214 2.2407
6.1651 -0.0622 2.2407
5.7875 1.3870 2.2407
5.1485 2.6909 2.2407
4.2819 3.8216 2.2407
3.2173 4.7552 2.2407
1.9820 5.4671 2.2407
0.3096 3.0404 1.1487
-0.4544 3.1385 1.1499
-1.2564 3.0768 1.1513
-3.7479 5.1383 2.0883
-5.1627 4.3441 2.0883
-6.9015 3.4164 2.2407
-7.9856 1.7933 2.2407
-8.6557 -0.1473 2.2407
-8.7828 -2.2830 2.2407
-8.2796 -4.4288 2.2407
-7.1375 -6.3595 2.2407
-5.4480 -7.8547 2.2407
-3.3930 -8.7537 2.2407
-1.2022 -8.9925 2.2407
0.9018 -8.6072 2.2407
1.6519 -4.6359 1.3478
1.7678 -2.6918 0.9374
2.1031 -1.9587 0.8898
2.6126 -1.4571 0.9826
6.2385 -1.7014 2.2407
6.1765 -0.1379 2.2407
5.8129 1.3178 2.2407
5.1861 2.6296 2.2407
4.3301 3.7696 2.2407
3.2748 4.7135 2.2407
2.0474 5.4372 2.2407
0.3464 3.0317 1.1486
-0.4151 3.1372 1.1498
-1.2158 3.0840 1.1512
-3.6751 5.1686 2.0883
-5.0946 4.3925 2.0883
-6.8389 3.4879 2.2407
-7.9401 1.8827 2.2407
-8.6341 -0.0444 2.2407
-8.7909 -2.1742 2.2407
-8.3203 -4.3247 2.2407
-7.2087 -6.2716 2.2407
-5.5430 -7.7931 2.2407
-3.5010 -8.7243 2.2407
-1.3114 -8.9960 2.2407
0.8016 -8.6398 2.2407
1.6428 -4.7899 1.3827
1.7639 -2.7572 0.9498
2.0848 -1.9890 0.8894
2.5309 -1.4519 0.9556
6.2329 -1.7816 2.2407
6.1871 -0.2138 2.2407
5.8376 1.2482 2.2407
5.2232 2.5679 2.2407
4.3779 3.7170 2.2407
3.3318 4.6714 2.2407
2.1125 5.4066 2.2407
0.3831 3.0225 1.1486
-0.3759 3.1356 1.1498
-1.1752 3.0907 1.1511
-3.6021 5.1980 2.0883
-5.0261 4.4399 2.0883
-6.7756 3.5585 2.2407
-7.8936 1.9713 2.2407
-8.6112 0.0581 2.2407
-8.7975 -2.0655 2.2407
-8.3593 -4.2201 2.2407
-7.2786 -6.1827 2.2407
-5.6370 -7.7300 2.2407
-3.6085 -8.6933 2.2407
-1.4208 -8.9980 2.2407
0.7007 -8.6711 2.2407
1.6330 -4.9531 1.4199
1.7598 -2.8248 0.9627
2.0661 -2.0192 0.8890
2.4531 -1.4470 0.9301
6.2265 -1.8619 2.2407
6.1969 -0.2901 2.2407
5.8617 1.1782 2.2407
5.2596 2.5057 2.2407
4.4252 3.6640 2.2407
3.3885 4.6286 2.2407
2.1771 5.3755 2.2407
0.8185 5.8782 2.2407
-0.3368 3.1335 1.1497
-1.1347 3.0970 1.1511
-3.5291 5.2265 2.0883
-4.9573 4.4864 2.0883
-6.7117 3.6280 2.2407
-7.8460 2.0591 2.2407
-8.5869 0.1599 2.2407
-8.8025 -1.9569 2.2407
-8.3967 -4.1150 2.2407
-7.3471 -6.0927 2.2407
-5.7300 -7.6655 2.2407
-3.7157 -8.6606 2.2407
-1.5304 -8.9984 2.2407
0.5993 -8.7011 2.2407
1.6227 -5.1263 1.4596
1.7557 -2.8947 0.9763
2.0471 -2.0493 0.8886
2.3789 -1.4422 0.9060
6.2192 -1.9424 2.2407
6.2060 -0.3665 2.2407
5.8851 1.1078 2.2407
5.2955 2.4432 2.2407
4.4719 3.6105 2.2407
3.4447 4.5854 2.2407
2.2414 5.3437 2.2407
0.8895 5.8593 2.2407
-0.2978 3.1311 1.1496
-1.0942 3.1028 1.1510
-3.4559 5.2542 2.0883
-4.8882 4.5320 2.0883
-6.1950 3.4452 2.0883
-7.7975 2.1460 2.2407
-8.5613 0.2613 2.2407
-8.8059 -1.8484 2.2407
-8.4325 -4.0094 2.2407
-4.8593 -3.9336 1.4685
-5.8220 -7.5994 2.2407
-3.8224 -8.6262 2.2407
-1.6401 -8.9971 2.2407
0.4972 -8.7297 2.2407
1.6117 -5.3105 1.5021
1.7514 -2.9670 0.9905
2.0277 -2.0792 0.8882
2.3426 -1.4592 0.8962
6.2111 -2.0230 2.2407
6.2143 -0.4433 2.2407
5.9078 1.0372 2.2407
5.3308 2.3802 2.2407
4.5182 3.5565 2.2407
3.5004 4.5416 2.2407
2.3054 5.3113 2.2407
0.9602 5.8398 2.2407
-0.2589 3.1282 1.1496
-1.0537 3.1082 1.1509
-3.3827 5.2809 2.0883
-4.8187 4.5767 2.0883
-6.1343 3.5083 2.0883
-7.7480 2.2321 2.2407
-8.5345 0.3620 2.2407
-8.8078 -1.7400 2.2407
-8.4666 -3.9034 2.2407
-4.8943 -3.8670 1.4662
-5.9130 -7.5320 2.2407
-3.9287 -8.5902 2.2407
-1.7499 -8.9942 2.2407
0.3945 -8.7570 2.2407
1.6000 -5.5070 1.5477
1.7469 -3.0419 1.0054
2.0079 -2.1090 0.8879
2.3305 -1.4910 0.8958
6.2020 -2.1037 2.2407
6.2218 -0.5203 2.2407
5.9299 0.9661 2.2407
5.3655 2.3168 2.2407
4.5639 3.5020 2.2407
3.5558 4.4973 2.2407
2.3689 5.2783 2.2407
1.0305 5.8195 2.2407
-0.2201 3.1250 1.1495
-1.0133 3.1132 1.1509
-3.3094 5.3069 2.0883
-4.7490 4.6205 2.0883
-6.0729 3.5702 2.0883
-7.6976 2.3174 2.2407
-8.5063 0.4621 2.2407
-8.8081 -1.6318 2.2407
-8.4991 -3.7971 2.2407
-7.5437 -5.8167 2.2407
-6.0029 -7.4631 2.2407
-4.0345 -8.5525 2.2407
-1.8598 -8.9898 2.2407
0.2913 -8.7828 2.2407
1.5875 -5.7171 1.5967
1.7423 -3.1195 1.0209
1.9877 -2.1386 0.8875
2.3180 -1.5228 0.8954
6.1921 -2.1845 2.2407
6.2286 -0.5975 2.2407
5.9513 0.8948 2.2407
5.3997 2.2529 2.2407
4.6092 3.4471 2.2407
3.6106 4.4524 2.2407
2.4321 5.2448 2.2407
1.1006 5.7986 2.2407
-0.1815 3.1214 1.1494
-0.9729 3.1177 1.1508
-3.2360 5.3319 2.0883
-4.6790 4.6633 2.0883
-6.0111 3.6316 2.0883
-7.6462 2.4017 2.2407
-8.4768 0.5617 2.2407
-8.8068 -1.5238 2.2407
-8.5300 -3.6903 2.2407
-7.6063 -5.7228 2.2407
-6.0917 -7.3928 2.2407
-4.1398 -8.5131 2.2407
-1.9698 -8.9837 2.2407
0.1875 -8.8073 2.2407
1.5741 -5.9422 1.6495
1.7375 -3.2001 1.0372
1.9671 -2.1680 0.8871
2.3051 -1.5545 0.8950
6.1813 -2.2654 2.2407
6.2345 -0.6750 2.2407
5.9720 0.8231 2.2407
5.4332 2.1887 2.2407
4.6539 3.3917 2.2407
3.6651 4.4070 2.2407
2.4949 5.2106 2.2407
1.1704 5.7770 2.2407
-0.1429 3.1174 1.1494
-0.9326 3.1218 1.1507
-3.1625 5.3561 2.0883
-4.6087 4.7053 2.0883
-5.9486 3.6919 2.0883
-7.5939 2.4852 2.2407
-8.4461 0.6606 2.2407
-8.8041 -1.4160 2.2407
-8.5592 -3.5833 2.2407
-7.6674 -5.6280 2.2407
-6.1795 -7.3211 2.2407
-4.2445 -8.4721 2.2407
-2.0798 -8.9759 2.2407
0.0831 -8.8304 2.2407
2.0479 -8.1200 2.2407
1.7325 -3.2839 1.0544
1.9461 -2.1973 0.8867
2.2919 -1.5861 0.8946
6.1696 -2.3464 2.2407
6.2397 -0.7527 2.2407
5.9920 0.7510 2.2407
5.4661 2.1241 2.2407
4.6980 3.3358 2.2407
3.7190 4.3610 2.2407
2.5573 5.1758 2.2407
1.2398 5.7547 2.2407
-0.1045 3.1130 1.1493
-0.8924 3.1255 1.1506
-3.0890 5.3794 2.0883
-4.2536 4.4487 1.9573
-5.8857 3.7513 2.0883
-7.5407 2.5678 2.2407
-8.4142 0.7589 2.2407
-8.7998 -1.3084 2.2407
-8.5868 -3.4759 2.2407
-7.7270 -5.5323 2.2407
-5.8399 -6.7550 2.0883
-4.3487 -8.4295 2.2407
-2.1898 -8.9665 2.2407
-0.0217 -8.8521 2.2407
1.9567 -8.1670 2.2407
1.7273 -3.3710 1.0723
1.9247 -2.2264 0.8863
2.2783 -1.6176 0.8942
6.1570 -2.4275 2.2407
6.2441 -0.8306 2.2407
6.0113 0.6787 2.2407
5.4984 2.0590 2.2407
4.7417 3.2795 2.2407
3.7725 4.3145 2.2407
2.6193 5.1405 2.2407
1.3089 5.7318 2.2407
-0.0662 3.1083 1.1493
-0.8522 3.1288 1.1506
-3.0154 5.4019 2.0883
-4.4673 4.7865 2.0883
-5.8223 3.8098 2.0883
-7.4866 2.6496 2.2407
-8.3810 0.8565 2.2407
-8.7940 -1.2010 2.2407
-8.6127 -3.3683 2.2407
-7.7851 -5.4356 2.2407
-5.9195 -6.6857 2.0883
-4.4523 -8.3852 2.2407
-2.2999 -8.9555 2.2407
-0.1271 -8.8723 2.2407
1.8647 -8.2129 2.2407
1.7219 -3.4617 1.0912
1.9030 -2.2553 0.8860
2.2643 -1.6491 0.8938
3.7453 -1.5294 1.3660
6.2477 -0.9089 2.2407
6.0299 0.6060 2.2407
5.5302 1.9935 2.2407
4.7848 3.2226 2.2407
3.8256 4.2676 2.2407
2.6809 5.1045 2.2407
1.3778 5.7082 2.2407
-0.0281 3.1032 1.1492
-0.8120 3.1316 1.1505
-2.9418 5.4236 2.0883
-4.3962 4.8257 2.0883
-5.7583 3.8673 2.0883
-7.4317 2.7304 2.2407
-8.3466 0.9534 2.2407
-8.7867 -1.0940 2.2407
-8.6371 -3.2604 2.2407
-7.8416 -5.3382 2.2407
-5.9980 -6.6151 2.0883
-4.5552 -8.3393 2.2407
-2.4098 -8.9428 2.2407
-0.2329 -8.8911 2.2407
1.7719 -8.2576 2.2407
1.7163 -3.5562 1.1111
1.8808 -2.2841 0.8856
2.2499 -1.6805 0.8934
3.5969 -1.5199 1.3150
6.2505 -0.9872 2.2407
6.0478 0.5330 2.2407
5.5613 1.9277 2.2407
4.8274 3.1653 2.2407
3.8782 4.2201 2.2407
2.7421 5.0680 2.2407
1.4463 5.6840 2.2407
0.0100 3.0977 1.1491
-0.7720 3.1340 1.1504
-2.8682 5.4444 2.0883
-4.3250 4.8640 2.0883
-5.6939 3.9240 2.0883
-7.3760 2.8104 2.2407
-8.3111 1.0497 2.2407
-8.7779 -0.9873 2.2407
-8.6597 -3.1523 2.2407
-7.8966 -5.2400 2.2407
-6.0754 -6.5432 2.0883
-4.6575 -8.2918 2.2407
-2.5197 -8.9285 2.2407
-0.3391 -8.9084 2.2407
1.6782 -8.3012 2.2407
1.7104 -3.6548 1.1320
1.8583 -2.3127 0.8852
2.2351 -1.7118 0.8930
3.4585 -1.5111 1.2675
6.2525 -1.0658 2.2407
6.0650 0.4596 2.2407
5.5918 1.8615 2.2407
4.8695 3.1076 2.2407
3.9303 4.1721 2.2407
2.8029 5.0309 2.2407
1.5144 5.6591 2.2407
0.0479 3.0918 1.1491
-0.7320 3.1360 1.1504
-2.7946 5.4643 2.0883
-4.2535 4.9014 2.0883
-5.6290 3.9797 2.0883
-7.3194 2.8894 2.2407
-8.2743 1.1452 2.2407
-8.7677 -0.8810 2.2407
-8.6808 -3.0440 2.2407
-7.9500 -5.1410 2.2407
-6.1518 -6.4701 2.0883
-4.7589 -8.2427 2.2407
-2.6296 -8.9125 2.2407
-0.4457 -8.9242 2.2407
1.5837 -8.3437 2.2407
1.7043 -3.7578 1.1540
1.8353 -2.3410 0.8849
2.2200 -1.7431 0.8926
3.3290 -1.5028 1.2233
6.2536 -1.1446 2.2407
6.0815 0.3860 2.2407
5.6216 1.7949 2.2407
4.9110 3.0494 2.2407
3.9819 4.1235 2.2407
2.8633 4.9932 2.2407
1.5822 5.6336 2.2407
0.0857 3.0855 1.1490
-0.6921 3.1376 1.1503
-2.7209 5.4835 2.0883
-4.1818 4.9379 2.0883
-5.5636 4.0346 2.0883
-7.2620 2.9674 2.2407
-8.2364 1.2400 2.2407
-8.7560 -0.7749 2.2407
-8.7002 -2.9355 2.2407
-8.0018 -5.0414 2.2407
-6.2268 -6.3960 2.0883
-4.8598 -8.1920 2.2407
-2.7393 -8.8948 2.2407
-0.5527 -8.9385 2.2407
1.4886 -8.3850 2.2407
1.6978 -3.8656 1.1772
1.8120 -2.3692 0.8845
2.2044 -1.7742 0.8922
3.2077 -1.4951 1.1821
6.2540 -1.2236 2.2407
6.0972 0.3120 2.2407
5.6508 1.7279 2.2407
4.9519 2.9908 2.2407
4.0332 4.0745 2.2407
2.9234 4.9549 2.2407
1.6497 5.6075 2.2407
0.1233 3.0789 1.1490
-0.6522 3.1388 1.1502
-2.6472 5.5018 2.0883
-4.1100 4.9735 2.0883
-5.4979 4.0884 2.0883
-7.2038 3.0446 2.2407
-8.1974 1.3342 2.2407
-8.7428 -0.6693 2.2407
-8.7180 -2.8270 2.2407
-8.0521 -4.9409 2.2407
-6.3008 -6.3205 2.0883
-4.9598 -8.1397 2.2407
-2.8487 -8.8755 2.2407
-0.6602 -8.9514 2.2407
1.3925 -8.4251 2.2407
1.6911 -3.9784 1.2017
1.7883 -2.3972 0.8841
2.1885 -1.8052 0.8918
3.0937 -1.4878 1.1434
6.2535 -1.3027 2.2407
6.1123 0.2378 2.2407
5.6795 1.6605 2.2407
4.9924 2.9317 2.2407
4.0838 4.0250 2.2407
2.9829 4.9161 2.2407
1.7169 5.5807 2.2407
0.1609 3.0719 1.1489
-0.6125 3.1395 1.1502
-2.5872 5.5484 2.0994
-4.0378 5.0083 2.0883
-5.4316 4.1414 2.0883
-7.1449 3.1208 2.2407
-8.1572 1.4275 2.2407
-8.7282 -0.5640 2.2407
-8.7342 -2.7182 2.2407
-8.1008 -4.8398 2.2407
-6.3735 -6.2441 2.0883
-5.0592 -8.0858 2.2407
-2.9581 -8.8545 2.2407
-0.7679 -8.9627 2.2407
1.2959 -8.4640 2.2407
1.6840 -4.0970 1.2277
1.7822 -2.4497 0.8928
2.1722 -1.8361 0.8914
2.9864 -1.4809 1.1073
6.2521 -1.3822 2.2407
6.1266 0.1632 2.2407
5.7074 1.5927 2.2407
5.0322 2.8722 2.2407
4.1341 3.9749 2.2407
3.0422 4.8767 2.2407
1.7836 5.5532 2.2407
0.1982 3.0646 1.1489
-0.5728 3.1399 1.1501
-1.3785 3.0526 1.1515
-3.9657 5.0421 2.0883
-5.3650 4.1934 2.0883
-7.0851 3.1962 2.2407
-8.1159 1.5201 2.2407
-8.7122 -0.4593 2.2407
-8.7487 -2.6096 2.2407
-8.1479 -4.7379 2.2407
-6.4450 -6.1664 2.0883
-5.1576 -8.0304 2.2407
-3.0672 -8.8318 2.2407
-0.8761 -8.9725 2.2407
1.1984 -8.5017 2.2407
1.6766 -4.2213 1.2551
1.7787 -2.5075 0.9032
2.1555 -1.8669 0.8910
2.8851 -1.4745 1.0732
6.2500 -1.4616 2.2407
6.1402 0.0884 2.2407
5.7348 1.5245 2.2407
5.0716 2.8122 2.2407
4.1838 3.9243 2.2407
3.1009 4.8368 2.2407
1.8501 5.5252 2.2407
0.2355 3.0569 1.1488
-0.5333 3.1398 1.1500
-1.3378 3.0611 1.1515
-3.8932 5.0750 2.0883
-5.2980 4.2446 2.0883
-7.0247 3.2704 2.2407
-8.0736 1.6119 2.2407
-8.6947 -0.3548 2.2407
-8.7617 -2.5007 2.2407
-8.1934 -4.6356 2.2407
-6.5152 -6.0877 2.0883
-5.2553 -7.9733 2.2407
-3.1761 -8.8074 2.2407
-0.9844 -8.9807 2.2407
1.1003 -8.5381 2.2407
1.6688 -4.3522 1.2842
1.7752 -2.5671 0.9141
2.1384 -1.8976 0.8906
2.7894 -1.4684 1.0413
6.2470 -1.5414 2.2407
6.1530 0.0133 2.2407
5.7614 1.4561 2.2407
5.1103 2.7518 2.2407
4.2331 3.8732 2.2407
3.1593 4.7963 2.2407
1.9162 5.4965 2.2407
0.2726 3.0489 1.1487
-0.4938 3.1394 1.1500
-1.2971 3.0692 1.1514
-3.8207 5.1071 2.0883
-5.2306 4.2947 2.0883
-6.9634 3.3439 2.2407
-8.0301 1.7030 2.2407
-8.6759 -0.2510 2.2407
-8.7730 -2.3920 2.2407
-8.2373 -4.5325 2.2407
-6.5842 -6.0078 2.0883
-5.3520 -7.9149 2.2407
-3.2846 -8.7814 2.2407
-1.0932 -8.9874 2.2407
1.0014 -8.5733 2.2407
1.6606 -4.4901 1.3150
1.7715 -2.6284 0.9255
2.1209 -1.9282 0.8902
2.6987 -1.4626 1.0111
6.2432 -1.6212 2.2407
6.1651 -0.0621 2.2407
5.7875 1.3871 2.2407
5.1485 2.6909 2.2407
4.2818 3.8217 2.2407
3.2172 4.7552 2.2407
1.9820 5.4672 2.2407
0.3096 3.0404 1.1487
-0.4544 3.1385 1.1499
-1.2565 3.0768 1.1513
-3.7480 5.1382 2.0883
-5.1628 4.3441 2.0883
-6.9015 3.4164 2.2407
-7.9857 1.7931 2.2407
-8.6557 -0.1474 2.2407
-8.7828 -2.2831 2.2407
-8.2796 -4.4289 2.2407
-7.1374 -6.3596 2.2407
-5.4479 -7.8547 2.2407
-3.3930 -8.7537 2.2407
-1.2022 -8.9925 2.2407
0.9019 -8.6072 2.2407
1.6519 -4.6357 1.3478
1.7678 -2.6918 0.9374
2.1031 -1.9587 0.8898
2.6127 -1.4571 0.9826
6.2385 -1.7013 2.2407
6.1765 -0.1378 2.2407
5.8129 1.3178 2.2407
5.1861 2.6297 2.2407
4.3301 3.7697 2.2407
3.2747 4.7136 2.2407
2.0474 5.4372 2.2407
0.3464 3.0317 1.1486
-0.4151 3.1372 1.1498
-1.2158 3.0840 1.1512
-3.6751 5.1686 2.0883
-5.0947 4.3924 2.0883
-6.8390 3.4878 2.2407
-7.9401 1.8826 2.2407
-8.6341 -0.0444 2.2407
-8.7909 -2.1744 2.2407
-8.3202 -4.3248 2.2407
-7.2087 -6.2717 2.2407
-5.5429 -7.7931 2.2407
-3.5008 -8.7244 2.2407
-1.3113 -8.9960 2.2407
0.8016 -8.6398 2.2407
1.6428 -4.7898 1.3827
1.7639 -2.7571 0.9498
2.0848 -1.9890 0.8894
2.5309 -1.4519 0.9557
6.2329 -1.7815 2.2407
6.1871 -0.2137 2.2407
5.8376 1.2483 2.2407
5.2232 2.5679 2.2407
4.3779 3.7171 2.2407
3.3318 4.6714 2.2407
2.1124 5.4067 2.2407
0.3830 3.0225 1.1486
-0.3759 3.1356 1.1498
-1.1753 3.0907 1.1511
-3.6022 5.1979 2.0883
-5.0262 4.4399 2.0883
-6.7756 3.5584 2.2407
-7.8936 1.9712 2.2407
-8.6112 0.0579 2.2407
-8.7975 -2.0656 2.2407
-8.3593 -4.2201 2.2407
-7.2785 -6.1828 2.2407
-5.6368 -7.7301 2.2407
-3.6085 -8.6933 2.2407
-1.4207 -8.9980 2.2407
0.7009 -8.6711 2.2407
1.6330 -4.9528 1.4198
1.7598 -2.8247 0.9627
2.0662 -2.0192 0.8890
2.4532 -1.4470 0.9302
6.2265 -1.8618 2.2407
6.1969 -0.2900 2.2407
5.8617 1.1782 2.2407
5.2596 2.5058 2.2407
4.4251 3.6641 2.2407
3.3884 4.6287 2.2407
2.1771 5.3755 2.2407
0.8184 5.8783 2.2407
-0.3368 3.1335 1.1497
-1.1347 3.0970 1.1511
-3.5291 5.2265 2.0883
-4.9574 4.4864 2.0883
-6.7118 3.6280 2.2407
-7.8461 2.0590 2.2407
-8.5869 0.1599 2.2407
-8.8025 -1.9570 2.2407
-8.3967 -4.1151 2.2407
-7.3470 -6.0928 2.2407
-5.7299 -7.6655 2.2407
-3.7156 -8.6606 2.2407
-1.5302 -8.9983 2.2407
0.5993 -8.7011 2.2407
1.6227 -5.1261 1.4596
1.7557 -2.8946 0.9763
2.0471 -2.0492 0.8886
2.3790 -1.4423 0.9060
6.2192 -1.9423 2.2407
6.2060 -0.3664 2.2407
5.8851 1.1079 2.2407
5.2955 2.4432 2.2407
4.4719 3.6105 2.2407
3.4446 4.5855 2.2407
2.2413 5.3437 2.2407
0.8895 5.8593 2.2407
-0.2978 3.1311 1.1496
-1.0942 3.1028 1.1510
-3.4560 5.2541 2.0883
-4.8882 4.5320 2.0883
-6.1951 3.4452 2.0883
-7.7976 2.1459 2.2407
-8.5614 0.2611 2.2407
-8.8059 -1.8484 2.2407
-8.4325 -4.0095 2.2407
-4.8594 -3.9339 1.4686
-5.8219 -7.5995 2.2407
-3.8224 -8.6262 2.2407
-1.6400 -8.9971 2.2407
0.4973 -8.7296 2.2407
1.6118 -5.3103 1.5021
1.7514 -2.9669 0.9905
2.0277 -2.0792 0.8882
2.3426 -1.4591 0.8962
6.2111 -2.0228 2.2407
6.2143 -0.4432 2.2407
5.9078 1.0372 2.2407
5.3308 2.3803 2.2407
4.5181 3.5566 2.2407
3.5004 4.5416 2.2407
2.3053 5.3113 2.2407
0.9601 5.8398 2.2407
-0.2590 3.1282 1.1496
-1.0537 3.1082 1.1509
-3.3827 5.2809 2.0883
-4.8188 4.5767 2.0883
-6.1343 3.5082 2.0883
-7.7480 2.2321 2.2407
-8.5345 0.3619 2.2407
-8.8078 -1.7402 2.2407
-8.4666 -3.9036 2.2407
-4.8943 -3.8671 1.4662
-5.9129 -7.5320 2.2407
-3.9286 -8.5902 2.2407
-1.7497 -8.9943 2.2407
0.3946 -8.7570 2.2407
1.6000 -5.5069 1.5477
1.7469 -3.0418 1.0053
2.0079 -2.1089 0.8879
2.3305 -1.4910 0.8958
6.2020 -2.1036 2.2407
6.2218 -0.5202 2.2407
5.9299 0.9662 2.2407
5.3655 2.3168 2.2407
4.5639 3.5021 2.2407
3.5557 4.4973 2.2407
2.3688 5.2784 2.2407
1.0305 5.8195 2.2407
-0.2202 3.1250 1.1495
-1.0133 3.1132 1.1509
-3.3095 5.3068 2.0883
-4.7490 4.6205 2.0883
-6.0730 3.5699 2.0883
-7.6976 2.3172 2.2407
-8.5063 0.4620 2.2407
-8.8081 -1.6319 2.2407
-8.4991 -3.7971 2.2407
-7.5436 -5.8169 2.2407
-6.0028 -7.4632 2.2407
-4.0344 -8.5525 2.2407
-1.8597 -8.9898 2.2407
0.2914 -8.7828 2.2407
1.5875 -5.7168 1.5966
1.7423 -3.1195 1.0209
1.9877 -2.1385 0.8875
2.3180 -1.5227 0.8954
6.1921 -2.1844 2.2407
6.2286 -0.5975 2.2407
5.9513 0.8948 2.2407
5.3996 2.2530 2.2407
4.6091 3.4472 2.2407
3.6106 4.4524 2.2407
2.4320 5.2448 2.2407
1.1005 5.7986 2.2407
-0.1815 3.1214 1.1494
-0.9730 3.1177 1.1508
-3.2360 5.3319 2.0883
-4.6791 4.6633 2.0883
-6.0111 3.6315 2.0883
-7.6462 2.4017 2.2407
-8.4769 0.5616 2.2407
-8.8069 -1.5239 2.2407
-8.5299 -3.6905 2.2407
-7.6063 -5.7229 2.2407
-6.0917 -7.3928 2.2407
-4.1397 -8.5132 2.2407
-1.9696 -8.9837 2.2407
0.1875 -8.8073 2.2407
1.5741 -5.9420 1.6494
1.7375 -3.2000 1.0372
1.9671 -2.1680 0.8871
2.3051 -1.5544 0.8950
6.1813 -2.2653 2.2407
6.2345 -0.6749 2.2407
5.9719 0.8232 2.2407
5.4332 2.1888 2.2407
4.6538 3.3917 2.2407
3.6650 4.4070 2.2407
2.4948 5.2106 2.2407
1.1703 5.7770 2.2407
-0.1430 3.1174 1.1494
-0.9327 3.1218 1.1507
-3.1626 5.3561 2.0883
-4.6087 4.7053 2.0883
-5.9487 3.6919 2.0883
-7.5940 2.4851 2.2407
-8.4462 0.6605 2.2407
-8.8041 -1.4160 2.2407
-8.5592 -3.5833 2.2407
-7.6673 -5.6281 2.2407
-6.1793 -7.3212 2.2407
-4.2445 -8.4722 2.2407
-2.0797 -8.9759 2.2407
0.0833 -8.8304 2.2407
2.0481 -8.1200 2.2407
1.7325 -3.2838 1.0544
1.9461 -2.1973 0.8867
2.2919 -1.5860 0.8946
6.1696 -2.3463 2.2407
6.2397 -0.7526 2.2407
5.9920 0.7511 2.2407
5.4661 2.1242 2.2407
4.6980 3.3359 2.2407
3.7190 4.3611 2.2407
2.5572 5.1758 2.2407
1.2397 5.7548 2.2407
-0.1046 3.1130 1.1493
-0.8924 3.1255 1.1506
-3.0891 5.3794 2.0883
-4.2537 4.4487 1.9574
-5.8858 3.7512 2.0883
-7.5408 2.5678 2.2407
-8.4142 0.7588 2.2407
-8.7998 -1.3085 2.2407
-8.5868 -3.4761 2.2407
-7.7269 -5.5323 2.2407
-5.8398 -6.7551 2.0883
-4.3485 -8.4296 2.2407
-2.1897 -8.9666 2.2407
-0.0216 -8.8521 2.2407
1.9568 -8.1670 2.2407
1.7273 -3.3708 1.0723
1.9247 -2.2264 0.8863
2.2783 -1.6176 0.8942
6.1570 -2.4274 2.2407
6.2441 -0.8305 2.2407
6.0112 0.6788 2.2407
5.4984 2.0591 2.2407
4.7417 3.2795 2.2407
3.7725 4.3145 2.2407
2.6192 5.1405 2.2407
1.3089 5.7318 2.2407
-0.0663 3.1083 1.1493
-0.8522 3.1288 1.1506
-3.0155 5.4019 2.0883
-4.4674 4.7864 2.0883
-5.8223 3.8097 2.0883
-7.4867 2.6496 2.2407
-8.3811 0.8563 2.2407
-8.7940 -1.2012 2.2407
-8.6127 -3.3684 2.2407
-7.7850 -5.4357 2.2407
-5.9194 -6.6858 2.0883
-4.4522 -8.3853 2.2407
-2.2998 -8.9555 2.2407
-0.1253 -8.1001 2.2407
1.6983 -7.5301 2.2407
1.7211 -3.4745 1.1890
1.8005 -2.1416 0.9090
2.1005 -1.5356 0.8950
3.7275 -1.5295 1.4621
5.8274 -0.8567 2.2407
5.6375 0.5595 2.2407
5.1787 1.8617 2.2407
4.4845 3.0173 2.2407
3.5854 3.9995 2.2407
2.5098 4.7837 2.2407
1.2853 5.3450 2.2407
-0.0297 2.9015 1.1494
-0.7621 2.9210 1.1506
-2.7462 5.0427 2.0883
-4.0862 4.4695 2.0883
-5.3285 3.5652 2.0883
-6.8454 2.5023 2.2407
-7.6528 0.8631 2.2407
-8.0222 -1.0081 2.2407
-7.8584 -2.9736 2.2407
-6.6348 -4.5207 2.0883
-5.4422 -6.0022 2.0883
-4.1390 -7.5702 2.2407
-2.1991 -8.1352 2.2407
-0.2218 -8.1157 2.2407
1.6129 -7.5694 2.2407
1.7155 -3.5695 1.2110
1.7976 -2.1909 0.9181
2.0868 -1.5645 0.8947
3.5802 -1.5201 1.4078
5.8292 -0.9298 2.2407
5.6537 0.4911 2.2407
5.2074 1.7998 2.2407
4.5243 2.9634 2.2407
3.6348 3.9549 2.2407
2.5674 4.7496 2.2407
1.3497 5.3227 2.2407
0.0059 2.8967 1.1493
-0.7247 2.9237 1.1506
-2.6780 5.0629 2.0883
-4.0208 4.5059 2.0883
-5.2701 3.6184 2.0883
-6.7956 2.5765 2.2407
-7.6219 0.9515 2.2407
-8.0158 -0.9110 2.2407
-7.8802 -2.8758 2.2407
-6.6818 -4.4381 2.0883
-5.5124 -5.9371 2.0883
-4.2314 -7.5266 2.2407
-2.2987 -8.1211 2.2407
-0.3186 -8.1299 2.2407
1.5268 -7.6077 2.2407
1.7096 -3.6686 1.2341
1.7946 -2.2415 0.9275
2.0727 -1.5933 0.8943
3.4428 -1.5113 1.3574
5.8302 -1.0031 2.2407
5.6692 0.4224 2.2407
5.2357 1.7376 2.2407
4.5636 2.9091 2.2407
3.6837 3.9098 2.2407
2.6245 4.7149 2.2407
1.4137 5.2997 2.2407
0.0414 2.8915 1.1493
-0.6875 2.9260 1.1505
-2.6229 5.1075 2.0987
-3.9552 4.5416 2.0883
-5.2112 3.6707 2.0883
-6.2863 2.4696 2.0883
-7.5900 1.0393 2.2407
-8.0080 -0.8141 2.2407
-7.9006 -2.7778 2.2407
-6.7275 -4.3548 2.0883
-5.5815 -5.8710 2.0883
-4.3231 -7.4816 2.2407
-2.3981 -8.1054 2.2407
-0.4157 -8.1428 2.2407
1.4401 -7.6449 2.2407
1.7034 -3.7722 1.2585
1.7915 -2.2934 0.9373
2.0583 -1.6221 0.8939
3.3143 -1.5030 1.3105
5.8305 -1.0765 2.2407
5.6840 0.3534 2.2407
5.2633 1.6750 2.2407
4.6023 2.8544 2.2407
3.7322 3.8642 2.2407
2.6813 4.6797 2.2407
1.4774 5.2761 2.2407
0.0768 2.8859 1.1492
-0.6503 2.9278 1.1504
-1.4018 2.8135 1.1518
-3.8894 4.5763 2.0883
-5.1518 3.7222 2.0883
-6.2384 2.5372 2.0883
-7.5569 1.1265 2.2407
-7.9989 -0.7175 2.2407
-7.9194 -2.6796 2.2407
-6.7719 -4.2709 2.0883
-5.6496 -5.8039 2.0883
-4.4142 -7.4351 2.2407
-2.4974 -8.0883 2.2407
-0.5132 -8.1543 2.2407
1.3526 -7.6811 2.2407
1.6969 -3.8806 1.2842
1.7883 -2.3467 0.9475
2.0436 -1.6507 0.8936
3.1938 -1.4953 1.2666
5.8300 -1.1501 2.2407
5.6981 0.2842 2.2407
5.2903 1.6120 2.2407
4.6406 2.7992 2.2407
3.7802 3.8182 2.2407
2.7378 4.6439 2.2407
1.5408 5.2519 2.2407
0.1121 2.8800 1.1492
-0.6131 2.9293 1.1504
-1.3641 2.8231 1.1517
-3.8233 4.6103 2.0883
-5.0921 3.7728 2.0883
-6.1899 2.6040 2.0883
-7.5228 1.2130 2.2407
-7.9885 -0.6212 2.2407
-7.9369 -2.5813 2.2407
-6.8151 -4.1864 2.0883
-5.7167 -5.7357 2.0883
-4.5046 -7.3872 2.2407
-2.5965 -8.0696 2.2407
-0.6110 -8.1645 2.2407
1.2645 -7.7161 2.2407
1.6902 -3.9941 1.3113
1.7851 -2.4015 0.9582
2.0284 -1.6793 0.8932
3.0805 -1.4880 1.2256
5.8287 -1.2239 2.2407
5.7116 0.2147 2.2407
5.3167 1.5488 2.2407
4.6784 2.7440 2.2407
3.8278 3.7716 2.2407
2.7938 4.6076 2.2407
1.6038 5.2271 2.2407
0.1473 2.8738 1.1491
-0.5760 2.9304 1.1503
-1.3264 2.8324 1.1517
-3.7571 4.6434 2.0883
-5.0319 3.8226 2.0883
-6.1406 2.6697 2.0883
-7.4876 1.2989 2.2407
-7.9768 -0.5252 2.2407
-7.9529 -2.4829 2.2407
-7.3573 -4.4007 2.2407
-5.7827 -5.6665 2.0883
-4.5943 -7.3380 2.2407
-2.6954 -8.0495 2.2407
-0.7090 -8.1733 2.2407
1.1758 -7.7500 2.2407
1.6831 -4.1132 1.3400
1.7817 -2.4580 0.9693
2.0129 -1.7077 0.8928
2.9739 -1.4812 1.1871
5.8266 -1.2978 2.2407
5.7243 0.1449 2.2407
5.3425 1.4851 2.2407
4.7155 2.6877 2.2407
3.8749 3.7245 2.2407
2.8494 4.5707 2.2407
1.6666 5.2016 2.2407
0.1823 2.8672 1.1491
-0.5390 2.9311 1.1502
-1.2886 2.8412 1.1516
-3.6907 4.6757 2.0883
-4.9713 3.8716 2.0883
-6.0907 2.7353 2.0883
-7.4514 1.3841 2.2407
-7.9638 -0.4296 2.2407
-7.9674 -2.3844 2.2407
-7.4008 -4.3088 2.2407
-5.8476 -5.5963 2.0883
-4.6833 -7.2874 2.2407
-2.7941 -8.0279 2.2407
-0.8074 -8.1807 2.2407
1.0864 -7.7828 2.2407
1.6756 -4.2383 1.3703
1.7782 -2.5160 0.9808
1.9971 -1.7360 0.8925
2.8732 -1.4747 1.1509
5.8237 -1.3718 2.2407
5.7364 0.0749 2.2407
5.3677 1.4211 2.2407
4.7522 2.6313 2.2407
3.9216 3.6770 2.2407
2.9047 4.5333 2.2407
1.7290 5.1756 2.2407
0.2172 2.8602 1.1490
-0.5021 2.9314 1.1502
-1.2509 2.8496 1.1515
-3.6241 4.7072 2.0883
-4.9103 3.9198 2.0883
-6.0401 2.7998 2.0883
-7.4143 1.4687 2.2407
-7.9495 -0.3343 2.2407
-7.9805 -2.2858 2.2407
-7.4428 -4.2163 2.2407
-5.9114 -5.5252 2.0883
-4.7715 -7.2353 2.2407
-2.8926 -8.0048 2.2407
-0.9059 -8.1868 2.2407
0.9964 -7.8145 2.2407
1.6678 -4.3700 1.4024
1.7747 -2.5758 0.9929
1.9809 -1.7642 0.8921
2.7781 -1.4687 1.1169
5.8201 -1.4460 2.2407
5.7477 0.0046 2.2407
5.3922 1.3568 2.2407
4.7883 2.5744 2.2407
3.9678 3.6290 2.2407
2.9595 4.4954 2.2407
1.7912 5.1490 2.2407
0.2520 2.8529 1.1490
-0.4652 2.9314 1.1501
-1.2131 2.8576 1.1514
-3.5573 4.7379 2.0883
-4.8489 3.9671 2.0883
-5.9889 2.8635 2.0883
-7.3761 1.5525 2.2407
-7.9340 -0.2395 2.2407
-7.9922 -2.1871 2.2407
-7.4835 -4.1233 2.2407
-5.9741 -5.4531 2.0883
-4.5285 -6.6935 2.0883
-2.9908 -7.9802 2.2407
-1.0047 -8.1914 2.2407
0.9059 -7.8450 2.2407
1.6595 -4.5088 1.4365
1.7710 -2.6374 1.0055
1.9644 -1.7923 0.8918
2.6879 -1.4629 1.0848
5.8156 -1.5203 2.2407
5.7583 -0.0659 2.2407
5.4162 1.2921 2.2407
4.8239 2.5172 2.2407
4.0135 3.5806 2.2407
3.0139 4.4569 2.2407
1.8529 5.1217 2.2407
0.2867 2.8453 1.1489
-0.4284 2.9309 1.1500
-1.1754 2.8651 1.1514
-3.4904 4.7677 2.0883
-4.7871 4.0135 2.0883
-5.9370 2.9264 2.0883
-7.3369 1.6357 2.2407
-7.9172 -0.1450 2.2407
-8.0024 -2.0884 2.2407
-7.5227 -4.0298 2.2407
-6.0357 -5.3800 2.0883
-4.6093 -6.6425 2.0883
-3.0887 -7.9542 2.2407
-1.1037 -8.1947 2.2407
0.8147 -7.8743 2.2407
1.6508 -4.6553 1.4728
1.7672 -2.7010 1.0187
1.9475 -1.8202 0.8914
2.6024 -1.4574 1.0545
5.8103 -1.5947 2.2407
5.7683 -0.1367 2.2407
5.4395 1.2271 2.2407
4.8590 2.4596 2.2407
4.0587 3.5316 2.2407
3.0680 4.4179 2.2407
1.9144 5.0939 2.2407
0.3212 2.8373 1.1489
-0.3917 2.9301 1.1500
-1.1377 2.8723 1.1513
-3.4233 4.7967 2.0883
-4.7250 4.0592 2.0883
-5.8845 2.9885 2.0883
-7.2967 1.7182 2.2407
-7.8991 -0.0509 2.2407
-8.0112 -1.9898 2.2407
-7.5604 -3.9358 2.2407
-6.0961 -5.3060 2.0883
-4.6893 -6.5902 2.0883
-3.1863 -7.9266 2.2407
-1.2029 -8.1965 2.2407
0.7230 -7.9024 2.2407
1.6415 -4.8103 1.5114
1.7633 -2.7667 1.0324
1.9302 -1.8481 0.8910
2.5211 -1.4522 1.0258
5.8043 -1.6692 2.2407
5.7775 -0.2077 2.2407
5.4622 1.1618 2.2407
4.8935 2.4016 2.2407
4.1035 3.4822 2.2407
3.1216 4.3784 2.2407
1.9755 5.0655 2.2407
0.3556 2.8290 1.1488
-0.3551 2.9289 1.1499
-1.1000 2.8790 1.1512
-3.3561 4.8250 2.0883
-4.6625 4.1040 2.0883
-5.8314 3.0499 2.0883
-7.2557 1.8000 2.2407
-7.8798 0.0427 2.2407
-8.0186 -1.8912 2.2407
-7.5968 -3.8412 2.2407
-6.1554 -5.2312 2.0883
-4.7685 -6.5367 2.0883
-3.2835 -7.8976 2.2407
-1.3022 -8.1969 2.2407
0.6307 -7.9294 2.2407
1.6115 -4.9129 1.5333
1.7593 -2.8345 1.0468
1.9126 -1.8758 0.8907
2.4438 -1.4473 0.9987
5.7974 -1.7439 2.2407
5.7860 -0.2790 2.2407
5.4843 1.0961 2.2407
4.9274 2.3431 2.2407
4.1478 3.4324 2.2407
3.1748 4.3383 2.2407
2.0363 5.0365 2.2407
0.7604 5.5012 2.2407
-0.3186 2.9274 1.1499
-1.0623 2.8853 1.1512
-3.2887 4.8524 2.0883
-4.5997 4.1479 2.0883
-5.7778 3.1104 2.0883
-7.2136 1.8810 2.2407
-7.8593 0.1359 2.2407
-8.0246 -1.7926 2.2407
-7.6316 -3.7463 2.2407
-6.2135 -5.1555 2.0883
-4.8469 -6.4821 2.0883
-3.3804 -7.8671 2.2407
-1.4017 -8.1958 2.2407
0.5379 -7.9551 2.2407
1.5715 -4.9905 1.5473
1.7551 -2.9047 1.0618
1.8946 -1.9033 0.8903
2.3700 -1.4426 0.9730
5.7897 -1.8186 2.2407
5.7937 -0.3504 2.2407
5.5057 1.0301 2.2407
4.9608 2.2843 2.2407
4.1916 3.3821 2.2407
3.2276 4.2978 2.2407
2.0967 5.0069 2.2407
0.8270 5.4839 2.2407
-0.2821 2.9254 1.1498
-1.0247 2.8912 1.1511
-3.2212 4.8790 2.0883
-4.5365 4.1910 2.0883
-5.7235 3.1701 2.0883
-7.1707 1.9613 2.2407
-7.8376 0.2286 2.2407
-8.0292 -1.6940 2.2407
-7.6651 -3.6509 2.2407
-4.8607 -3.9371 1.6187
-4.9244 -6.4261 2.0883
-3.4769 -7.8351 2.2407
-1.5012 -8.1933 2.2407
0.4446 -7.9796 2.2407
1.6103 -5.3345 1.6435
1.7508 -2.9773 1.0775
1.8762 -1.9307 0.8900
2.2996 -1.4381 0.9486
5.7812 -1.8935 2.2407
5.8008 -0.4221 2.2407
5.5265 0.9638 2.2407
4.9936 2.2251 2.2407
4.2349 3.3313 2.2407
3.2800 4.2567 2.2407
2.1568 4.9767 2.2407
0.8933 5.4660 2.2407
-0.2458 2.9231 1.1497
-0.9870 2.8967 1.1510
-3.1536 4.9047 2.0883
-4.4731 4.2333 2.0883
-5.6687 3.2290 2.0883
-7.1268 2.0409 2.2407
-7.8147 0.3208 2.2407
-8.0323 -1.5956 2.2407
-7.6971 -3.5552 2.2407
-4.8921 -3.8677 1.6149
-5.0011 -6.3690 2.0883
-3.5729 -7.8017 2.2407
-1.6008 -8.1894 2.2407
0.3508 -8.0028 2.2407
1.5985 -5.5325 1.6939
1.7463 -3.0526 1.0940
1.8575 -1.9580 0.8896
2.2323 -1.4338 0.9253
5.7718 -1.9684 2.2407
5.8071 -0.4940 2.2407
5.5466 0.8972 2.2407
5.0259 2.1655 2.2407
4.2777 3.2801 2.2407
3.3320 4.2151 2.2407
2.2165 4.9460 2.2407
0.9593 5.4474 2.2407
-0.2095 2.9204 1.1497
-0.9495 2.9017 1.1510
-3.0860 4.9297 2.0883
-4.4093 4.2748 2.0883
-5.6133 3.2870 2.0883
-7.0821 2.1197 2.2407
-7.7906 0.4125 2.2407
-8.0341 -1.4973 2.2407
-7.7276 -3.4590 2.2407
-6.3807 -4.9233 2.0883
-5.0769 -6.3108 2.0883
-3.6685 -7.7667 2.2407
-1.7005 -8.1841 2.2407
0.2565 -8.0249 2.2407
1.5859 -5.7441 1.7481
1.7416 -3.1306 1.1112
1.8385 -1.9851 0.8893
2.1679 -1.4296 0.9032
5.7617 -2.0434 2.2407
5.8126 -0.5662 2.2407
5.5661 0.8303 2.2407
5.0576 2.1055 2.2407
4.3201 3.2284 2.2407
3.3835 4.1730 2.2407
2.2759 4.9147 2.2407
1.0251 5.4282 2.2407
-0.1734 2.9174 1.1496
-0.9119 2.9064 1.1509
-3.0182 4.9539 2.0883
-4.3452 4.3154 2.0883
-5.5574 3.3443 2.0883
-7.0364 2.1978 2.2407
-7.7653 0.5037 2.2407
-8.0345 -1.3991 2.2407
-7.7567 -3.3626 2.2407
-6.4340 -4.8443 2.0883
-5.1518 -6.2513 2.0883
-3.7636 -7.7304 2.2407
-1.8003 -8.1772 2.2407
0.1617 -8.0456 2.2407
1.5724 -5.9710 1.8065
1.7368 -3.2116 1.1293
1.8191 -2.0120 0.8889
2.1395 -1.4483 0.8962
5.7506 -2.1184 2.2407
5.8174 -0.6385 2.2407
5.5849 0.7630 2.2407
5.0887 2.0451 2.2407
4.3619 3.1763 2.2407
3.4346 4.1304 2.2407
2.3349 4.8828 2.2407
1.0906 5.4084 2.2407
-0.1373 2.9139 1.1496
-0.8744 2.9107 1.1508
-2.9503 4.9773 2.0883
-4.2809 4.3551 2.0883
-5.5009 3.4008 2.0883
-6.9899 2.2751 2.2407
-7.7389 0.5944 2.2407
-8.0335 -1.3011 2.2407
-7.7843 -3.2658 2.2407
-6.4860 -4.7645 2.0883
