ply
format ascii 1.0
element vertex 2175
property float32 x
property float32 y
property float32 z
end_header
0.0407 -6.8546 2.2410
1.4449 -5.8355 2.0517
1.7328 -3.3242 1.3434
2.3157 -2.6426 1.3256
4.6241 -3.2365 2.2410
5.0192 -1.9378 2.2410
5.1174 -0.6404 2.2410
4.9443 0.6018 2.2410
4.5290 1.7471 2.2410
3.9002 2.7625 2.2410
3.0861 3.6203 2.2410
2.1141 4.2957 2.2410
1.0124 4.7645 2.2410
-0.0962 2.5664 1.1498
-0.7438 2.5593 1.1509
-1.4002 2.4089 1.1522
-3.6852 3.8121 2.0886
-4.7228 2.9743 2.0886
-5.5707 1.8658 2.0886
-6.1419 0.5269 2.0886
-6.3540 -0.9674 2.0886
-6.1469 -2.5057 2.0886
-5.5025 -3.9500 2.0886
-4.4583 -5.1571 2.0886
-3.3349 -6.4449 2.2410
-1.7013 -6.8947 2.2410
-0.0404 -6.8678 2.2410
1.3805 -5.8729 2.0542
1.7254 -3.4085 1.3656
2.2557 -2.6372 1.3059
4.5962 -3.3003 2.2410
5.0067 -2.0032 2.2410
5.1191 -0.7043 2.2410
4.9590 0.5417 2.2410
4.5550 1.6927 2.2410
3.9363 2.7152 2.2410
3.1308 3.5816 2.2410
2.1660 4.2667 2.2410
1.0701 4.7463 2.2410
-0.0645 2.5632 1.1498
-0.7110 2.5630 1.1509
-1.3676 2.4200 1.1521
-3.6298 3.8466 2.0886
-4.6747 3.0228 2.0886
-5.5342 1.9272 2.0886
-6.1212 0.5983 2.0886
-6.3530 -0.8906 2.0886
-6.1677 -2.4298 2.0886
-5.5448 -3.8823 2.0886
-4.5188 -5.1044 2.0886
-3.4130 -6.4099 2.2410
-1.7849 -6.8836 2.2410
-0.1218 -6.8800 2.2410
1.3220 -5.9395 2.0671
1.7177 -3.4961 1.3889
2.1971 -2.6319 1.2868
3.7657 -2.7735 1.8476
4.9934 -2.0686 2.2410
5.1202 -0.7684 2.2410
4.9730 0.4814 2.2410
4.5806 1.6379 2.2410
3.9719 2.6676 2.2410
3.1751 3.5424 2.2410
2.2176 4.2371 2.2410
1.1276 4.7276 2.2410
-0.0329 2.5597 1.1497
-0.6782 2.5663 1.1508
-1.3350 2.4307 1.1520
-3.5742 3.8804 2.0886
-4.6262 3.0707 2.0886
-5.4969 1.9880 2.0886
-6.0997 0.6693 2.0886
-6.3509 -0.8139 2.0886
-6.1874 -2.3537 2.0886
-5.5861 -3.8140 2.0886
-4.5785 -5.0508 2.0886
-3.4907 -6.3737 2.2410
-1.8685 -6.8714 2.2410
-0.2035 -6.8911 2.2410
1.3599 -6.4705 2.2410
1.7097 -3.5871 1.4133
2.1400 -2.6268 1.2684
3.6594 -2.7638 1.8071
4.9794 -2.1340 2.2410
5.1206 -0.8327 2.2410
4.9865 0.4208 2.2410
4.6056 1.5829 2.2410
4.0070 2.6196 2.2410
3.2190 3.5027 2.2410
2.2689 4.2070 2.2410
1.1848 4.7083 2.2410
-0.0013 2.5559 1.1497
-0.6455 2.5692 1.1507
-1.3023 2.4411 1.1520
-3.5183 3.9134 2.0886
-4.5772 3.1178 2.0886
-5.4590 2.0482 2.0886
-6.0773 0.7399 2.0886
-6.3478 -0.7373 2.0886
-6.2060 -2.2774 2.0886
-5.6263 -3.7451 2.0886
-4.6373 -4.9964 2.0886
-3.5678 -6.3364 2.2410
-1.9519 -6.8579 2.2410
-0.2854 -6.9011 2.2410
1.2860 -6.5009 2.2410
1.7014 -3.6819 1.4389
2.0842 -2.6218 1.2506
3.5572 -2.7546 1.7685
4.9647 -2.1994 2.2410
5.1203 -0.8970 2.2410
4.9993 0.3600 2.2410
4.6300 1.5275 2.2410
4.0417 2.5712 2.2410
3.2625 3.4626 2.2410
2.3198 4.1764 2.2410
1.2417 4.6884 2.2410
0.0301 2.5517 1.1496
-0.6127 2.5718 1.1507
-1.2696 2.4510 1.1519
-3.4622 3.9457 2.0886
-4.5277 3.1643 2.0886
-5.4205 2.1077 2.0886
-6.0540 0.8100 2.0886
-6.3437 -0.6611 2.0886
-6.2235 -2.2009 2.0886
-5.6655 -3.6757 2.0886
-4.6954 -4.9410 2.0886
-3.6444 -6.2980 2.2410
-2.0352 -6.8433 2.2410
-0.3676 -6.9100 2.2410
1.2116 -6.5304 2.2410
1.6927 -3.7806 1.4658
2.0296 -2.6169 1.2334
3.4588 -2.7457 1.7315
4.9491 -2.2648 2.2410
5.1194 -0.9614 2.2410
5.0115 0.2989 2.2410
4.6539 1.4718 2.2410
4.0759 2.5224 2.2410
3.3055 3.4221 2.2410
2.3704 4.1453 2.2410
1.2984 4.6680 2.2410
0.0615 2.5472 1.1496
-0.5801 2.5741 1.1506
-1.2368 2.4606 1.1518
-3.4058 3.9774 2.0886
-4.4778 3.2100 2.0886
-5.3813 2.1666 2.0886
-6.0298 0.8797 2.0886
-6.3385 -0.5848 2.0886
-6.2399 -2.1242 2.0886
-5.7036 -3.6058 2.0886
-4.7526 -4.8849 2.0886
-3.7205 -6.2583 2.2410
-2.1184 -6.8274 2.2410
-0.4499 -6.9177 2.2410
1.1367 -6.5589 2.2410
1.6837 -3.8837 1.4942
1.9763 -2.6121 1.2167
3.3641 -2.7371 1.6961
4.9329 -2.3301 2.2410
5.1177 -1.0260 2.2410
5.0230 0.2376 2.2410
4.6773 1.4157 2.2410
4.1096 2.4733 2.2410
3.3482 3.3810 2.2410
2.4207 4.1137 2.2410
1.3547 4.6470 2.2410
0.0927 2.5424 1.1495
-0.5474 2.5760 1.1506
-1.2040 2.4698 1.1518
-3.3493 4.0083 2.0886
-4.4276 3.2551 2.0886
-5.3414 2.2250 2.0886
-6.0047 0.9490 2.0886
-6.3323 -0.5089 2.0886
-6.2551 -2.0475 2.0886
-5.7407 -3.5353 2.0886
-4.8090 -4.8278 2.0886
-3.7959 -6.2176 2.2410
-2.2013 -6.8103 2.2410
-0.5326 -6.9243 2.2410
1.0612 -6.5865 2.2410
1.6742 -3.9913 1.5240
1.9242 -2.6074 1.2006
3.2726 -2.7289 1.6622
4.9158 -2.3954 2.2410
5.1153 -1.0906 2.2410
5.0340 0.1762 2.2410
4.7001 1.3595 2.2410
4.1428 2.4237 2.2410
3.3904 3.3396 2.2410
2.4705 4.0816 2.2410
1.4109 4.6255 2.2410
0.1239 2.5373 1.1495
-0.5148 2.5775 1.1505
-1.1712 2.4786 1.1517
-3.2924 4.0385 2.0886
-4.3769 3.2995 2.0886
-5.3010 2.2827 2.0886
-5.9789 1.0178 2.0886
-6.3250 -0.4330 2.0886
-6.2693 -1.9705 2.0886
-5.7767 -3.4644 2.0886
-4.8645 -4.7700 2.0886
-3.7071 -5.9144 2.1461
-2.2842 -6.7920 2.2410
-0.6153 -6.9298 2.2410
0.9854 -6.6132 2.2410
1.6643 -4.1039 1.5555
1.8731 -2.6028 1.1851
3.1844 -2.7209 1.6298
4.8980 -2.4606 2.2410
5.1122 -1.1554 2.2410
5.0443 0.1145 2.2410
4.7223 1.3030 2.2410
4.1755 2.3738 2.2410
3.4322 3.2977 2.2410
2.5201 4.0490 2.2410
1.4667 4.6034 2.2410
0.1549 2.5319 1.1494
-0.4823 2.5787 1.1505
-1.1383 2.4870 1.1517
-3.2355 4.0679 2.0886
-4.3258 3.3431 2.0886
-5.2598 2.3398 2.0886
-5.9522 1.0861 2.0886
-6.3168 -0.3575 2.0886
-6.2823 -1.8936 2.0886
-5.8117 -3.3930 2.0886
-4.9191 -4.7113 2.0886
-3.6769 -5.7157 2.0886
-2.3667 -6.7726 2.2410
-0.6983 -6.9341 2.2410
0.9089 -6.6388 2.2410
1.6539 -4.2218 1.5887
1.8232 -2.5984 1.1700
3.0990 -2.7132 1.5986
4.8795 -2.5258 2.2410
5.1084 -1.2202 2.2410
5.0539 0.0526 2.2410
4.7440 1.2460 2.2410
4.2078 2.3235 2.2410
3.4736 3.2555 2.2410
2.5693 4.0160 2.2410
1.5223 4.5807 2.2410
0.1859 2.5261 1.1494
-0.4498 2.5795 1.1504
-1.1055 2.4951 1.1516
-3.1782 4.0967 2.0886
-4.2743 3.3861 2.0886
-5.2182 2.3963 2.0886
-5.9247 1.1539 2.0886
-6.3076 -0.2821 2.0886
-6.2943 -1.8164 2.0886
-5.8456 -3.3212 2.0886
-4.9729 -4.6519 2.0886
-3.7456 -5.6746 2.0886
-2.4492 -6.7518 2.2410
-0.7814 -6.9373 2.2410
0.8321 -6.6635 2.2410
1.6431 -4.3455 1.6238
1.7943 -2.6234 1.1685
3.0165 -2.7057 1.5687
4.8602 -2.5909 2.2410
5.1039 -1.2852 2.2410
5.0630 -0.0095 2.2410
4.7651 1.1889 2.2410
4.2395 2.2729 2.2410
3.5146 3.2127 2.2410
2.6181 3.9824 2.2410
1.5775 4.5575 2.2410
0.2167 2.5201 1.1493
-0.4173 2.5800 1.1503
-1.0726 2.5027 1.1515
-3.1209 4.1248 2.0886
-4.2225 3.4283 2.0886
-5.1759 2.4521 2.0886
-5.8963 1.2213 2.0886
-6.2973 -0.2071 2.0886
-6.3052 -1.7393 2.0886
-5.8784 -3.2488 2.0886
-5.0257 -4.5916 2.0886
-3.8137 -5.6325 2.0886
-2.5313 -6.7299 2.2410
-0.8647 -6.9393 2.2410
0.7547 -6.6872 2.2410
1.6316 -4.4753 1.6609
1.7890 -2.6839 1.1828
2.9366 -2.6985 1.5400
4.8400 -2.6560 2.2410
5.0987 -1.3502 2.2410
5.0714 -0.0718 2.2410
4.7857 1.1314 2.2410
4.2707 2.2219 2.2410
3.5551 3.1696 2.2410
2.6666 3.9483 2.2410
1.6326 4.5337 2.2410
0.2475 2.5137 1.1493
-0.3849 2.5802 1.1503
-1.0397 2.5100 1.1515
-3.0633 4.1522 2.0886
-4.1702 3.4699 2.0886
-5.1330 2.5073 2.0886
-5.8672 1.2881 2.0886
-6.2861 -0.1322 2.0886
-6.3149 -1.6620 2.0886
-5.9102 -3.1760 2.0886
-5.0777 -4.5307 2.0886
-3.8812 -5.5893 2.0886
-2.6132 -6.7068 2.2410
-0.9482 -6.9402 2.2410
0.6770 -6.7099 2.2410
1.6196 -4.6120 1.7002
1.7835 -2.7463 1.1977
2.8592 -2.6915 1.5124
4.8192 -2.7209 2.2410
5.0928 -1.4153 2.2410
5.0791 -0.1343 2.2410
4.8056 1.0736 2.2410
4.3015 2.1705 2.2410
3.5953 3.1260 2.2410
2.7147 3.9138 2.2410
1.6873 4.5094 2.2410
0.2781 2.5070 1.1493
-0.3526 2.5800 1.1502
-1.0068 2.5170 1.1514
-3.0055 4.1789 2.0886
-4.1177 3.5108 2.0886
-5.0896 2.5618 2.0886
-5.8373 1.3545 2.0886
-6.2739 -0.0577 2.0886
-6.3236 -1.5848 2.0886
-5.9409 -3.1030 2.0886
-5.1287 -4.4689 2.0886
-3.9481 -5.5452 2.0886
-2.6947 -6.6825 2.2410
-1.0316 -6.9398 2.2410
0.5988 -6.7317 2.2410
1.6069 -4.7561 1.7420
1.7779 -2.8105 1.2132
2.7843 -2.6848 1.4859
4.7975 -2.7858 2.2410
5.0862 -1.4805 2.2410
5.0862 -0.1969 2.2410
4.8250 1.0156 2.2410
4.3317 2.1188 2.2410
3.6350 3.0820 2.2410
2.7624 3.8788 2.2410
1.7417 4.4846 2.2410
0.3086 2.5001 1.1492
-0.3203 2.5795 1.1502
-0.9740 2.5236 1.1513
-2.9476 4.2048 2.0886
-4.0647 3.5509 2.0886
-5.0455 2.6157 2.0886
-5.8066 1.4203 2.0886
-6.2607 0.0165 2.0886
-6.3312 -1.5075 2.0886
-5.9705 -3.0294 2.0886
-5.1788 -4.4065 2.0886
-4.0143 -5.5001 2.0886
-2.7760 -6.6570 2.2410
-1.1153 -6.9384 2.2410
0.5202 -6.7523 2.2410
1.5936 -4.9079 1.7862
1.7721 -2.8768 1.2295
2.7115 -2.6782 1.4603
4.7751 -2.8505 2.2410
5.0788 -1.5457 2.2410
5.0926 -0.2598 2.2410
4.8438 0.9573 2.2410
4.3614 2.0668 2.2410
3.6742 3.0376 2.2410
2.8098 3.8432 2.2410
1.7959 4.4592 2.2410
0.3390 2.4928 1.1492
-0.2881 2.5786 1.1501
-0.9410 2.5298 1.1513
-2.8895 4.2301 2.0886
-4.0115 3.5904 2.0886
-5.0010 2.6689 2.0886
-5.7751 1.4856 2.0886
-6.2466 0.0905 2.0886
-6.3377 -1.4303 2.0886
-5.9990 -2.9556 2.0886
-5.2280 -4.3433 2.0886
-4.0799 -5.4539 2.0886
-2.8569 -6.6303 2.2410
-1.1989 -6.9357 2.2410
0.4412 -6.7720 2.2410
1.5794 -5.0686 1.8333
1.7661 -2.9452 1.2464
2.6409 -2.6719 1.4358
4.7519 -2.9152 2.2410
5.0707 -1.6110 2.2410
5.0984 -0.3228 2.2410
4.8621 0.8987 2.2410
4.3907 2.0143 2.2410
3.7130 2.9927 2.2410
2.8568 3.8073 2.2410
1.8496 4.4333 2.2410
0.7203 4.8465 2.2410
-0.2559 2.5774 1.1501
-0.9082 2.5356 1.1512
-2.8313 4.2546 2.0886
-3.9578 3.6291 2.0886
-4.9559 2.7215 2.0886
-5.7429 1.5503 2.0886
-6.2315 0.1640 2.0886
-6.3431 -1.3529 2.0886
-6.0264 -2.8813 2.0886
-4.8643 -3.9454 1.9255
-4.1447 -5.4069 2.0886
-2.9376 -6.6023 2.2410
-1.2827 -6.9318 2.2410
0.3619 -6.7906 2.2410
1.5645 -5.2386 1.8835
1.7599 -3.0159 1.2641
2.5722 -2.6657 1.4121
4.7279 -2.9797 2.2410
5.0619 -1.6762 2.2410
5.1036 -0.3860 2.2410
4.8797 0.8398 2.2410
4.4193 1.9616 2.2410
3.7513 2.9475 2.2410
2.9034 3.7708 2.2410
1.9032 4.4068 2.2410
0.7791 4.8313 2.2410
-0.2238 2.5759 1.1500
-0.8753 2.5411 1.1512
-2.7729 4.2784 2.0886
-3.9039 3.6671 2.0886
-4.9103 2.7734 2.0886
-5.7099 1.6146 2.0886
-6.2154 0.2373 2.0886
-6.3474 -1.2758 2.0886
-6.0527 -2.8068 2.0886
-4.8870 -3.8693 1.9174
-4.2089 -5.3588 2.0886
-3.0178 -6.5732 2.2410
-1.3663 -6.9268 2.2410
0.2821 -6.8082 2.2410
1.5486 -5.4193 1.9371
1.7535 -3.0889 1.2826
2.5055 -2.6597 1.3893
4.7031 -3.0441 2.2410
5.0523 -1.7416 2.2410
5.1080 -0.4493 2.2410
4.8967 0.7808 2.2410
4.4475 1.9085 2.2410
3.7892 2.9019 2.2410
2.9497 3.7339 2.2410
1.9563 4.3799 2.2410
0.8378 4.8155 2.2410
-0.1918 2.5740 1.1500
-0.8424 2.5462 1.1511
-2.7145 4.3016 2.0886
-3.8497 3.7044 2.0886
-4.8642 2.8246 2.0886
-5.6762 1.6782 2.0886
-6.1984 0.3102 2.0886
-6.3506 -1.1985 2.0886
-6.0779 -2.7319 2.0886
-5.3696 -4.1497 2.0886
-4.2723 -5.3098 2.0886
-3.0977 -6.5429 2.2410
-1.4501 -6.9205 2.2410
0.2020 -6.8247 2.2410
1.5317 -5.6113 1.9944
1.7468 -3.1646 1.3019
2.4406 -2.6538 1.3673
4.6776 -3.1083 2.2410
5.0420 -1.8070 2.2410
5.1118 -0.5129 2.2410
4.9132 0.7214 2.2410
4.4752 1.8551 2.2410
3.8267 2.8559 2.2410
2.9955 3.6965 2.2410
2.0093 4.3523 2.2410
0.8962 4.7991 2.2410
-0.1599 2.5718 1.1499
-0.8095 2.5509 1.1510
-2.6811 4.3653 2.1085
-3.7952 3.7410 2.0886
-4.8176 2.8752 2.0886
-5.6418 1.7413 2.0886
-6.1805 0.3828 2.0886
-6.3528 -1.1215 2.0886
-6.1020 -2.6568 2.0886
-5.4149 -4.0837 2.0886
-4.3351 -5.2598 2.0886
-3.1771 -6.5115 2.2410
-1.5338 -6.9131 2.2410
0.1215 -6.8402 2.2410
1.5143 -5.8188 2.0568
1.7400 -3.2429 1.3222
2.3774 -2.6481 1.3461
4.6512 -3.1725 2.2410
5.0310 -1.8724 2.2410
5.1149 -0.5765 2.2410
4.9291 0.6618 2.2410
4.5023 1.8013 2.2410
3.8637 2.8094 2.2410
3.0410 3.6587 2.2410
2.0618 4.3243 2.2410
0.9544 4.7821 2.2410
-0.1280 2.5693 1.1499
-0.7767 2.5553 1.1510
-1.4328 2.3975 1.1522
-3.7403 3.7769 2.0886
-4.7704 2.9251 2.0886
-5.6066 1.8038 2.0886
-6.1617 0.4550 2.0886
-6.3539 -1.0444 2.0886
-6.1250 -2.5814 2.0886
-5.4592 -4.0173 2.0886
-4.3970 -5.2090 2.0886
-3.2562 -6.4788 2.2410
-1.6176 -6.9045 2.2410
0.0408 -6.8545 2.2410
1.4450 -5.8355 2.0517
1.7328 -3.3241 1.3434
2.3158 -2.6426 1.3257
4.6241 -3.2364 2.2410
5.0192 -1.9377 2.2410
5.1174 -0.6403 2.2410
4.9443 0.6019 2.2410
4.5289 1.7472 2.2410
3.9002 2.7625 2.2410
3.0861 3.6204 2.2410
2.1141 4.2958 2.2410
1.0123 4.7645 2.2410
-0.0962 2.5664 1.1498
-0.7438 2.5593 1.1509
-1.4002 2.4089 1.1522
-3.6853 3.8121 2.0886
-4.7228 2.9742 2.0886
-5.5708 1.8658 2.0886
-6.1419 0.5268 2.0886
-6.3540 -0.9676 2.0886
-6.1469 -2.5058 2.0886
-5.5025 -3.9501 2.0886
-4.4583 -5.1572 2.0886
-3.3347 -6.4450 2.2410
-1.7012 -6.8947 2.2410
-0.0404 -6.8678 2.2410
1.3805 -5.8728 2.0541
1.7254 -3.4083 1.3655
2.2558 -2.6372 1.3059
4.5962 -3.3002 2.2410
5.0067 -2.0032 2.2410
5.1191 -0.7042 2.2410
4.9590 0.5418 2.2410
4.5550 1.6927 2.2410
3.9363 2.7153 2.2410
3.1308 3.5816 2.2410
2.1659 4.2667 2.2410
1.0701 4.7463 2.2410
-0.0645 2.5632 1.1498
-0.7110 2.5630 1.1509
-1.3676 2.4200 1.1521
-3.6299 3.8466 2.0886
-4.6747 3.0228 2.0886
-5.5342 1.9272 2.0886
-6.1213 0.5982 2.0886
-6.3530 -0.8907 2.0886
-6.1677 -2.4299 2.0886
-5.5448 -3.8823 2.0886
-4.5187 -5.1045 2.0886
-3.4129 -6.4099 2.2410
-1.7849 -6.8836 2.2410
-0.1208 -6.3882 2.2410
1.3250 -5.9954 2.2410
1.7161 -3.5080 1.4921
2.1891 -2.6322 1.3734
3.7511 -2.7735 1.9652
4.6892 -1.9525 2.2410
4.8189 -0.7311 2.2410
4.6884 0.4476 2.2410
4.3234 1.5414 2.2410
3.7510 2.5165 2.2410
2.9981 3.3448 2.2410
2.0918 4.0011 2.2410
1.0599 4.4617 2.2410
-0.0341 2.4133 1.1499
-0.6423 2.4152 1.1509
-1.2587 2.2823 1.1521
-3.3590 3.6332 2.0886
-4.3339 2.8652 2.0886
-5.1334 1.8466 2.0886
-5.6789 0.6146 2.0886
-5.8967 -0.7628 2.0886
-5.7325 -2.1861 2.0886
-5.1686 -3.5322 2.0886
-4.2354 -4.6725 2.0886
-3.2329 -5.8974 2.2410
-1.7366 -6.3658 2.2410
-0.1965 -6.3977 2.2410
1.2566 -6.0237 2.2410
1.7080 -3.5994 1.5186
2.1322 -2.6271 1.3540
3.6453 -2.7639 1.9225
4.6755 -2.0137 2.2410
4.8188 -0.7916 2.2410
4.7007 0.3904 2.2410
4.3468 1.4893 2.2410
3.7841 2.4710 2.2410
3.0396 3.3073 2.2410
2.1403 3.9727 2.2410
1.1141 4.4437 2.2410
-0.0043 2.4098 1.1498
-0.6115 2.4182 1.1508
-1.2281 2.2923 1.1520
-3.3070 3.6647 2.0886
-4.2886 2.9098 2.0886
-5.0988 1.9030 2.0886
-5.6589 0.6803 2.0886
-5.8945 -0.6919 2.0886
-5.7503 -2.1157 2.0886
-5.2060 -3.4688 2.0886
-4.2898 -4.6222 2.0886
-3.3041 -5.8626 2.2410
-1.8136 -6.3528 2.2410
-0.2724 -6.4062 2.2410
1.1878 -6.0511 2.2410
1.6997 -3.6946 1.5465
2.0765 -2.6221 1.3352
3.5436 -2.7547 1.8817
4.6610 -2.0750 2.2410
4.8181 -0.8521 2.2410
4.7124 0.3330 2.2410
4.3696 1.4369 2.2410
3.8168 2.4252 2.2410
3.0808 3.2693 2.2410
2.1885 3.9439 2.2410
1.1679 4.4251 2.2410
0.0254 2.4061 1.1498
-0.5807 2.4209 1.1508
-1.1975 2.3019 1.1519
-3.2547 3.6955 2.0886
-4.2430 2.9537 2.0886
-5.0635 1.9589 2.0886
-5.6380 0.7457 2.0886
-5.8914 -0.6212 2.0886
-5.7670 -2.0451 2.0886
-5.2425 -3.4048 2.0886
-4.3434 -4.5711 2.0886
-3.3747 -5.8268 2.2410
-1.8906 -6.3387 2.2410
-0.3486 -6.4137 2.2410
1.1184 -6.0776 2.2410
1.6909 -3.7939 1.5757
2.0222 -2.6172 1.3171
3.4457 -2.7458 1.8427
4.6459 -2.1362 2.2410
4.8167 -0.9128 2.2410
4.7236 0.2753 2.2410
4.3920 1.3842 2.2410
3.8490 2.3790 2.2410
3.1215 3.2309 2.2410
2.2364 3.9146 2.2410
1.2215 4.4060 2.2410
0.0550 2.4020 1.1497
-0.5500 2.4232 1.1507
-1.1668 2.3112 1.1519
-3.2023 3.7257 2.0886
-4.1969 2.9970 2.0886
-5.0277 2.0142 2.0886
-5.6163 0.8107 2.0886
-5.8874 -0.5505 2.0886
-5.7827 -1.9744 2.0886
-5.2781 -3.3404 2.0886
-4.3963 -4.5193 2.0886
-3.4448 -5.7900 2.2410
-1.9673 -6.3235 2.2410
-0.4249 -6.4201 2.2410
1.0486 -6.1033 2.2410
1.6818 -3.8974 1.6065
1.9690 -2.6124 1.2995
3.3513 -2.7373 1.8053
4.6300 -2.1973 2.2410
4.8146 -0.9735 2.2410
4.7341 0.2175 2.2410
4.4138 1.3312 2.2410
3.8807 2.3324 2.2410
3.1618 3.1921 2.2410
2.2840 3.8847 2.2410
1.2749 4.3864 2.2410
0.0845 2.3977 1.1497
-0.5192 2.4253 1.1507
-1.1360 2.3201 1.1518
-3.1496 3.7552 2.0886
-4.1505 3.0396 2.0886
-4.9913 2.0690 2.0886
-5.5938 0.8752 2.0886
-5.8824 -0.4801 2.0886
-5.7974 -1.9035 2.0886
-5.3126 -3.2755 2.0886
-4.4484 -4.4667 2.0886
-3.5144 -5.7521 2.2410
-2.0439 -6.3072 2.2410
-0.5014 -6.4255 2.2410
0.9784 -6.1281 2.2410
1.6723 -4.0056 1.6389
1.9170 -2.6077 1.2825
3.2603 -2.7290 1.7696
4.6134 -2.2584 2.2410
4.8119 -1.0343 2.2410
4.7440 0.1594 2.2410
4.4351 1.2779 2.2410
3.9120 2.2855 2.2410
3.2018 3.1529 2.2410
2.3313 3.8544 2.2410
1.3280 4.3662 2.2410
0.1140 2.3930 1.1496
-0.4885 2.4269 1.1506
-1.1053 2.3287 1.1518
-3.0966 3.7841 2.0886
-4.1036 3.0816 2.0886
-4.9542 2.1232 2.0886
-5.5706 0.9394 2.0886
-5.8764 -0.4098 2.0886
-5.8111 -1.8325 2.0886
-5.3463 -3.2101 2.0886
-4.4997 -4.4133 2.0886
-3.5835 -5.7133 2.2410
-2.1203 -6.2898 2.2410
-0.5781 -6.4298 2.2410
0.9077 -6.1520 2.2410
1.6623 -4.1187 1.6731
1.8662 -2.6032 1.2661
3.1724 -2.7210 1.7353
4.5961 -2.3195 2.2410
4.8085 -1.0952 2.2410
4.7534 0.1012 2.2410
4.4559 1.2243 2.2410
3.9428 2.2382 2.2410
3.2413 3.1133 2.2410
2.3782 3.8237 2.2410
1.3809 4.3455 2.2410
0.1433 2.3880 1.1496
-0.4579 2.4283 1.1506
-1.0745 2.3369 1.1517
-3.0435 3.8123 2.0886
-4.0563 3.1229 2.0886
-4.9166 2.1768 2.0886
-5.5465 1.0032 2.0886
-5.8695 -0.3397 2.0886
-5.8238 -1.7613 2.0886
-5.3789 -3.1443 2.0886
-4.5503 -4.3592 2.0886
-3.5018 -5.4400 2.1488
-2.1965 -6.2712 2.2410
-0.6549 -6.4331 2.2410
0.8366 -6.1750 2.2410
1.6519 -4.2373 1.7092
1.8163 -2.5987 1.2502
3.0875 -2.7134 1.7024
4.5781 -2.3805 2.2410
4.8044 -1.1562 2.2410
4.7621 0.0428 2.2410
4.4761 1.1705 2.2410
3.9732 2.1906 2.2410
3.2805 3.0732 2.2410
2.4247 3.7925 2.2410
1.4335 4.3242 2.2410
0.1726 2.3828 1.1496
-0.4273 2.4293 1.1505
-1.0437 2.3448 1.1516
-2.9902 3.8398 2.0886
-4.0087 3.1636 2.0886
-4.8784 2.2299 2.0886
-5.5217 1.0665 2.0886
-5.8617 -0.2698 2.0886
-5.8355 -1.6901 2.0886
-5.4106 -3.0781 2.0886
-4.6000 -4.3044 2.0886
-3.4686 -5.2518 2.0895
-2.2725 -6.2516 2.2410
-0.7318 -6.4353 2.2410
0.7651 -6.1971 2.2410
1.6409 -4.3616 1.7473
1.7931 -2.6318 1.2527
3.0053 -2.7059 1.6709
4.5593 -2.4413 2.2410
4.7996 -1.2172 2.2410
4.7702 -0.0158 2.2410
4.4958 1.1164 2.2410
4.0031 2.1426 2.2410
3.3192 3.0328 2.2410
2.4710 3.7607 2.2410
1.4858 4.3025 2.2410
0.2017 2.3772 1.1495
-0.3967 2.4300 1.1505
-1.0129 2.3523 1.1516
-2.9366 3.8667 2.0886
-3.9607 3.2037 2.0886
-4.8396 2.2824 2.0886
-5.4962 1.1294 2.0886
-5.8530 -0.2001 2.0886
-5.8461 -1.6188 2.0886
-5.4413 -3.0115 2.0886
-4.6489 -4.2489 2.0886
-3.5298 -5.2104 2.0886
-2.3483 -6.2309 2.2410
-0.8089 -6.4364 2.2410
0.6932 -6.2183 2.2410
1.6294 -4.4922 1.7876
1.7877 -2.6926 1.2682
2.9258 -2.6987 1.6406
4.5399 -2.5021 2.2410
4.7942 -1.2783 2.2410
4.7777 -0.0746 2.2410
4.5149 1.0621 2.2410
4.0325 2.0943 2.2410
3.3575 2.9919 2.2410
2.5169 3.7286 2.2410
1.5379 4.2802 2.2410
0.2308 2.3713 1.1495
-0.3662 2.4304 1.1504
-0.9820 2.3594 1.1515
-2.8829 3.8929 2.0886
-3.9123 3.2431 2.0886
-4.8003 2.3343 2.0886
-5.4698 1.1918 2.0886
-5.8434 -0.1307 2.0886
-5.8558 -1.5475 2.0886
-5.4711 -2.9444 2.0886
-4.6970 -4.1927 2.0886
-3.5920 -5.1704 2.0886
-2.4238 -6.2091 2.2410
-0.8861 -6.4365 2.2410
0.6209 -6.2385 2.2410
1.6173 -4.6295 1.8302
1.7823 -2.7551 1.2844
2.8488 -2.6918 1.6115
4.5197 -2.5628 2.2410
4.7881 -1.3395 2.2410
4.7846 -0.1335 2.2410
4.5335 1.0074 2.2410
4.0614 2.0457 2.2410
3.3954 2.9507 2.2410
2.5624 3.6959 2.2410
1.5897 4.2573 2.2410
0.2598 2.3652 1.1494
-0.3357 2.4304 1.1504
-0.9511 2.3662 1.1515
-2.8290 3.9184 2.0886
-3.8636 3.2818 2.0886
-4.7604 2.3856 2.0886
-5.4428 1.2537 2.0886
-5.8328 -0.0615 2.0886
-5.8645 -1.4761 2.0886
-5.4998 -2.8770 2.0886
-4.7442 -4.1358 2.0886
-3.6537 -5.1295 2.0886
-2.4991 -6.1862 2.2410
-0.9633 -6.4355 2.2410
0.5482 -6.2579 2.2410
1.6046 -4.7743 1.8755
1.7766 -2.8196 1.3013
2.7741 -2.6850 1.5835
4.4987 -2.6234 2.2410
4.7813 -1.4007 2.2410
4.7909 -0.1926 2.2410
4.5515 0.9526 2.2410
4.0898 1.9967 2.2410
3.4329 2.9090 2.2410
2.6076 3.6629 2.2410
1.6412 4.2340 2.2410
0.2886 2.3587 1.1494
-0.3052 2.4301 1.1503
-0.9203 2.3727 1.1514
-2.7750 3.9433 2.0886
-3.8145 3.3199 2.0886
-4.7200 2.4363 2.0886
-5.4150 1.3153 2.0886
-5.8214 0.0075 2.0886
-5.8722 -1.4046 2.0886
-5.5276 -2.8093 2.0886
-4.7906 -4.0782 2.0886
-3.7148 -5.0877 2.0886
-2.5740 -6.1622 2.2410
-1.0406 -6.4334 2.2410
0.4752 -6.2762 2.2410
1.5911 -4.9271 1.9236
1.7708 -2.8861 1.3190
2.7016 -2.6784 1.5565
4.4771 -2.6839 2.2410
4.7739 -1.4619 2.2410
4.7966 -0.2519 2.2410
4.5690 0.8974 2.2410
4.1178 1.9474 2.2410
3.4700 2.8669 2.2410
2.6525 3.6293 2.2410
1.6924 4.2101 2.2410
0.3174 2.3520 1.1493
-0.2749 2.4295 1.1503
-0.8894 2.3788 1.1513
-2.7207 3.9674 2.0886
-3.7651 3.3573 2.0886
-4.6791 2.4864 2.0886
-5.3865 1.3763 2.0886
-5.8090 0.0761 2.0886
-5.8788 -1.3332 2.0886
-5.5544 -2.7412 2.0886
-4.8362 -4.0200 2.0886
-3.7752 -5.0451 2.0886
-2.6487 -6.1371 2.2410
-1.1180 -6.4303 2.2410
0.4018 -6.2936 2.2410
1.5769 -5.0887 1.9748
1.7647 -2.9548 1.3374
2.6312 -2.6721 1.5306
4.4547 -2.7443 2.2410
4.7657 -1.5232 2.2410
4.8016 -0.3113 2.2410
4.5859 0.8420 2.2410
4.1452 1.8978 2.2410
3.5066 2.8245 2.2410
2.6969 3.5953 2.2410
1.7434 4.1858 2.2410
0.3460 2.3450 1.1493
-0.2445 2.4286 1.1502
-0.8585 2.3845 1.1513
-2.7049 4.0488 2.1188
-3.7154 3.3941 2.0886
-4.6376 2.5359 2.0886
-5.3572 1.4368 2.0886
-5.7958 0.1445 2.0886
-5.8845 -1.2617 2.0886
-5.5801 -2.6728 2.0886
-4.8656 -3.9487 2.0820
-3.8351 -5.0015 2.0886
-2.7230 -6.1109 2.2410
-1.1954 -6.4261 2.2410
0.3280 -6.3101 2.2410
1.7247 -5.8087 2.2410
1.7585 -3.0257 1.3566
2.5629 -2.6659 1.5056
4.4316 -2.8045 2.2410
4.7569 -1.5845 2.2410
4.8060 -0.3708 2.2410
4.6022 0.7864 2.2410
4.1722 1.8478 2.2410
3.5428 2.7816 2.2410
2.7411 3.5608 2.2410
1.7941 4.1609 2.2410
0.7304 4.5583 2.2410
-0.2143 2.4274 1.1502
-0.8276 2.3899 1.1512
-1.4411 2.2148 1.1524
-3.6654 3.4303 2.0886
-4.5957 2.5848 2.0886
-5.3273 1.4969 2.0886
-5.7817 0.2126 2.0886
-5.8892 -1.1903 2.0886
-5.6049 -2.6040 2.0886
-4.8847 -3.8700 2.0717
-3.8943 -4.9570 2.0886
-2.7970 -6.0836 2.2410
-1.2728 -6.4208 2.2410
0.2540 -6.3256 2.2410
1.6594 -5.8418 2.2410
1.7520 -3.0991 1.3767
2.4964 -2.6599 1.4816
4.4078 -2.8646 2.2410
4.7473 -1.6458 2.2410
4.8097 -0.4306 2.2410
4.6180 0.7305 2.2410
4.1986 1.7975 2.2410
3.5786 2.7384 2.2410
2.7848 3.5260 2.2410
1.8444 4.1355 2.2410
0.7859 4.5436 2.2410
-0.1841 2.4258 1.1501
-0.7967 2.3950 1.1512
-1.4109 2.2270 1.1524
-3.6150 3.4657 2.0886
-4.5532 2.6331 2.0886
-5.2967 1.5564 2.0886
-5.7667 0.2804 2.0886
-5.8929 -1.1189 2.0886
-5.6287 -2.5350 2.0886
-4.9676 -3.8415 2.0886
-3.9528 -4.9117 2.0886
-2.8707 -6.0552 2.2410
-1.3502 -6.4143 2.2410
0.1796 -6.3401 2.2410
1.5936 -5.8741 2.2410
1.7454 -3.1750 1.3977
2.4317 -2.6541 1.4584
4.3832 -2.9245 2.2410
4.7371 -1.7071 2.2410
4.8129 -0.4904 2.2410
4.6333 0.6744 2.2410
4.2246 1.7470 2.2410
3.6140 2.6948 2.2410
2.8282 3.4906 2.2410
1.8945 4.1096 2.2410
0.8411 4.5283 2.2410
-0.1539 2.4239 1.1501
-0.7658 2.3997 1.1511
-1.3806 2.2388 1.1523
-3.5644 3.5005 2.0886
-4.5103 2.6807 2.0886
-5.2653 1.6155 2.0886
-5.7508 0.3479 2.0886
-5.8956 -1.0476 2.0886
-5.6515 -2.4657 2.0886
-5.0096 -3.7808 2.0886
-4.0107 -4.8656 2.0886
-2.9439 -6.0258 2.2410
-1.4276 -6.4068 2.2410
0.1049 -6.3536 2.2410
1.5273 -5.9057 2.2410
1.7384 -3.2537 1.4197
2.3687 -2.6484 1.4360
4.3579 -2.9843 2.2410
4.7262 -1.7685 2.2410
4.8153 -0.5504 2.2410
4.6479 0.6181 2.2410
4.2500 1.6961 2.2410
3.6489 2.6508 2.2410
2.8713 3.4548 2.2410
1.9443 4.0833 2.2410
0.8961 4.5125 2.2410
-0.1239 2.4217 1.1500
-0.7349 2.4041 1.1511
-1.3502 2.2502 1.1522
-3.5135 3.5347 2.0886
-4.4669 2.7278 2.0886
-5.2334 1.6740 2.0886
-5.7341 0.4151 2.0886
-5.8973 -0.9763 2.0886
-5.6732 -2.3962 2.0886
-5.0507 -3.7195 2.0886
-4.0679 -4.8185 2.0886
-3.0168 -5.9953 2.2410
-1.5049 -6.3982 2.2410
0.0300 -6.3662 2.2410
1.4604 -5.9364 2.2410
1.7313 -3.3353 1.4427
2.3074 -2.6429 1.4144
4.3319 -3.0439 2.2410
4.7146 -1.8298 2.2410
4.8172 -0.6105 2.2410
4.6620 0.5615 2.2410
4.2750 1.6448 2.2410
3.6833 2.6064 2.2410
2.9139 3.4186 2.2410
1.9937 4.0564 2.2410
0.9509 4.4961 2.2410
-0.0939 2.4192 1.1500
-0.7041 2.4081 1.1510
-1.3198 2.2613 1.1522
-3.4623 3.5682 2.0886
-4.4230 2.7742 2.0886
-5.2007 1.7321 2.0886
-5.7166 0.4819 2.0886
-5.8981 -0.9051 2.0886
-5.6940 -2.3264 2.0886
-5.0909 -3.6577 2.0886
-4.1245 -4.7707 2.0886
-3.0892 -5.9637 2.2410
-1.5822 -6.3885 2.2410
-0.0452 -6.3777 2.2410
1.3930 -5.9663 2.2410
1.7238 -3.4199 1.4668
2.2475 -2.6375 1.3936
4.3051 -3.1034 2.2410
4.7022 -1.8911 2.2410
4.8184 -0.6707 2.2410
4.6755 0.5047 2.2410
4.2994 1.5933 2.2410
3.7174 2.5617 2.2410
2.9562 3.3819 2.2410
2.0429 4.0290 2.2410
1.0055 4.4792 2.2410
-0.0639 2.4164 1.1499
-0.6732 2.4118 1.1509
-1.2893 2.2720 1.1521
-3.4108 3.6010 2.0886
-4.3787 2.8200 2.0886
-5.1674 1.7896 2.0886
-5.6982 0.5484 2.0886
-5.8979 -0.8339 2.0886
-5.7138 -2.2564 2.0886
-5.1302 -3.5952 2.0886
-4.1803 -4.7220 2.0886
-3.1613 -5.9311 2.2410
-1.6594 -6.3777 2.2410
-0.1207 -6.3882 2.2410
1.3251 -5.9954 2.2410
1.7161 -3.5079 1.4921
2.1892 -2.6322 1.3735
3.7512 -2.7735 1.9652
4.6892 -1.9524 2.2410
4.8189 -0.7311 2.2410
4.6884 0.4477 2.2410
4.3233 1.5415 2.2410
3.7509 2.5166 2.2410
2.9981 3.3448 2.2410
2.0917 4.0011 2.2410
1.0599 4.4617 2.2410
-0.0341 2.4133 1.1499
-0.6424 2.4152 1.1509
-1.2587 2.2823 1.1521
-3.3590 3.6332 2.0886
-4.3339 2.8652 2.0886
-5.1334 1.8466 2.0886
-5.6789 0.6145 2.0886
-5.8967 -0.7629 2.0886
-5.7325 -2.1862 2.0886
-5.1686 -3.5323 2.0886
-4.2354 -4.6726 2.0886
-3.2329 -5.8974 2.2410
-1.7365 -6.3658 2.2410
-0.1964 -6.3977 2.2410
1.2567 -6.0237 2.2410
1.7080 -3.5993 1.5186
2.1322 -2.6271 1.3540
3.6454 -2.7639 1.9225
4.6755 -2.0137 2.2410
4.8188 -0.7915 2.2410
4.7007 0.3905 2.2410
4.3467 1.4893 2.2410
3.7841 2.4711 2.2410
3.0396 3.3073 2.2410
2.1403 3.9728 2.2410
1.1140 4.4437 2.2410
-0.0043 2.4098 1.1498
-0.6115 2.4182 1.1508
-1.2281 2.2923 1.1520
-3.3070 3.6647 2.0886
-4.2887 2.9097 2.0886
-5.0988 1.9030 2.0886
-5.6589 0.6803 2.0886
-5.8945 -0.6920 2.0886
-5.7502 -2.1158 2.0886
-5.2060 -3.4688 2.0886
-4.2897 -4.6223 2.0886
-3.3040 -5.8626 2.2410
-1.8136 -6.3528 2.2410
-0.2724 -6.4062 2.2410
1.1879 -6.0511 2.2410
1.6997 -3.6945 1.5464
2.0766 -2.6221 1.3352
3.5437 -2.7547 1.8817
4.6610 -2.0749 2.2410
4.8181 -0.8521 2.2410
4.7124 0.3330 2.2410
4.3696 1.4369 2.2410
3.8167 2.4253 2.2410
3.0807 3.2693 2.2410
2.1885 3.9439 2.2410
1.1679 4.4251 2.2410
0.0254 2.4061 1.1498
-0.5808 2.4209 1.1508
-1.1975 2.3019 1.1519
-3.2548 3.6955 2.0886
-4.2430 2.9536 2.0886
-5.0636 1.9589 2.0886
-5.6380 0.7456 2.0886
-5.8914 -0.6213 2.0886
-5.7670 -2.0452 2.0886
-5.2425 -3.4049 2.0886
-4.3434 -4.5712 2.0886
-3.3746 -5.8269 2.2410
-1.8904 -6.3387 2.2410
-0.3485 -6.4137 2.2410
1.1185 -6.0776 2.2410
1.6909 -3.7937 1.5757
2.0222 -2.6172 1.3171
3.4458 -2.7458 1.8427
4.6459 -2.1362 2.2410
4.8167 -0.9127 2.2410
4.7235 0.2754 2.2410
4.3920 1.3842 2.2410
3.8490 2.3790 2.2410
3.1214 3.2310 2.2410
2.2364 3.9146 2.2410
1.2215 4.4060 2.2410
0.0550 2.4020 1.1497
-0.5500 2.4232 1.1507
-1.1668 2.3112 1.1519
-3.2023 3.7257 2.0886
-4.1969 2.9969 2.0886
-5.0278 2.0141 2.0886
-5.6163 0.8106 2.0886
-5.8874 -0.5506 2.0886
-5.7827 -1.9744 2.0886
-5.2780 -3.3405 2.0886
-4.3962 -4.5194 2.0886
-3.4448 -5.7900 2.2410
-1.9673 -6.3235 2.2410
-0.4248 -6.4201 2.2410
1.0487 -6.1033 2.2410
1.6818 -3.8973 1.6065
1.9691 -2.6124 1.2995
3.3515 -2.7373 1.8054
4.6300 -2.1973 2.2410
4.8146 -0.9734 2.2410
4.7341 0.2175 2.2410
4.4138 1.3313 2.2410
3.8807 2.3325 2.2410
3.1618 3.1922 2.2410
2.2840 3.8848 2.2410
1.2748 4.3864 2.2410
0.0845 2.3977 1.1497
-0.5193 2.4253 1.1507
-1.1361 2.3201 1.1518
-3.1496 3.7552 2.0886
-4.1505 3.0395 2.0886
-4.9913 2.0690 2.0886
-5.5939 0.8752 2.0886
-5.8824 -0.4802 2.0886
-5.7974 -1.9036 2.0886
-5.3126 -3.2756 2.0886
-4.4484 -4.4667 2.0886
-3.5143 -5.7522 2.2410
-2.0438 -6.3072 2.2410
-0.5013 -6.4254 2.2410
0.9784 -6.1281 2.2410
1.6723 -4.0054 1.6389
1.9171 -2.6077 1.2826
3.2604 -2.7290 1.7696
4.6134 -2.2584 2.2410
4.8119 -1.0342 2.2410
4.7440 0.1595 2.2410
4.4351 1.2780 2.2410
3.9120 2.2855 2.2410
3.2017 3.1530 2.2410
2.3312 3.8545 2.2410
1.3280 4.3662 2.2410
0.1140 2.3930 1.1496
-0.4886 2.4269 1.1506
-1.1053 2.3287 1.1518
-3.0967 3.7841 2.0886
-4.1036 3.0816 2.0886
-4.9543 2.1231 2.0886
-5.5706 0.9393 2.0886
-5.8764 -0.4099 2.0886
-5.8111 -1.8325 2.0886
-5.3462 -3.2102 2.0886
-4.4997 -4.4134 2.0886
-3.5834 -5.7133 2.2410
-2.1203 -6.2898 2.2410
-0.5779 -6.4298 2.2410
0.9078 -6.1520 2.2410
1.6623 -4.1186 1.6731
1.8662 -2.6032 1.2661
3.1725 -2.7211 1.7354
4.5961 -2.3194 2.2410
4.8085 -1.0952 2.2410
4.7534 0.1012 2.2410
4.4558 1.2244 2.2410
3.9428 2.2383 2.2410
3.2413 3.1133 2.2410
2.3781 3.8237 2.2410
1.3808 4.3455 2.2410
0.1433 2.3880 1.1496
-0.4579 2.4283 1.1506
-1.0745 2.3369 1.1517
-3.0436 3.8122 2.0886
-4.0564 3.1229 2.0886
-4.9166 2.1768 2.0886
-5.5466 1.0031 2.0886
-5.8696 -0.3398 2.0886
-5.8238 -1.7614 2.0886
-5.3789 -3.1444 2.0886
-4.5502 -4.3593 2.0886
-3.5019 -5.4403 2.1489
-2.1964 -6.2713 2.2410
-0.6548 -6.4331 2.2410
0.8367 -6.1750 2.2410
1.6519 -4.2371 1.7091
1.8164 -2.5987 1.2502
3.0876 -2.7134 1.7025
4.5781 -2.3804 2.2410
4.8044 -1.1561 2.2410
4.7621 0.0429 2.2410
4.4761 1.1706 2.2410
3.9732 2.1906 2.2410
3.2804 3.0733 2.2410
2.4247 3.7925 2.2410
1.4334 4.3243 2.2410
0.1726 2.3828 1.1496
-0.4273 2.4293 1.1505
-1.0437 2.3448 1.1516
-2.9902 3.8398 2.0886
-4.0087 3.1636 2.0886
-4.8785 2.2298 2.0886
-5.5218 1.0664 2.0886
-5.8617 -0.2699 2.0886
-5.8355 -1.6902 2.0886
-5.4106 -3.0782 2.0886
-4.5999 -4.3045 2.0886
-3.4686 -5.2520 2.0896
-2.2725 -6.2516 2.2410
-0.7317 -6.4353 2.2410
0.7652 -6.1971 2.2410
1.6409 -4.3614 1.7472
1.7931 -2.6318 1.2527
3.0055 -2.7059 1.6709
4.5594 -2.4412 2.2410
4.7996 -1.2172 2.2410
4.7702 -0.0158 2.2410
4.4957 1.1165 2.2410
4.0030 2.1427 2.2410
3.3192 3.0328 2.2410
2.4710 3.7608 2.2410
1.4857 4.3025 2.2410
0.2017 2.3772 1.1495
-0.3967 2.4300 1.1505
-1.0129 2.3523 1.1516
-2.9367 3.8666 2.0886
-3.9607 3.2036 2.0886
-4.8397 2.2823 2.0886
-5.4962 1.1293 2.0886
-5.8530 -0.2003 2.0886
-5.8461 -1.6189 2.0886
-5.4413 -3.0115 2.0886
-4.6489 -4.2489 2.0886
-3.5297 -5.2105 2.0886
-2.3482 -6.2309 2.2410
-0.8088 -6.4364 2.2410
0.6932 -6.2183 2.2410
1.6295 -4.4919 1.7875
1.7878 -2.6925 1.2682
2.9259 -2.6987 1.6406
4.5399 -2.5021 2.2410
4.7942 -1.2782 2.2410
4.7777 -0.0745 2.2410
4.5149 1.0621 2.2410
4.0324 2.0944 2.2410
3.3574 2.9920 2.2410
2.5168 3.7286 2.2410
1.5378 4.2802 2.2410
0.2308 2.3714 1.1495
-0.3662 2.4304 1.1504
-0.9821 2.3594 1.1515
-2.8830 3.8928 2.0886
-3.9123 3.2430 2.0886
-4.8003 2.3342 2.0886
-5.4699 1.1917 2.0886
-5.8434 -0.1308 2.0886
-5.8558 -1.5475 2.0886
-5.4711 -2.9445 2.0886
-4.6969 -4.1928 2.0886
-3.5920 -5.1705 2.0886
-2.4238 -6.2091 2.2410
-0.8860 -6.4365 2.2410
0.6210 -6.2385 2.2410
1.6173 -4.6294 1.8302
1.7823 -2.7551 1.2844
2.8488 -2.6918 1.6115
4.5197 -2.5627 2.2410
4.7881 -1.3394 2.2410
4.7846 -0.1335 2.2410
4.5335 1.0075 2.2410
4.0613 2.0458 2.2410
3.3954 2.9507 2.2410
2.5624 3.6960 2.2410
1.5897 4.2573 2.2410
0.2597 2.3652 1.1494
-0.3357 2.4304 1.1504
-0.9512 2.3662 1.1515
-2.8291 3.9184 2.0886
-3.8636 3.2818 2.0886
-4.7605 2.3855 2.0886
-5.4428 1.2537 2.0886
-5.8328 -0.0615 2.0886
-5.8645 -1.4762 2.0886
-5.4998 -2.8771 2.0886
-4.7442 -4.1358 2.0886
-3.6537 -5.1295 2.0886
-2.4990 -6.1862 2.2410
-0.9632 -6.4355 2.2410
0.5482 -6.2578 2.2410
1.6046 -4.7742 1.8755
1.7766 -2.8195 1.3013
2.7742 -2.6850 1.5835
4.4988 -2.6234 2.2410
4.7813 -1.4007 2.2410
4.7909 -0.1925 2.2410
4.5515 0.9526 2.2410
4.0898 1.9968 2.2410
3.4329 2.9090 2.2410
2.6076 3.6629 2.2410
1.6411 4.2340 2.2410
0.2886 2.3587 1.1494
-0.3053 2.4301 1.1503
-0.9203 2.3727 1.1514
-2.7750 3.9433 2.0886
-3.8146 3.3199 2.0886
-4.7200 2.4362 2.0886
-5.4150 1.3152 2.0886
-5.8214 0.0074 2.0886
-5.8721 -1.4047 2.0886
-5.5276 -2.8093 2.0886
-4.7906 -4.0783 2.0886
-3.7147 -5.0878 2.0886
-2.5740 -6.1622 2.2410
-1.0406 -6.4335 2.2410
0.4753 -6.2762 2.2410
1.5911 -4.9269 1.9235
1.7708 -2.8861 1.3189
2.7017 -2.6785 1.5566
4.4771 -2.6838 2.2410
4.7739 -1.4619 2.2410
4.7965 -0.2518 2.2410
4.5690 0.8974 2.2410
4.1177 1.9475 2.2410
3.4699 2.8670 2.2410
2.6524 3.6293 2.2410
1.6924 4.2102 2.2410
0.3173 2.3520 1.1493
-0.2749 2.4295 1.1503
-0.8894 2.3788 1.1513
-2.7208 3.9675 2.0886
-3.7652 3.3573 2.0886
-4.6791 2.4863 2.0886
-5.3865 1.3762 2.0886
-5.8090 0.0761 2.0886
-5.8788 -1.3333 2.0886
-5.5543 -2.7413 2.0886
-4.8361 -4.0200 2.0886
-3.7752 -5.0451 2.0886
-2.6486 -6.1371 2.2410
-1.1179 -6.4303 2.2410
0.4018 -6.2936 2.2410
1.5769 -5.0886 1.9747
1.7647 -2.9547 1.3373
2.6313 -2.6721 1.5306
4.4547 -2.7442 2.2410
4.7657 -1.5232 2.2410
4.8016 -0.3112 2.2410
4.5859 0.8421 2.2410
4.1452 1.8978 2.2410
3.5066 2.8245 2.2410
2.6969 3.5953 2.2410
1.7433 4.1858 2.2410
0.3460 2.3450 1.1493
-0.2446 2.4286 1.1502
-0.8585 2.3845 1.1513
-2.7049 4.0487 2.1188
-3.7154 3.3941 2.0886
-4.6377 2.5359 2.0886
-5.3573 1.4367 2.0886
-5.7958 0.1444 2.0886
-5.8845 -1.2618 2.0886
-5.5801 -2.6728 2.0886
-4.8657 -3.9489 2.0821
-3.8350 -5.0015 2.0886
-2.7230 -6.1109 2.2410
-1.1953 -6.4261 2.2410
0.3281 -6.3101 2.2410
1.7248 -5.8086 2.2410
1.7585 -3.0257 1.3566
2.5629 -2.6659 1.5057
4.4317 -2.8044 2.2410
4.7569 -1.5844 2.2410
4.8060 -0.3708 2.2410
4.6022 0.7864 2.2410
4.1721 1.8479 2.2410
3.5428 2.7817 2.2410
2.7410 3.5609 2.2410
1.7940 4.1609 2.2410
0.7303 4.5583 2.2410
-0.2143 2.4274 1.1502
-0.8276 2.3899 1.1512
-1.4412 2.2148 1.1524
-3.6654 3.4302 2.0886
-4.5957 2.5847 2.0886
-5.3273 1.4968 2.0886
-5.7817 0.2126 2.0886
-5.8892 -1.1904 2.0886
-5.6049 -2.6041 2.0886
-4.8847 -3.8700 2.0716
-3.8942 -4.9571 2.0886
-2.7969 -6.0836 2.2410
-1.2727 -6.4208 2.2410
0.2540 -6.3256 2.2410
1.6595 -5.8418 2.2410
1.7520 -3.0990 1.3767
2.4965 -2.6599 1.4816
4.4078 -2.8645 2.2410
4.7473 -1.6458 2.2410
4.8097 -0.4305 2.2410
4.6180 0.7306 2.2410
4.1986 1.7976 2.2410
3.5786 2.7384 2.2410
2.7848 3.5260 2.2410
1.8443 4.1356 2.2410
0.7858 4.5436 2.2410
-0.1841 2.4258 1.1501
-0.7967 2.3950 1.1512
-1.4109 2.2269 1.1524
-3.6151 3.4657 2.0886
-4.5533 2.6330 2.0886
-5.2967 1.5564 2.0886
-5.7667 0.2803 2.0886
-5.8929 -1.1190 2.0886
-5.6287 -2.5351 2.0886
-4.9675 -3.8416 2.0886
-3.9528 -4.9118 2.0886
-2.8706 -6.0553 2.2410
-1.3501 -6.4143 2.2410
0.1797 -6.3401 2.2410
1.5937 -5.8741 2.2410
1.7454 -3.1750 1.3977
2.4318 -2.6541 1.4584
4.3832 -2.9244 2.2410
4.7371 -1.7071 2.2410
4.8129 -0.4903 2.2410
4.6332 0.6744 2.2410
4.2245 1.7470 2.2410
3.6139 2.6949 2.2410
2.8282 3.4906 2.2410
1.8945 4.1097 2.2410
0.8410 4.5283 2.2410
-0.1540 2.4239 1.1501
-0.7658 2.3997 1.1511
-1.3806 2.2387 1.1523
-3.5645 3.5005 2.0886
-4.5104 2.6807 2.0886
-5.2654 1.6154 2.0886
-5.7508 0.3479 2.0886
-5.8956 -1.0477 2.0886
-5.6514 -2.4658 2.0886
-5.0096 -3.7808 2.0886
-4.0107 -4.8656 2.0886
-2.9438 -6.0258 2.2410
-1.4275 -6.4068 2.2410
0.1050 -6.3536 2.2410
1.5273 -5.9056 2.2410
1.7385 -3.2536 1.4196
2.3688 -2.6484 1.4360
4.3579 -2.9843 2.2410
4.7262 -1.7684 2.2410
4.8153 -0.5503 2.2410
4.6479 0.6181 2.2410
4.2500 1.6961 2.2410
3.6488 2.6508 2.2410
2.8712 3.4549 2.2410
1.9442 4.0833 2.2410
0.8961 4.5125 2.2410
-0.1239 2.4217 1.1500
-0.7350 2.4041 1.1511
-1.3502 2.2502 1.1522
-3.5135 3.5347 2.0886
-4.4669 2.7278 2.0886
-5.2334 1.6740 2.0886
-5.7341 0.4150 2.0886
-5.8973 -0.9763 2.0886
-5.6732 -2.3962 2.0886
-5.0506 -3.7196 2.0886
-4.0679 -4.8186 2.0886
-3.0167 -5.9953 2.2410
-1.5048 -6.3982 2.2410
0.0301 -6.3661 2.2410
1.4605 -5.9364 2.2410
1.7313 -3.3352 1.4427
2.3074 -2.6429 1.4144
4.3319 -3.0439 2.2410
4.7146 -1.8297 2.2410
4.8172 -0.6104 2.2410
4.6620 0.5615 2.2410
4.2749 1.6449 2.2410
3.6833 2.6065 2.2410
2.9139 3.4186 2.2410
1.9937 4.0564 2.2410
0.9509 4.4962 2.2410
-0.0939 2.4192 1.1500
-0.7041 2.4081 1.1510
-1.3198 2.2613 1.1522
-3.4623 3.5681 2.0886
-4.4231 2.7742 2.0886
-5.2007 1.7320 2.0886
-5.7166 0.4819 2.0886
-5.8981 -0.9052 2.0886
-5.6940 -2.3265 2.0886
-5.0909 -3.6577 2.0886
-4.1244 -4.7707 2.0886
-3.0891 -5.9638 2.2410
-1.5821 -6.3885 2.2410
-0.0452 -6.3777 2.2410
1.3930 -5.9663 2.2410
1.7238 -3.4198 1.4667
2.2476 -2.6375 1.3936
4.3051 -3.1034 2.2410
4.7022 -1.8911 2.2410
4.8184 -0.6706 2.2410
4.6754 0.5048 2.2410
4.2994 1.5933 2.2410
3.7173 2.5617 2.2410
2.9562 3.3819 2.2410
2.0428 4.0290 2.2410
1.0055 4.4792 2.2410
-0.0640 2.4164 1.1499
-0.6732 2.4118 1.1509
-1.2893 2.2720 1.1521
-3.4108 3.6010 2.0886
-4.3787 2.8200 2.0886
-5.1674 1.7896 2.0886
-5.6982 0.5483 2.0886
-5.8979 -0.8340 2.0886
-5.7137 -2.2564 2.0886
-5.1302 -3.5953 2.0886
-4.1802 -4.7221 2.0886
-3.1612 -5.9311 2.2410
-1.6594 -6.3777 2.2410
-0.1198 -5.9557 2.2410
1.2294 -5.6031 2.2410
1.7144 -3.5200 1.5976
2.1810 -2.6325 1.4614
4.0170 -2.9819 2.2410
4.4144 -1.8475 2.2410
4.5457 -0.6972 2.2410
4.4294 0.4170 2.2410
4.0888 1.4534 2.2410
3.5492 2.3786 2.2410
2.8364 3.1643 2.2410
1.9768 3.7856 2.2410
0.9982 4.2193 2.2410
-0.0352 2.2800 1.1500
-0.6098 2.2781 1.1510
-1.1898 2.1483 1.1521
-3.1655 3.4110 2.0886
-4.0725 2.6815 2.0886
-4.8101 1.7209 2.0886
-5.3069 0.5661 2.0886
-5.4971 -0.7180 2.0886
-5.3340 -2.0394 2.0886
-4.8039 -3.2862 2.0886
-3.9361 -4.3424 2.0886
-3.0078 -5.4813 2.2410
-1.6211 -5.9231 2.2410
-0.1903 -5.9639 2.2410
1.1655 -5.6288 2.2410
1.7063 -3.6119 1.6263
2.1243 -2.6274 1.4409
3.6311 -2.7640 2.0395
4.4010 -1.9051 2.2410
4.5452 -0.7543 2.2410
4.4407 0.3628 2.2410
4.1108 1.4040 2.2410
3.5805 2.3354 2.2410
2.8758 3.1287 2.2410
2.0229 3.7588 2.2410
1.0495 4.2024 2.2410
-0.0070 2.2769 1.1500
-0.5808 2.2812 1.1509
-1.1611 2.1579 1.1520
-3.1170 3.4410 2.0886
-4.0306 2.7237 2.0886
-4.7784 1.7739 2.0886
-5.2889 0.6276 2.0886
-5.4957 -0.6520 2.0886
-5.3510 -1.9741 2.0886
-4.8389 -3.2274 2.0886
-3.9865 -4.2958 2.0886
-3.0737 -5.4489 2.2410
-1.6925 -5.9106 2.2410
-0.2609 -5.9712 2.2410
1.1010 -5.6536 2.2410
1.6979 -3.7076 1.6564
2.0688 -2.6224 1.4212
3.5299 -2.7548 1.9965
4.3869 -1.9626 2.2410
4.5441 -0.8114 2.2410
4.4515 0.3084 2.2410
4.1322 1.3543 2.2410
3.6114 2.2919 2.2410
2.9147 3.0927 2.2410
2.0686 3.7315 2.2410
1.1006 4.1850 2.2410
0.0211 2.2735 1.1499
-0.5517 2.2839 1.1509
-1.1323 2.1672 1.1520
-3.0682 3.4705 2.0886
-3.9883 2.7653 2.0886
-4.7461 1.8265 2.0886
-5.2700 0.6887 2.0886
-5.4934 -0.5862 2.0886
-5.3670 -1.9087 2.0886
-4.8730 -3.1682 2.0886
-4.0363 -4.2484 2.0886
-3.1391 -5.4154 2.2410
-1.7638 -5.8970 2.2410
-0.3318 -5.9775 2.2410
1.0362 -5.6777 2.2410
1.6891 -3.8073 1.6881
2.0147 -2.6175 1.4021
3.4324 -2.7459 1.9554
4.3721 -2.0201 2.2410
4.5424 -0.8686 2.2410
4.4617 0.2539 2.2410
4.1532 1.3043 2.2410
3.6418 2.2481 2.2410
2.9533 3.0564 2.2410
2.1141 3.7038 2.2410
1.1514 4.1671 2.2410
0.0491 2.2698 1.1499
-0.5227 2.2864 1.1508
-1.1035 2.1762 1.1519
-3.0192 3.4993 2.0886
-3.9456 2.8063 2.0886
-4.7131 1.8785 2.0886
-5.2505 0.7495 2.0886
-5.4903 -0.5204 2.0886
-5.3820 -1.8431 2.0886
-4.9062 -3.1086 2.0886
-4.0853 -4.2004 2.0886
-3.2041 -5.3811 2.2410
-1.8350 -5.8825 2.2410
-0.4028 -5.9828 2.2410
0.9710 -5.7010 2.2410
1.6799 -3.9113 1.7213
1.9617 -2.6127 1.3836
3.3385 -2.7374 1.9161
4.3567 -2.0775 2.2410
4.5400 -0.9259 2.2410
4.4714 0.1991 2.2410
4.1736 1.2541 2.2410
3.6718 2.2039 2.2410
2.9916 3.0196 2.2410
2.1592 3.6756 2.2410
1.2020 4.1486 2.2410
0.0771 2.2658 1.1498
-0.4937 2.2885 1.1508
-1.0746 2.1849 1.1518
-2.9699 3.5275 2.0886
-3.9024 2.8467 2.0886
-4.6796 1.9301 2.0886
-5.2302 0.8099 2.0886
-5.4862 -0.4549 2.0886
-5.3962 -1.7773 2.0886
-4.9386 -3.0485 2.0886
-4.1337 -4.1516 2.0886
-3.2685 -5.3458 2.2410
-1.9060 -5.8669 2.2410
-0.4739 -5.9872 2.2410
0.9053 -5.7234 2.2410
1.6703 -4.0200 1.7564
1.9099 -2.6081 1.3657
3.2479 -2.7292 1.8785
4.3406 -2.1348 2.2410
4.5370 -0.9832 2.2410
4.4805 0.1442 2.2410
4.1936 1.2036 2.2410
3.7013 2.1594 2.2410
3.0294 2.9824 2.2410
2.2040 3.6470 2.2410
1.2524 4.1297 2.2410
0.1049 2.2616 1.1498
-0.4647 2.2902 1.1507
-1.0457 2.1932 1.1518
-2.9205 3.5551 2.0886
-3.8589 2.8865 2.0886
-4.6456 1.9811 2.0886
-5.2091 0.8700 2.0886
-5.4813 -0.3894 2.0886
-5.4094 -1.7114 2.0886
-4.9700 -2.9880 2.0886
-4.1814 -4.1021 2.0886
-3.3325 -5.3095 2.2410
-1.9769 -5.8503 2.2410
-0.5453 -5.9906 2.2410
0.8393 -5.7450 2.2410
1.6603 -4.1338 1.7933
1.8591 -2.6035 1.3484
3.1604 -2.7212 1.8424
4.3238 -2.1921 2.2410
4.5333 -1.0406 2.2410
4.4890 0.0892 2.2410
4.2130 1.1528 2.2410
3.7304 2.1145 2.2410
3.0669 2.9448 2.2410
2.2485 3.6179 2.2410
1.3025 4.1102 2.2410
0.1327 2.2570 1.1497
-0.4358 2.2917 1.1507
-1.0168 2.2012 1.1517
-2.8708 3.5820 2.0886
-3.8150 2.9257 2.0886
-4.6109 2.0316 2.0886
-5.1873 0.9296 2.0886
-5.4755 -0.3241 2.0886
-5.4217 -1.6455 2.0886
-5.0006 -2.9270 2.0886
-4.2283 -4.0520 2.0886
-3.3960 -5.2724 2.2410
-2.0475 -5.8327 2.2410
-0.6167 -5.9931 2.2410
0.7729 -5.7657 2.2410
1.6498 -4.2529 1.8323
1.8095 -2.5990 1.3317
3.0759 -2.7135 1.8078
4.3063 -2.2493 2.2410
4.5291 -1.0981 2.2410
4.4969 0.0339 2.2410
4.2319 1.1018 2.2410
3.7591 2.0693 2.2410
3.1039 2.9068 2.2410
2.2927 3.5883 2.2410
1.3524 4.0902 2.2410
0.1604 2.2522 1.1497
-0.4069 2.2929 1.1506
-0.9878 2.2088 1.1517
-2.8209 3.6084 2.0886
-3.7708 2.9643 2.0886
-4.5757 2.0816 2.0886
-5.1648 0.9889 2.0886
-5.4689 -0.2590 2.0886
-5.4330 -1.5794 2.0886
-5.0303 -2.8657 2.0886
-4.2745 -4.0012 2.0886
-3.4389 -5.2039 2.2280
-2.1180 -5.8141 2.2410
-0.6882 -5.9945 2.2410
0.7061 -5.7857 2.2410
1.6388 -4.3779 1.8735
1.7918 -2.6404 1.3387
2.9941 -2.7061 1.7746
4.2882 -2.3064 2.2410
4.5241 -1.1556 2.2410
4.5042 -0.0215 2.2410
4.2503 1.0505 2.2410
3.7872 2.0238 2.2410
3.1406 2.8684 2.2410
2.3365 3.5583 2.2410
1.4021 4.0698 2.2410
0.1880 2.2470 1.1497
-0.3780 2.2937 1.1506
-0.9588 2.2161 1.1516
-2.7708 3.6341 2.0886
-3.7261 3.0023 2.0886
-4.5400 2.1310 2.0886
-5.1416 1.0478 2.0886
-5.4614 -0.1941 2.0886
-5.4434 -1.5132 2.0886
-5.0592 -2.8040 2.0886
-4.3200 -3.9498 2.0886
-3.4286 -5.0584 2.1820
-2.1882 -5.7945 2.2410
-0.7598 -5.9950 2.2410
0.6390 -5.8047 2.2410
1.6272 -4.5092 1.9171
1.7865 -2.7013 1.3555
2.9149 -2.6989 1.7427
4.2693 -2.3634 2.2410
4.5186 -1.2132 2.2410
4.5110 -0.0771 2.2410
4.2682 0.9990 2.2410
3.8150 1.9779 2.2410
3.1769 2.8297 2.2410
2.3801 3.5279 2.2410
1.4514 4.0488 2.2410
0.2156 2.2416 1.1496
-0.3491 2.2943 1.1505
-0.9298 2.2231 1.1516
-2.7374 3.6818 2.1015
-3.6812 3.0397 2.0886
-4.5038 2.1800 2.0886
-5.1176 1.1063 2.0886
-5.4531 -0.1294 2.0886
-5.4529 -1.4470 2.0886
-5.0871 -2.7419 2.0886
-4.3647 -3.8977 2.0886
-3.4248 -4.9273 2.1419
-2.2582 -5.7739 2.2410
-0.8315 -5.9945 2.2410
0.5715 -5.8229 2.2410
1.6150 -4.6473 1.9632
1.7810 -2.7641 1.3730
2.8382 -2.6920 1.7120
4.2498 -2.4203 2.2410
4.5124 -1.2708 2.2410
4.5171 -0.1328 2.2410
4.2856 0.9472 2.2410
3.8422 1.9318 2.2410
3.2128 2.7905 2.2410
2.4233 3.4970 2.2410
1.5005 4.0273 2.2410
0.2430 2.2359 1.1496
-0.3203 2.2945 1.1505
-0.9007 2.2297 1.1515
-1.4736 2.0330 1.1527
-3.6358 3.0765 2.0886
-4.4670 2.2283 2.0886
-5.0930 1.1644 2.0886
-5.4439 -0.0649 2.0886
-5.4615 -1.3807 2.0886
-5.1141 -2.6795 2.0886
-4.4086 -3.8450 2.0886
-3.4210 -4.8008 2.1035
-2.3279 -5.7522 2.2410
-0.9033 -5.9931 2.2410
0.5037 -5.8402 2.2410
1.7844 -5.3379 2.2410
1.7753 -2.8288 1.3913
2.7638 -2.6852 1.6825
4.2296 -2.4771 2.2410
4.5055 -1.3284 2.2410
4.5227 -0.1886 2.2410
4.3024 0.8952 2.2410
3.8690 1.8854 2.2410
3.2483 2.7510 2.2410
2.4661 3.4657 2.2410
1.5494 4.0053 2.2410
0.2703 2.2300 1.1495
-0.2916 2.2944 1.1504
-0.8717 2.2360 1.1514
-1.4455 2.0460 1.1526
-3.5902 3.1127 2.0886
-4.4297 2.2762 2.0886
-5.0677 1.2220 2.0886
-5.4338 -0.0006 2.0886
-5.4692 -1.3144 2.0886
-5.1402 -2.6168 2.0886
-4.4517 -3.7917 2.0886
-3.4533 -4.7279 2.0886
-2.3974 -5.7296 2.2410
-0.9752 -5.9906 2.2410
0.4355 -5.8567 2.2410
1.7247 -5.3703 2.2410
1.7694 -2.8956 1.4104
2.6916 -2.6787 1.6542
4.2088 -2.5338 2.2410
4.4980 -1.3861 2.2410
4.5277 -0.2446 2.2410
4.3187 0.8429 2.2410
3.8954 1.8386 2.2410
3.2834 2.7111 2.2410
2.5087 3.4339 2.2410
1.5980 3.9829 2.2410
0.2976 2.2237 1.1495
-0.2629 2.2940 1.1504
-0.8426 2.2420 1.1514
-1.4174 2.0588 1.1525
-3.5442 3.1483 2.0886
-4.3919 2.3235 2.0886
-5.0417 1.2792 2.0886
-5.4230 0.0634 2.0886
-5.4759 -1.2481 2.0886
-5.1654 -2.5537 2.0886
-4.4941 -3.7378 2.0886
-3.5094 -4.6882 2.0886
-2.4666 -5.7060 2.2410
-1.0469 -5.9871 2.2410
0.3671 -5.8722 2.2410
1.6645 -5.4020 2.2410
1.7633 -2.9645 1.4303
2.6215 -2.6723 1.6269
4.1872 -2.5903 2.2410
4.4899 -1.4438 2.2410
4.5321 -0.3008 2.2410
4.3344 0.7905 2.2410
3.9212 1.7915 2.2410
3.3181 2.6708 2.2410
2.5509 3.4017 2.2410
1.6463 3.9599 2.2410
0.3247 2.2172 1.1495
-0.2342 2.2933 1.1503
-0.8135 2.2477 1.1513
-1.3892 2.0711 1.1525
-3.4979 3.1833 2.0886
-4.3536 2.3702 2.0886
-5.0150 1.3360 2.0886
-5.4113 0.1272 2.0886
-5.4818 -1.1817 2.0886
-5.1897 -2.4903 2.0886
-4.5357 -3.6832 2.0886
-3.5648 -4.6477 2.0886
-2.5354 -5.6813 2.2410
-1.1188 -5.9826 2.2410
0.2983 -5.8869 2.2410
1.6038 -5.4329 2.2410
1.7571 -3.0358 1.4511
2.5534 -2.6662 1.6006
4.1649 -2.6467 2.2410
4.4811 -1.5015 2.2410
4.5358 -0.3571 2.2410
4.3496 0.7378 2.2410
3.9466 1.7441 2.2410
3.3523 2.6302 2.2410
2.5927 3.3691 2.2410
1.6944 3.9364 2.2410
0.6859 4.3094 2.2410
-0.2056 2.2923 1.1503
-0.7844 2.2530 1.1513
-1.3610 2.0832 1.1524
-3.4513 3.2176 2.0886
-4.3149 2.4164 2.0886
-4.9877 1.3924 2.0886
-5.3988 0.1908 2.0886
-5.4867 -1.1153 2.0886
-5.2131 -2.4267 2.0886
-4.5765 -3.6282 2.0886
-3.6197 -4.6065 2.0886
-2.6040 -5.6557 2.2410
-1.1907 -5.9772 2.2410
0.2293 -5.9006 2.2410
1.5426 -5.4632 2.2410
1.7506 -3.1094 1.4728
2.4872 -2.6602 1.5753
4.1420 -2.7030 2.2410
4.4716 -1.5591 2.2410
4.5390 -0.4133 2.2410
4.3643 0.6848 2.2410
3.9715 1.6964 2.2410
3.3862 2.5892 2.2410
2.6342 3.3360 2.2410
1.7422 3.9125 2.2410
0.7384 4.2957 2.2410
-0.1771 2.2910 1.1502
-0.7553 2.2580 1.1512
-1.3326 2.0949 1.1524
-3.4044 3.2514 2.0886
-4.2756 2.4620 2.0886
-4.9597 1.4483 2.0886
-5.3855 0.2541 2.0886
-5.4907 -1.0490 2.0886
-5.2355 -2.3627 2.0886
-4.6164 -3.5725 2.0886
-3.6740 -4.5644 2.0886
-2.6722 -5.6291 2.2410
-1.2625 -5.9707 2.2410
0.1600 -5.9135 2.2410
1.4809 -5.4927 2.2410
1.7439 -3.1857 1.4956
2.4228 -2.6543 1.5508
4.1184 -2.7591 2.2410
4.4615 -1.6168 2.2410
4.5416 -0.4700 2.2410
4.3784 0.6317 2.2410
3.9959 1.6484 2.2410
3.4196 2.5478 2.2410
2.6754 3.3025 2.2410
1.7897 3.8881 2.2410
0.7908 4.2815 2.2410
-0.1486 2.2894 1.1502
-0.7262 2.2627 1.1512
-1.3042 2.1062 1.1523
-3.3572 3.2845 2.0886
-4.2359 2.5070 2.0886
-4.9311 1.5037 2.0886
-5.3713 0.3171 2.0886
-5.4938 -0.9827 2.0886
-5.2571 -2.2985 2.0886
-4.6556 -3.5163 2.0886
-3.7277 -4.5215 2.0886
-2.7401 -5.6015 2.2410
-1.3343 -5.9632 2.2410
0.0904 -5.9254 2.2410
1.4188 -5.5214 2.2410
1.7352 -3.2615 1.5179
2.3600 -2.6487 1.5273
4.0941 -2.8151 2.2410
4.4507 -1.6745 2.2410
4.5435 -0.5266 2.2410
4.3920 0.5783 2.2410
4.0199 1.6001 2.2410
3.4526 2.5060 2.2410
2.7161 3.2686 2.2410
1.8369 3.8632 2.2410
0.8430 4.2668 2.2410
-0.1201 2.2875 1.1501
-0.6971 2.2670 1.1511
-1.2757 2.1172 1.1522
-3.3097 3.3170 2.0886
-4.1958 2.5515 2.0886
-4.9018 1.5587 2.0886
-5.3564 0.3798 2.0886
-5.4960 -0.9164 2.0886
-5.2777 -2.2341 2.0886
-4.6939 -3.4596 2.0886
-3.7807 -4.4779 2.0886
-2.8076 -5.5729 2.2410
-1.4061 -5.9547 2.2410
0.0206 -5.9364 2.2410
1.3561 -5.5494 2.2410
1.7297 -3.3466 1.5442
2.2989 -2.6431 1.5045
4.0691 -2.8708 2.2410
4.4393 -1.7322 2.2410
4.5449 -0.5834 2.2410
4.4050 0.5248 2.2410
4.0433 1.5515 2.2410
3.4852 2.4639 2.2410
2.7566 3.2343 2.2410
1.8838 3.8378 2.2410
0.8949 4.2515 2.2410
-0.0918 2.2853 1.1501
-0.6680 2.2710 1.1511
-1.2472 2.1279 1.1522
-3.2619 3.3489 2.0886
-4.1551 2.5954 2.0886
-4.8719 1.6132 2.0886
-5.3407 0.4422 2.0886
-5.4972 -0.8502 2.0886
-5.2974 -2.1694 2.0886
-4.7314 -3.4023 2.0886
-3.8331 -4.4335 2.0886
-2.8747 -5.5434 2.2410
-1.4778 -5.9452 2.2410
-0.0494 -5.9465 2.2410
1.2930 -5.5766 2.2410
1.7222 -3.4316 1.5703
2.2393 -2.6378 1.4826
4.0434 -2.9264 2.2410
4.4272 -1.7898 2.2410
4.5456 -0.6402 2.2410
4.4175 0.4710 2.2410
4.0663 1.5027 2.2410
3.5174 2.4215 2.2410
2.7967 3.1995 2.2410
1.9304 3.8120 2.2410
0.9466 4.2356 2.2410
-0.0635 2.2828 1.1500
-0.6389 2.2747 1.1510
-1.2185 2.1382 1.1521
-3.2139 3.3802 2.0886
-4.1141 2.6387 2.0886
-4.8413 1.6673 2.0886
-5.3242 0.5043 2.0886
-5.4976 -0.7841 2.0886
-5.3162 -2.1045 2.0886
-4.7681 -3.3445 2.0886
-3.8849 -4.3884 2.0886
-2.9415 -5.5128 2.2410
-1.5495 -5.9347 2.2410
-0.1197 -5.9557 2.2410
1.2295 -5.6031 2.2410
1.7144 -3.5200 1.5976
2.1811 -2.6325 1.4614
4.0170 -2.9819 2.2410
4.4145 -1.8474 2.2410
4.5457 -0.6972 2.2410
4.4294 0.4170 2.2410
4.0888 1.4535 2.2410
3.5492 2.3787 2.2410
2.8364 3.1643 2.2410
1.9768 3.7856 2.2410
0.9982 4.2193 2.2410
-0.0352 2.2800 1.1500
-0.6098 2.2781 1.1510
-1.1899 2.1482 1.1521
-3.1656 3.4109 2.0886
-4.0726 2.6815 2.0886
-4.8102 1.7208 2.0886
-5.3069 0.5661 2.0886
-5.4971 -0.7180 2.0886
-5.3340 -2.0395 2.0886
-4.8039 -3.2862 2.0886
-3.9360 -4.3424 2.0886
-3.0078 -5.4813 2.2410
-1.6210 -5.9232 2.2410
-0.1902 -5.9639 2.2410
1.1655 -5.6288 2.2410
1.7063 -3.6118 1.6263
2.1243 -2.6274 1.4410
3.6312 -2.7640 2.0395
4.4010 -1.9050 2.2410
4.5452 -0.7542 2.2410
4.4407 0.3629 2.2410
4.1107 1.4041 2.2410
3.5805 2.3355 2.2410
2.8757 3.1288 2.2410
2.0228 3.7588 2.2410
1.0495 4.2024 2.2410
