ply
format ascii 1.0
element vertex 2175
property float32 x
property float32 y
property float32 z
end_header
-1.3501 2.6170 1.1519
-3.6953 4.2263 2.0888
-4.8494 3.4016 2.0888
-5.8261 2.2763 2.0888
-7.0059 0.9475 2.2412
-7.3643 -0.7589 2.2412
-7.2432 -2.5551 2.2412
-6.1553 -3.9901 2.0888
-5.1034 -5.3706 2.0888
-3.9566 -6.8444 2.2412
-2.2019 -7.4266 2.2412
-0.3889 -7.4810 2.2412
1.3186 -7.0482 2.2412
1.7065 -3.7936 1.3678
3.0281 -3.8891 1.7108
4.7980 -3.7937 2.2412
5.2880 -2.4080 2.2412
5.4559 -1.0151 2.2412
5.3303 0.3255 2.2412
4.9432 1.5690 2.2412
4.3259 2.6809 2.2412
3.5081 3.6330 2.2412
2.5177 4.4001 2.2412
1.3828 4.9575 2.2412
0.0684 2.7077 1.1494
-0.6137 2.7413 1.1505
-1.3150 2.6268 1.1518
-3.6345 4.2594 2.0888
-4.7951 3.4501 2.0888
-5.7829 2.3393 2.0888
-6.9768 1.0281 2.2412
-7.3572 -0.6702 2.2412
-7.2615 -2.4655 2.2412
-6.1964 -3.9138 2.0888
-5.1656 -5.3094 2.0888
-4.0396 -6.8016 2.2412
-2.2925 -7.4101 2.2412
-0.4782 -7.4904 2.2412
1.2379 -7.0802 2.2412
1.6960 -3.8937 1.3928
2.9474 -3.8804 1.6867
4.7646 -3.8615 2.2412
5.2713 -2.4780 2.2412
5.4547 -1.0840 2.2412
5.3430 0.2604 2.2412
4.9682 1.5098 2.2412
4.3617 2.6289 2.2412
3.5533 3.5896 2.2412
2.5710 4.3664 2.2412
1.4425 4.9350 2.2412
0.1015 2.7024 1.1493
-0.5789 2.7430 1.1504
-1.2799 2.6363 1.1517
-3.5736 4.2918 2.0888
-4.7405 3.4978 2.0888
-5.7391 2.4017 2.0888
-6.9466 1.1082 2.2412
-7.3490 -0.5819 2.2412
-7.2785 -2.3758 2.2412
-6.2364 -3.8368 2.0888
-5.2270 -5.2472 2.0888
-4.1219 -6.7576 2.2412
-2.3829 -7.3922 2.2412
-0.5679 -7.4986 2.2412
1.1565 -7.1112 2.2412
1.6851 -3.9979 1.4190
2.8685 -3.8720 1.6634
4.7304 -3.9291 2.2412
5.2539 -2.5480 2.2412
5.4528 -1.1529 2.2412
5.3551 0.1952 2.2412
4.9927 1.4501 2.2412
4.3971 2.5765 2.2412
3.5981 3.5457 2.2412
2.6238 4.3324 2.2412
1.5020 4.9119 2.2412
0.1346 2.6967 1.1493
-0.5442 2.7443 1.1504
-1.2448 2.6453 1.1517
-3.5123 4.3235 2.0888
-4.6854 3.5448 2.0888
-5.6946 2.4633 2.0888
-6.9156 1.1876 2.2412
-7.3395 -0.4937 2.2412
-7.2941 -2.2859 2.2412
-6.2751 -3.7594 2.0888
-5.2873 -5.1842 2.0888
-4.2037 -6.7123 2.2412
-2.4732 -7.3730 2.2412
-0.6577 -7.5056 2.2412
1.0747 -7.1411 2.2412
1.6737 -4.1069 1.4467
2.7914 -3.8637 1.6409
4.6954 -3.9964 2.2412
5.2356 -2.6180 2.2412
5.4501 -1.2220 2.2412
5.3666 0.1296 2.2412
5.0166 1.3902 2.2412
4.4320 2.5237 2.2412
3.6424 3.5014 2.2412
2.6762 4.2977 2.2412
1.5611 4.8882 2.2412
0.1675 2.6908 1.1492
-0.5095 2.7453 1.1503
-1.2096 2.6540 1.1516
-3.4510 4.3543 2.0888
-4.6299 3.5910 2.0888
-5.6495 2.5243 2.0888
-6.8835 1.2665 2.2412
-7.3288 -0.4060 2.2412
-7.3085 -2.1960 2.2412
-6.3127 -3.6814 2.0888
-5.3468 -5.1202 2.0888
-3.9934 -6.2125 2.0888
-2.5631 -7.3526 2.2412
-0.7479 -7.5113 2.2412
0.9922 -7.1700 2.2412
1.6617 -4.2206 1.4758
2.7160 -3.8556 1.6191
4.6594 -4.0635 2.2412
5.2165 -2.6879 2.2412
5.4468 -1.2911 2.2412
5.3773 0.0639 2.2412
5.0400 1.3299 2.2412
4.4663 2.4705 2.2412
3.6863 3.4566 2.2412
2.7283 4.2626 2.2412
1.6200 4.8640 2.2412
0.2004 2.6845 1.1492
-0.4749 2.7459 1.1503
-1.1745 2.6622 1.1515
-3.3893 4.3844 2.0888
-4.5740 3.6365 2.0888
-5.6037 2.5846 2.0888
-6.3847 1.2533 2.0888
-7.3170 -0.3184 2.2412
-7.3216 -2.1059 2.2412
-6.3491 -3.6031 2.0888
-5.4052 -5.0554 2.0888
-4.0684 -6.1680 2.0888
-2.6530 -7.3307 2.2412
-0.8381 -7.5157 2.2412
0.9093 -7.1978 2.2412
1.6492 -4.3398 1.5066
2.6421 -3.8476 1.5980
4.6226 -4.1304 2.2412
5.1967 -2.7578 2.2412
5.4426 -1.3605 2.2412
5.3875 -0.0021 2.2412
5.0627 1.2693 2.2412
4.5001 2.4169 2.2412
3.7298 3.4114 2.2412
2.7800 4.2270 2.2412
1.6785 4.8392 2.2412
0.2331 2.6779 1.1492
-0.4404 2.7462 1.1502
-1.1393 2.6701 1.1515
-3.3276 4.4138 2.0888
-4.5177 3.6812 2.0888
-5.5573 2.6442 2.0888
-6.3531 1.3258 2.0888
-7.3040 -0.2312 2.2412
-7.3333 -2.0158 2.2412
-6.3844 -3.5241 2.0888
-5.4626 -4.9897 2.0888
-4.1426 -6.1224 2.0888
-2.7425 -7.3075 2.2412
-0.9286 -7.5189 2.2412
0.8258 -7.2246 2.2412
1.6362 -4.4645 1.5390
2.5698 -3.8399 1.5776
4.5849 -4.1970 2.2412
5.1759 -2.8276 2.2412
5.4377 -1.4298 2.2412
5.3969 -0.0683 2.2412
5.0848 1.2084 2.2412
4.5334 2.3629 2.2412
3.7728 3.3657 2.2412
2.8313 4.1908 2.2412
1.7367 4.8138 2.2412
0.2657 2.6709 1.1491
-0.4059 2.7461 1.1502
-1.1042 2.6775 1.1514
-3.2656 4.4424 2.0888
-4.4610 3.7251 2.0888
-5.5103 2.7030 2.0888
-6.3206 1.3976 2.0888
-7.2899 -0.1443 2.2412
-7.3438 -1.9256 2.2412
-6.4184 -3.4447 2.0888
-5.5190 -4.9232 2.0888
-4.2162 -6.0756 2.0888
-2.8318 -7.2830 2.2412
-1.0192 -7.5207 2.2412
0.7419 -7.2503 2.2412
1.6224 -4.5956 1.5734
2.4988 -3.8323 1.5578
4.5464 -4.2633 2.2412
5.1544 -2.8973 2.2412
5.4321 -1.4994 2.2412
5.4056 -0.1347 2.2412
5.1064 1.1472 2.2412
4.5662 2.3086 2.2412
3.8153 3.3196 2.2412
2.8823 4.1542 2.2412
1.7947 4.7878 2.2412
0.2981 2.6636 1.1491
-0.3715 2.7456 1.1501
-1.0690 2.6846 1.1513
-3.2034 4.4702 2.0888
-4.4041 3.7683 2.0888
-5.4627 2.7611 2.0888
-6.2873 1.4689 2.0888
-7.2746 -0.0577 2.2412
-7.3530 -1.8355 2.2412
-6.4512 -3.3649 2.0888
-5.5744 -4.8558 2.0888
-4.2892 -6.0277 2.0888
-2.9207 -7.2572 2.2412
-1.1099 -7.5213 2.2412
0.6573 -7.2749 2.2412
1.6080 -4.7334 1.6098
2.4294 -3.8248 1.5387
4.5070 -4.3293 2.2412
5.1320 -2.9670 2.2412
5.4257 -1.5690 2.2412
5.4137 -0.2013 2.2412
5.1273 1.0857 2.2412
4.5985 2.2539 2.2412
3.8575 3.2730 2.2412
2.9328 4.1170 2.2412
1.8523 4.7613 2.2412
0.3305 2.6560 1.1490
-0.3371 2.7448 1.1500
-1.0338 2.6912 1.1513
-3.1412 4.4973 2.0888
-4.3467 3.8107 2.0888
-5.4145 2.8186 2.0888
-6.2531 1.5396 2.0888
-7.2582 0.0284 2.2412
-7.3609 -1.7453 2.2412
-6.4829 -3.2847 2.0888
-5.6288 -4.7877 2.0888
-4.3613 -5.9788 2.0888
-3.0094 -7.2300 2.2412
-1.2008 -7.5207 2.2412
0.5724 -7.2984 2.2412
1.5928 -4.8782 1.6483
2.3612 -3.8175 1.5202
4.4668 -4.3951 2.2412
5.1088 -3.0366 2.2412
5.4185 -1.6386 2.2412
5.4211 -0.2681 2.2412
5.1477 1.0239 2.2412
4.6302 2.1989 2.2412
3.8991 3.2260 2.2412
2.9830 4.0793 2.2412
1.9096 4.7342 2.2412
0.3627 2.6481 1.1490
-0.3029 2.7436 1.1500
-0.9987 2.6975 1.1512
-3.0787 4.5236 2.0888
-4.2890 3.8523 2.0888
-5.3658 2.8752 2.0888
-6.2182 1.6094 2.0888
-7.2406 0.1142 2.2412
-7.3675 -1.6552 2.2412
-6.5133 -3.2042 2.0888
-5.6821 -4.7187 2.0888
-4.4328 -5.9286 2.0888
-3.0976 -7.2015 2.2412
-1.2917 -7.5187 2.2412
0.4870 -7.3208 2.2412
1.5768 -5.0312 1.6892
2.2943 -3.8103 1.5022
4.4257 -4.4605 2.2412
5.0848 -3.1061 2.2412
5.4105 -1.7084 2.2412
5.4278 -0.3351 2.2412
5.1674 0.9618 2.2412
4.6614 2.1433 2.2412
3.9403 3.1785 2.2412
3.0327 4.0412 2.2412
1.9665 4.7066 2.2412
0.7703 5.1497 2.2412
-0.2687 2.7421 1.1499
-0.9636 2.7034 1.1511
-3.0162 4.5492 2.0888
-4.2309 3.8932 2.0888
-5.3164 2.9312 2.0888
-6.1824 1.6792 2.0888
-7.2220 0.1995 2.2412
-7.3728 -1.5650 2.2412
-6.5425 -3.1231 2.0888
-4.8634 -3.9430 1.7717
-4.5035 -5.8775 2.0888
-3.1856 -7.1717 2.2412
-1.3828 -7.5154 2.2412
0.4012 -7.3421 2.2412
1.5599 -5.1925 1.7326
2.2286 -3.8033 1.4848
4.3837 -4.5256 2.2412
5.0599 -3.1755 2.2412
5.4018 -1.7781 2.2412
5.4338 -0.4024 2.2412
5.1865 0.8994 2.2412
4.6920 2.0875 2.2412
3.9810 3.1307 2.2412
3.0821 4.0025 2.2412
2.0232 4.6783 2.2412
0.8327 5.1332 2.2412
-0.2346 2.7402 1.1499
-0.9284 2.7089 1.1511
-2.9535 4.5740 2.0888
-4.1726 3.9332 2.0888
-5.2666 2.9864 2.0888
-6.1458 1.7481 2.0888
-7.2022 0.2845 2.2412
-7.3769 -1.4750 2.2412
-6.5705 -3.0419 2.0888
-4.8888 -3.8689 1.7650
-4.5735 -5.8253 2.0888
-3.2730 -7.1405 2.2412
-1.4738 -7.5108 2.2412
0.3148 -7.3622 2.2412
1.5419 -5.3635 1.7789
2.1641 -3.7964 1.4680
4.3409 -4.5903 2.2412
5.0342 -3.2448 2.2412
5.3923 -1.8480 2.2412
5.4391 -0.4697 2.2412
5.2050 0.8367 2.2412
4.7221 2.0313 2.2412
4.0212 3.0824 2.2412
3.1311 3.9634 2.2412
2.0795 4.6496 2.2412
0.8949 5.1161 2.2412
-0.2006 2.7380 1.1498
-0.8934 2.7140 1.1510
-2.8907 4.5981 2.0888
-4.1139 3.9726 2.0888
-5.2162 3.0410 2.0888
-6.1085 1.8163 2.0888
-7.1814 0.3690 2.2412
-7.3796 -1.3850 2.2412
-6.5973 -2.9602 2.0888
-5.8356 -4.5074 2.0888
-4.6426 -5.7720 2.0888
-3.3602 -7.1080 2.2412
-1.5650 -7.5049 2.2412
0.2282 -7.3812 2.2412
1.5230 -5.5446 1.8282
2.1007 -3.7896 1.4516
3.6524 -3.9564 1.9049
5.0076 -3.3139 2.2412
5.3820 -1.9179 2.2412
5.4437 -0.5374 2.2412
5.2229 0.7737 2.2412
4.7517 1.9748 2.2412
4.0610 3.0337 2.2412
3.1797 3.9238 2.2412
2.1355 4.6203 2.2412
0.9567 5.0984 2.2412
-0.1667 2.7354 1.1498
-0.8583 2.7187 1.1509
-2.8278 4.6214 2.0888
-4.0550 4.0111 2.0888
-5.1653 3.0947 2.0888
-6.0703 1.8840 2.0888
-7.1594 0.4531 2.2412
-7.3812 -1.2951 2.2412
-6.6229 -2.8783 2.0888
-5.8847 -4.4355 2.0888
-4.7110 -5.7177 2.0888
-3.4468 -7.0743 2.2412
-1.6560 -7.4977 2.2412
0.1411 -7.3990 2.2412
1.5028 -5.7372 1.8810
2.0384 -3.7829 1.4358
3.5561 -3.9460 1.8742
4.9802 -3.3829 2.2412
5.3710 -1.9878 2.2412
5.4476 -0.6051 2.2412
5.2401 0.7106 2.2412
4.7807 1.9178 2.2412
4.1003 2.9845 2.2412
3.2278 3.8837 2.2412
2.1911 4.5905 2.2412
1.0184 5.0801 2.2412
-0.1328 2.7325 1.1497
-0.8232 2.7231 1.1509
-2.7648 4.6439 2.0888
-3.9957 4.0489 2.0888
-5.1138 3.1477 2.0888
-6.0315 1.9510 2.0888
-7.1365 0.5367 2.2412
-7.3815 -1.2053 2.2412
-6.6472 -2.7961 2.0888
-5.9326 -4.3629 2.0888
-4.7785 -5.6624 2.0888
-3.5331 -7.0392 2.2412
-1.7472 -7.4891 2.2412
0.0536 -7.4156 2.2412
1.4813 -5.9420 1.9375
1.9771 -3.7763 1.4204
3.4623 -3.9359 1.8444
4.9520 -3.4518 2.2412
5.3592 -2.0578 2.2412
5.4507 -0.6731 2.2412
5.2568 0.6470 2.2412
4.8092 1.8606 2.2412
4.1391 2.9350 2.2412
3.2756 3.8431 2.2412
2.2464 4.5600 2.2412
1.0798 5.0612 2.2412
-0.0991 2.7292 1.1497
-0.7882 2.7271 1.1508
-2.7016 4.6658 2.0888
-3.9362 4.0858 2.0888
-5.0620 3.2000 2.0888
-5.9918 2.0174 2.0888
-7.1124 0.6199 2.2412
-7.3805 -1.1158 2.2412
-6.6704 -2.7136 2.0888
-5.9794 -4.2896 2.0888
-4.8453 -5.6060 2.0888
-3.6188 -7.0028 2.2412
-1.8382 -7.4793 2.2412
-0.0342 -7.4311 2.2412
1.4584 -6.1609 1.9982
1.9168 -3.7699 1.4055
3.3711 -3.9261 1.8158
4.9229 -3.5205 2.2412
5.3465 -2.1278 2.2412
5.4532 -0.7411 2.2412
5.2727 0.5833 2.2412
4.8371 1.8029 2.2412
4.1774 2.8850 2.2412
3.3229 3.8020 2.2412
2.3014 4.5291 2.2412
1.1410 5.0416 2.2412
-0.0654 2.7256 1.1496
-0.7532 2.7306 1.1507
-2.6542 4.7148 2.1013
-3.8763 4.1221 2.0888
-5.0095 3.2515 2.0888
-5.9515 2.0831 2.0888
-7.0873 0.7025 2.2412
-7.3783 -1.0262 2.2412
-6.6923 -2.6308 2.0888
-6.0251 -4.2156 2.0888
-4.9111 -5.5487 2.0888
-3.7041 -6.9652 2.2412
-1.9293 -7.4681 2.2412
-0.1214 -6.8806 2.2412
1.4338 -6.4396 2.2412
1.8496 -3.7638 1.4953
3.2700 -3.9165 1.9151
4.5680 -3.3638 2.2412
4.9939 -2.0684 2.2412
5.1206 -0.7681 2.2412
4.9734 0.4818 2.2412
4.5808 1.6385 2.2412
3.9721 2.6682 2.2412
3.1751 3.5430 2.2412
2.2175 4.2377 2.2412
1.1273 4.7282 2.2412
-0.0331 2.5598 1.1497
-0.6784 2.5663 1.1508
-1.3352 2.4307 1.1520
-3.5750 3.8807 2.0888
-4.6271 3.0708 2.0888
-5.4979 1.9879 2.0888
-6.1007 0.6690 2.0888
-6.3518 -0.8145 2.0888
-6.1881 -2.3544 2.0888
-5.5865 -3.8149 2.0888
-4.5787 -5.0518 2.0888
-3.4906 -6.3746 2.2412
-1.8682 -6.8721 2.2412
-0.2030 -6.8917 2.2412
1.3604 -6.4709 2.2412
1.7913 -3.7575 1.4805
3.1835 -3.9072 1.8868
4.5385 -3.4272 2.2412
4.9799 -2.1338 2.2412
5.1211 -0.8323 2.2412
4.9868 0.4212 2.2412
4.6058 1.5834 2.2412
4.0072 2.6201 2.2412
3.2190 3.5033 2.2412
2.2688 4.2077 2.2412
1.1845 4.7089 2.2412
-0.0015 2.5559 1.1497
-0.6457 2.5692 1.1507
-1.3025 2.4410 1.1520
-3.5191 3.9137 2.0888
-4.5781 3.1179 2.0888
-5.4600 2.0481 2.0888
-6.0782 0.7396 2.0888
-6.3487 -0.7379 2.0888
-6.2067 -2.2781 2.0888
-5.6267 -3.7460 2.0888
-4.6375 -4.9973 2.0888
-3.5677 -6.3373 2.2412
-1.9516 -6.8587 2.2412
-0.2849 -6.9017 2.2412
1.2866 -6.5013 2.2412
1.7338 -3.7514 1.4662
3.0992 -3.8981 1.8596
4.5082 -3.4905 2.2412
4.9652 -2.1992 2.2412
5.1208 -0.8967 2.2412
4.9996 0.3604 2.2412
4.6303 1.5280 2.2412
4.0419 2.5717 2.2412
3.2625 3.4632 2.2412
2.3197 4.1771 2.2412
1.2415 4.6891 2.2412
0.0299 2.5518 1.1496
-0.6129 2.5718 1.1507
-1.2698 2.4510 1.1519
-3.4630 3.9461 2.0888
-4.5286 3.1644 2.0888
-5.4214 2.1076 2.0888
-6.0549 0.8097 2.0888
-6.3445 -0.6615 2.0888
-6.2242 -2.2016 2.0888
-5.6659 -3.6766 2.0888
-4.6956 -4.9419 2.0888
-3.6443 -6.2988 2.2412
-2.0349 -6.8440 2.2412
-0.3671 -6.9106 2.2412
1.2121 -6.5308 2.2412
1.7049 -3.8072 1.4763
3.0169 -3.8892 1.8332
4.4771 -3.5535 2.2412
4.9497 -2.2646 2.2412
5.1198 -0.9611 2.2412
5.0118 0.2993 2.2412
4.6542 1.4723 2.2412
4.0760 2.5230 2.2412
3.3056 3.4226 2.2412
2.3703 4.1460 2.2412
1.2981 4.6686 2.2412
0.0613 2.5473 1.1496
-0.5803 2.5741 1.1506
-1.2370 2.4605 1.1518
-3.4066 3.9777 2.0888
-4.4788 3.2102 2.0888
-5.3822 2.1666 2.0888
-6.0308 0.8794 2.0888
-6.3394 -0.5853 2.0888
-6.2406 -2.1250 2.0888
-5.7041 -3.6066 2.0888
-4.7528 -4.8858 2.0888
-3.7204 -6.2592 2.2412
-2.1181 -6.8282 2.2412
-0.4495 -6.9183 2.2412
1.1372 -6.5593 2.2412
1.6944 -3.9077 1.5036
2.9365 -3.8805 1.8078
4.4453 -3.6163 2.2412
4.9334 -2.3299 2.2412
5.1181 -1.0257 2.2412
5.0234 0.2381 2.2412
4.6776 1.4162 2.2412
4.1097 2.4738 2.2412
3.3482 3.3816 2.2412
2.4206 4.1144 2.2412
1.3545 4.6477 2.2412
0.0925 2.5425 1.1495
-0.5476 2.5759 1.1506
-1.2042 2.4697 1.1518
-3.3500 4.0086 2.0888
-4.4285 3.2553 2.0888
-5.3424 2.2250 2.0888
-6.0057 0.9487 2.0888
-6.3332 -0.5093 2.0888
-6.2559 -2.0482 2.0888
-5.7412 -3.5362 2.0888
-4.8092 -4.8287 2.0888
-3.7959 -6.2185 2.2412
-2.2011 -6.8111 2.2412
-0.5321 -6.9249 2.2412
1.0618 -6.5869 2.2412
1.6834 -4.0125 1.5323
2.8578 -3.8721 1.7831
4.4126 -3.6789 2.2412
4.9163 -2.3952 2.2412
5.1157 -1.0904 2.2412
5.0343 0.1766 2.2412
4.7004 1.3600 2.2412
4.1430 2.4243 2.2412
3.3905 3.3402 2.2412
2.4705 4.0823 2.2412
1.4107 4.6261 2.2412
0.1237 2.5374 1.1495
-0.5150 2.5775 1.1505
-1.1714 2.4785 1.1517
-3.2932 4.0388 2.0888
-4.3778 3.2996 2.0888
-5.3019 2.2827 2.0888
-5.9799 1.0175 2.0888
-6.3259 -0.4335 2.0888
-6.2700 -1.9713 2.0888
-5.7772 -3.4652 2.0888
-4.8647 -4.7709 2.0888
-3.7095 -5.9190 2.1477
-2.2839 -6.7928 2.2412
-0.6149 -6.9304 2.2412
0.9859 -6.6136 2.2412
1.6719 -4.1220 1.5625
2.7810 -3.8638 1.7593
4.3791 -3.7413 2.2412
4.8985 -2.4604 2.2412
5.1127 -1.1551 2.2412
5.0446 0.1149 2.2412
4.7226 1.3034 2.2412
4.1757 2.3743 2.2412
3.4323 3.2983 2.2412
2.5200 4.0497 2.2412
1.4665 4.6040 2.2412
0.1547 2.5319 1.1494
-0.4825 2.5787 1.1504
-1.1386 2.4870 1.1516
-3.2362 4.0683 2.0888
-4.3267 3.3433 2.0888
-5.2608 2.3398 2.0888
-5.9532 1.0859 2.0888
-6.3177 -0.3579 2.0888
-6.2831 -1.8942 2.0888
-5.8122 -3.3938 2.0888
-4.9194 -4.7122 2.0888
-3.6770 -5.7166 2.0888
-2.3665 -6.7733 2.2412
-0.6979 -6.9347 2.2412
0.9095 -6.6393 2.2412
1.6379 -4.1800 1.5731
2.7057 -3.8557 1.7363
4.3448 -3.8034 2.2412
4.8800 -2.5256 2.2412
5.1089 -1.2200 2.2412
5.0543 0.0530 2.2412
4.7443 1.2465 2.2412
4.2079 2.3241 2.2412
3.4737 3.2560 2.2412
2.5692 4.0166 2.2412
1.5221 4.5813 2.2412
0.1857 2.5262 1.1494
-0.4500 2.5795 1.1504
-1.1057 2.4950 1.1516
-3.1790 4.0971 2.0888
-4.2752 3.3863 2.0888
-5.2191 2.3963 2.0888
-5.9257 1.1537 2.0888
-6.3085 -0.2826 2.0888
-6.2951 -1.8171 2.0888
-5.8461 -3.3219 2.0888
-4.9732 -4.6528 2.0888
-3.7457 -5.6755 2.0888
-2.4489 -6.7526 2.2412
-0.7811 -6.9379 2.2412
0.8326 -6.6640 2.2412
1.5902 -4.2049 1.5714
2.6321 -3.8478 1.7140
4.3098 -3.8652 2.2412
4.8607 -2.5907 2.2412
5.1044 -1.2849 2.2412
5.0634 -0.0091 2.2412
4.7654 1.1893 2.2412
4.2397 2.2734 2.2412
3.5147 3.2133 2.2412
2.6181 3.9830 2.2412
1.5774 4.5581 2.2412
0.2165 2.5201 1.1493
-0.4175 2.5800 1.1503
-1.0728 2.5027 1.1515
-3.1216 4.1252 2.0888
-4.2233 3.4286 2.0888
-5.1768 2.4521 2.0888
-5.8973 1.2211 2.0888
-6.2983 -0.2075 2.0888
-6.3059 -1.7400 2.0888
-5.8790 -3.2496 2.0888
-5.0260 -4.5926 2.0888
-3.8138 -5.6334 2.0888
-2.5311 -6.7307 2.2412
-0.8643 -6.9400 2.2412
0.7553 -6.6877 2.2412
1.5459 -4.2394 1.5734
2.5600 -3.8400 1.6924
4.2739 -3.9268 2.2412
4.8406 -2.6558 2.2412
5.0992 -1.3500 2.2412
5.0717 -0.0714 2.2412
4.7859 1.1318 2.2412
4.2709 2.2224 2.2412
3.5553 3.1701 2.2412
2.6666 3.9489 2.2412
1.6324 4.5344 2.2412
0.2473 2.5138 1.1493
-0.3851 2.5802 1.1503
-1.0399 2.5100 1.1514
-3.0640 4.1526 2.0888
-4.1711 3.4701 2.0888
-5.1340 2.5073 2.0888
-5.8682 1.2879 2.0888
-6.2870 -0.1327 2.0888
-6.3157 -1.6627 2.0888
-5.9108 -3.1769 2.0888
-5.0780 -4.5316 2.0888
-3.8813 -5.5902 2.0888
-2.6129 -6.7076 2.2412
-0.9478 -6.9408 2.2412
0.6775 -6.7104 2.2412
1.5055 -4.2861 1.5802
2.4893 -3.8324 1.6716
4.2373 -3.9881 2.2412
4.8197 -2.7207 2.2412
5.0933 -1.4150 2.2412
5.0795 -0.1339 2.2412
4.8059 1.0741 2.2412
4.3017 2.1711 2.2412
3.5954 3.1266 2.2412
2.7147 3.9144 2.2412
1.6871 4.5101 2.2412
0.2779 2.5071 1.1492
-0.3528 2.5800 1.1502
-1.0070 2.5170 1.1514
-3.0063 4.1792 2.0888
-4.1185 3.5110 2.0888
-5.0905 2.5618 2.0888
-5.8383 1.3543 2.0888
-6.2748 -0.0582 2.0888
-6.3244 -1.5855 2.0888
-5.9414 -3.1038 2.0888
-5.1290 -4.4699 2.0888
-3.9481 -5.5461 2.0888
-2.6945 -6.6833 2.2412
-1.0313 -6.9405 2.2412
0.5993 -6.7321 2.2412
1.4710 -4.3527 1.5943
2.4200 -3.8250 1.6513
4.1998 -4.0491 2.2412
4.7980 -2.7856 2.2412
5.0866 -1.4802 2.2412
5.0866 -0.1966 2.2412
4.8253 1.0160 2.2412
4.3319 2.1193 2.2412
3.6351 3.0826 2.2412
2.7624 3.8794 2.2412
1.7416 4.4852 2.2412
0.3084 2.5001 1.1492
-0.3205 2.5795 1.1502
-0.9742 2.5235 1.1513
-2.9483 4.2052 2.0888
-4.0656 3.5512 2.0888
-5.0465 2.6158 2.0888
-5.8076 1.4201 2.0888
-6.2617 0.0161 2.0888
-6.3320 -1.5082 2.0888
-5.9711 -3.0302 2.0888
-5.1792 -4.4074 2.0888
-4.0144 -5.5010 2.0888
-2.7758 -6.6578 2.2412
-1.1149 -6.9390 2.2412
0.5207 -6.7528 2.2412
1.4617 -4.5006 1.6380
2.3521 -3.8177 1.6317
4.1616 -4.1099 2.2412
4.7756 -2.8503 2.2412
5.0792 -1.5454 2.2412
5.0930 -0.2594 2.2412
4.8441 0.9577 2.2412
4.3617 2.0673 2.2412
3.6743 3.0381 2.2412
2.8098 3.8439 2.2412
1.7957 4.4598 2.2412
0.3389 2.4928 1.1492
-0.2883 2.5786 1.1501
-0.9413 2.5297 1.1513
-2.8902 4.2305 2.0888
-4.0123 3.5906 2.0888
-5.0020 2.6690 2.0888
-5.7761 1.4854 2.0888
-6.2475 0.0901 2.0888
-6.3385 -1.4309 2.0888
-5.9996 -2.9564 2.0888
-5.2283 -4.3442 2.0888
-4.0799 -5.4548 2.0888
-2.8568 -6.6311 2.2412
-1.1985 -6.9364 2.2412
0.4417 -6.7725 2.2412
1.5745 -5.0515 1.8272
2.2853 -3.8105 1.6128
4.1225 -4.1703 2.2412
4.7524 -2.9150 2.2412
5.0712 -1.6107 2.2412
5.0988 -0.3224 2.2412
4.8624 0.8991 2.2412
4.3909 2.0148 2.2412
3.7131 2.9933 2.2412
2.8568 3.8079 2.2412
1.8495 4.4339 2.2412
0.7200 4.8471 2.2412
-0.2561 2.5774 1.1501
-0.9084 2.5356 1.1512
-2.8320 4.2553 2.0888
-3.9587 3.6294 2.0888
-4.9569 2.7216 2.0888
-5.7439 1.5502 2.0888
-6.2324 0.1637 2.0888
-6.3439 -1.3536 2.0888
-6.0270 -2.8821 2.0888
-4.8647 -3.9463 1.9259
-4.1448 -5.4078 2.0888
-2.9374 -6.6032 2.2412
-1.2823 -6.9325 2.2412
0.3623 -6.7911 2.2412
1.5575 -5.2140 1.8747
2.2199 -3.8035 1.5944
4.0827 -4.2303 2.2412
4.7284 -2.9795 2.2412
5.0623 -1.6760 2.2412
5.1040 -0.3856 2.2412
4.8800 0.8403 2.2412
4.4196 1.9621 2.2412
3.7515 2.9481 2.2412
2.9034 3.7714 2.2412
1.9030 4.4075 2.2412
0.7789 4.8319 2.2412
-0.2240 2.5759 1.1500
-0.8755 2.5410 1.1511
-2.7737 4.2789 2.0888
-3.9048 3.6674 2.0888
-4.9113 2.7735 2.0888
-5.7109 1.6144 2.0888
-6.2164 0.2369 2.0888
-6.3482 -1.2764 2.0888
-6.0533 -2.8076 2.0888
-4.8865 -3.8695 1.9173
-4.2090 -5.3597 2.0888
-3.0177 -6.5741 2.2412
-1.3660 -6.9275 2.2412
0.2826 -6.8087 2.2412
1.5394 -5.3859 1.9253
2.1555 -3.7966 1.5766
4.0420 -4.2901 2.2412
4.7037 -3.0439 2.2412
5.0528 -1.7414 2.2412
5.1084 -0.4490 2.2412
4.8971 0.7812 2.2412
4.4478 1.9090 2.2412
3.7894 2.9024 2.2412
2.9497 3.7345 2.2412
1.9562 4.3805 2.2412
0.8375 4.8161 2.2412
-0.1920 2.5740 1.1500
-0.8426 2.5461 1.1511
-2.7152 4.3020 2.0888
-3.8505 3.7047 2.0888
-4.8651 2.8247 2.0888
-5.6772 1.6781 2.0888
-6.1994 0.3099 2.0888
-6.3515 -1.1992 2.0888
-6.0785 -2.7327 2.0888
-5.3700 -4.1505 2.0888
-4.2725 -5.3107 2.0888
-3.0976 -6.5438 2.2412
-1.4498 -6.9212 2.2412
0.2025 -6.8252 2.2412
1.5203 -5.5683 1.9792
2.0923 -3.7898 1.5593
4.0006 -4.3495 2.2412
4.6781 -3.1082 2.2412
5.0425 -1.8067 2.2412
5.1122 -0.5125 2.2412
4.9135 0.7218 2.2412
4.4754 1.8556 2.2412
3.8268 2.8565 2.2412
2.9955 3.6971 2.2412
2.0091 4.3530 2.2412
0.8960 4.7997 2.2412
-0.1601 2.5718 1.1499
-0.8097 2.5509 1.1510
-2.6813 4.3647 2.1083
-3.7960 3.7413 2.0888
-4.8185 2.8753 2.0888
-5.6428 1.7412 2.0888
-6.1815 0.3824 2.0888
-6.3537 -1.1221 2.0888
-6.1027 -2.6576 2.0888
-5.4153 -4.0846 2.0888
-4.3352 -5.2608 2.0888
-3.1770 -6.5123 2.2412
-1.5335 -6.9138 2.2412
0.1220 -6.8407 2.2412
1.6505 -6.3403 2.2412
2.0302 -3.7831 1.5425
3.5430 -3.9460 2.0061
4.6518 -3.1723 2.2412
5.0315 -1.8721 2.2412
5.1153 -0.5761 2.2412
4.9294 0.6622 2.2412
4.5026 1.8018 2.2412
3.8638 2.8099 2.2412
3.0410 3.6593 2.2412
2.0617 4.3250 2.2412
0.9542 4.7827 2.2412
-0.1282 2.5693 1.1499
-0.7769 2.5553 1.1510
-1.4330 2.3974 1.1522
-3.7412 3.7772 2.0888
-4.7714 2.9252 2.0888
-5.6076 1.8037 2.0888
-6.1626 0.4546 2.0888
-6.3548 -1.0450 2.0888
-6.1257 -2.5822 2.0888
-5.4596 -4.0181 2.0888
-4.3972 -5.2099 2.0888
-3.2561 -6.4796 2.2412
-1.6173 -6.9052 2.2412
0.0412 -6.8551 2.2412
1.5789 -6.3743 2.2412
1.9690 -3.7766 1.5263
3.4496 -3.9359 1.9746
4.6247 -3.2363 2.2412
5.0197 -1.9375 2.2412
5.1178 -0.6400 2.2412
4.9447 0.6023 2.2412
4.5292 1.7477 2.2412
3.9003 2.7631 2.2412
3.0861 3.6210 2.2412
2.1139 4.2964 2.2412
1.0121 4.7651 2.2412
-0.0964 2.5665 1.1498
-0.7440 2.5593 1.1509
-1.4004 2.4089 1.1521
-3.6861 3.8124 2.0888
-4.7238 2.9744 2.0888
-5.5717 1.8656 2.0888
-6.1429 0.5264 2.0888
-6.3548 -0.9681 2.0888
-6.1476 -2.5065 2.0888
-5.5029 -3.9510 2.0888
-4.4584 -5.1581 2.0888
-3.3347 -6.4458 2.2412
-1.7009 -6.8954 2.2412
-0.0399 -6.8684 2.2412
1.5067 -6.4074 2.2412
1.9089 -3.7701 1.5106
3.3587 -3.9261 1.9443
4.5967 -3.3001 2.2412
5.0072 -2.0029 2.2412
5.1196 -0.7039 2.2412
4.9593 0.5422 2.2412
4.5553 1.6933 2.2412
3.9364 2.7158 2.2412
3.1308 3.5822 2.2412
2.1659 4.2673 2.2412
1.0698 4.7470 2.2412
-0.0647 2.5633 1.1498
-0.7112 2.5630 1.1508
-1.3678 2.4200 1.1521
-3.6307 3.8469 2.0888
-4.6757 3.0229 2.0888
-5.5352 1.9271 2.0888
-6.1222 0.5979 2.0888
-6.3538 -0.8912 2.0888
-6.1684 -2.4306 2.0888
-5.5452 -3.8832 2.0888
-4.5189 -5.1054 2.0888
-3.4129 -6.4108 2.2412
-1.7846 -6.8844 2.2412
-0.1213 -6.8806 2.2412
1.4339 -6.4396 2.2412
1.8496 -3.7638 1.4953
3.2701 -3.9165 1.9151
4.5680 -3.3637 2.2412
4.9939 -2.0684 2.2412
5.1206 -0.7680 2.2412
4.9734 0.4819 2.2412
4.5808 1.6385 2.2412
3.9720 2.6682 2.2412
3.1751 3.5430 2.2412
2.2175 4.2378 2.2412
1.1273 4.7283 2.2412
-0.0331 2.5598 1.1497
-0.6784 2.5663 1.1508
-1.3352 2.4307 1.1520
-3.5751 3.8807 2.0888
-4.6271 3.0707 2.0888
-5.4979 1.9878 2.0888
-6.1007 0.6689 2.0888
-6.3518 -0.8145 2.0888
-6.1881 -2.3545 2.0888
-5.5865 -3.8149 2.0888
-4.5786 -5.0518 2.0888
-3.4905 -6.3746 2.2412
-1.8681 -6.8721 2.2412
-0.2030 -6.8917 2.2412
1.3605 -6.4709 2.2412
1.7913 -3.7575 1.4805
3.1836 -3.9072 1.8869
4.5385 -3.4272 2.2412
4.9799 -2.1338 2.2412
5.1211 -0.8323 2.2412
4.9868 0.4213 2.2412
4.6058 1.5834 2.2412
4.0072 2.6202 2.2412
3.2190 3.5033 2.2412
2.2687 4.2077 2.2412
1.1845 4.7090 2.2412
-0.0016 2.5559 1.1497
-0.6457 2.5692 1.1507
-1.3025 2.4410 1.1520
-3.5192 3.9137 2.0888
-4.5781 3.1179 2.0888
-5.4600 2.0480 2.0888
-6.0783 0.7395 2.0888
-6.3487 -0.7380 2.0888
-6.2067 -2.2782 2.0888
-5.6267 -3.7460 2.0888
-4.6375 -4.9973 2.0888
-3.5677 -6.3373 2.2412
-1.9515 -6.8587 2.2412
-0.2849 -6.9017 2.2412
1.2866 -6.5013 2.2412
1.7339 -3.7514 1.4662
3.0993 -3.8981 1.8596
4.5082 -3.4904 2.2412
4.9652 -2.1991 2.2412
5.1208 -0.8966 2.2412
4.9996 0.3604 2.2412
4.6303 1.5280 2.2412
4.0418 2.5718 2.2412
3.2625 3.4632 2.2412
2.3197 4.1771 2.2412
1.2414 4.6891 2.2412
0.0299 2.5518 1.1496
-0.6130 2.5718 1.1507
-1.2698 2.4509 1.1519
-3.4630 3.9461 2.0888
-4.5287 3.1644 2.0888
-5.4215 2.1076 2.0888
-6.0549 0.8097 2.0888
-6.3445 -0.6617 2.0888
-6.2242 -2.2017 2.0888
-5.6659 -3.6766 2.0888
-4.6956 -4.9420 2.0888
-3.6442 -6.2989 2.2412
-2.0348 -6.8440 2.2412
-0.3671 -6.9106 2.2412
1.2122 -6.5308 2.2412
1.7049 -3.8071 1.4762
3.0170 -3.8892 1.8333
4.4772 -3.5534 2.2412
4.9497 -2.2646 2.2412
5.1198 -0.9610 2.2412
5.0118 0.2994 2.2412
4.6542 1.4724 2.2412
4.0760 2.5230 2.2412
3.3055 3.4227 2.2412
2.3703 4.1460 2.2412
1.2981 4.6687 2.2412
0.0612 2.5473 1.1496
-0.5803 2.5741 1.1506
-1.2370 2.4605 1.1518
-3.4067 3.9777 2.0888
-4.4788 3.2102 2.0888
-5.3823 2.1665 2.0888
-6.0308 0.8794 2.0888
-6.3394 -0.5854 2.0888
-6.2406 -2.1250 2.0888
-5.7040 -3.6067 2.0888
-4.7528 -4.8858 2.0888
-3.7204 -6.2593 2.2412
-2.1180 -6.8282 2.2412
-0.4494 -6.9183 2.2412
1.1373 -6.5593 2.2412
1.6944 -3.9076 1.5035
2.9365 -3.8806 1.8078
4.4453 -3.6162 2.2412
4.9334 -2.3298 2.2412
5.1181 -1.0256 2.2412
5.0234 0.2381 2.2412
4.6775 1.4162 2.2412
4.1097 2.4739 2.2412
3.3482 3.3817 2.2412
2.4205 4.1144 2.2412
1.3545 4.6477 2.2412
0.0925 2.5425 1.1495
-0.5477 2.5760 1.1506
-1.2042 2.4697 1.1518
-3.3501 4.0086 2.0888
-4.4285 3.2552 2.0888
-5.3424 2.2249 2.0888
-6.0058 0.9487 2.0888
-6.3332 -0.5094 2.0888
-6.2558 -2.0483 2.0888
-5.7412 -3.5362 2.0888
-4.8092 -4.8288 2.0888
-3.7958 -6.2186 2.2412
-2.2010 -6.8111 2.2412
-0.5321 -6.9249 2.2412
1.0618 -6.5869 2.2412
1.6834 -4.0124 1.5322
2.8579 -3.8721 1.7832
4.4126 -3.6788 2.2412
4.9164 -2.3952 2.2412
5.1157 -1.0903 2.2412
5.0343 0.1767 2.2412
4.7003 1.3601 2.2412
4.1429 2.4243 2.2412
3.3904 3.3403 2.2412
2.4704 4.0823 2.2412
1.4106 4.6261 2.2412
0.1236 2.5374 1.1495
-0.5151 2.5775 1.1505
-1.1714 2.4785 1.1517
-3.2933 4.0388 2.0888
-4.3778 3.2996 2.0888
-5.3020 2.2826 2.0888
-5.9799 1.0174 2.0888
-6.3260 -0.4336 2.0888
-6.2700 -1.9713 2.0888
-5.7772 -3.4654 2.0888
-4.8647 -4.7710 2.0888
-3.7098 -5.9198 2.1480
-2.2839 -6.7928 2.2412
-0.6148 -6.9304 2.2412
0.9860 -6.6135 2.2412
1.6720 -4.1219 1.5624
2.7810 -3.8638 1.7593
4.3792 -3.7412 2.2412
4.8986 -2.4603 2.2412
5.1127 -1.1551 2.2412
5.0446 0.1149 2.2412
4.7226 1.3035 2.2412
4.1756 2.3744 2.2412
3.4323 3.2984 2.2412
2.5200 4.0497 2.2412
1.4664 4.6040 2.2412
0.1547 2.5319 1.1494
-0.4825 2.5787 1.1504
-1.1386 2.4870 1.1516
-3.2363 4.0683 2.0888
-4.3268 3.3433 2.0888
-5.2609 2.3398 2.0888
-5.9532 1.0858 2.0888
-6.3177 -0.3581 2.0888
-6.2831 -1.8943 2.0888
-5.8122 -3.3939 2.0888
-4.9194 -4.7123 2.0888
-3.6768 -5.7166 2.0888
-2.3664 -6.7734 2.2412
-0.6978 -6.9347 2.2412
0.9095 -6.6392 2.2412
1.6379 -4.1800 1.5731
2.7059 -3.8557 1.7363
4.3449 -3.8033 2.2412
4.8800 -2.5256 2.2412
5.1089 -1.2199 2.2412
5.0543 0.0531 2.2412
4.7443 1.2466 2.2412
4.2079 2.3241 2.2412
3.4737 3.2561 2.2412
2.5692 4.0166 2.2412
1.5221 4.5814 2.2412
0.1857 2.5262 1.1494
-0.4500 2.5795 1.1504
-1.1057 2.4950 1.1516
-3.1791 4.0971 2.0888
-4.2752 3.3863 2.0888
-5.2192 2.3962 2.0888
-5.9257 1.1536 2.0888
-6.3085 -0.2827 2.0888
-6.2951 -1.8172 2.0888
-5.8461 -3.3221 2.0888
-4.9731 -4.6529 2.0888
-3.7456 -5.6755 2.0888
-2.4489 -6.7526 2.2412
-0.7809 -6.9379 2.2412
0.8327 -6.6639 2.2412
1.5903 -4.2049 1.5714
2.6322 -3.8478 1.7140
4.3099 -3.8651 2.2412
4.8607 -2.5906 2.2412
5.1044 -1.2849 2.2412
5.0633 -0.0091 2.2412
4.7654 1.1894 2.2412
4.2396 2.2735 2.2412
3.5147 3.2133 2.2412
2.6180 3.9830 2.2412
1.5773 4.5582 2.2412
0.2165 2.5201 1.1493
-0.4175 2.5800 1.1503
-1.0729 2.5027 1.1515
-3.1217 4.1252 2.0888
-4.2234 3.4285 2.0888
-5.1769 2.4521 2.0888
-5.8974 1.2210 2.0888
-6.2983 -0.2076 2.0888
-6.3059 -1.7401 2.0888
-5.8790 -3.2497 2.0888
-5.0260 -4.5926 2.0888
-3.8136 -5.6334 2.0888
-2.5309 -6.7308 2.2412
-0.8643 -6.9400 2.2412
0.7553 -6.6877 2.2412
1.5460 -4.2393 1.5734
2.5601 -3.8400 1.6925
4.2740 -3.9267 2.2412
4.8406 -2.6557 2.2412
5.0992 -1.3498 2.2412
5.0717 -0.0713 2.2412
4.7859 1.1319 2.2412
4.2709 2.2225 2.2412
3.5552 3.1702 2.2412
2.6665 3.9490 2.2412
1.6324 4.5344 2.2412
0.2473 2.5138 1.1493
-0.3851 2.5802 1.1503
-1.0400 2.5100 1.1514
-3.0641 4.1525 2.0888
-4.1711 3.4701 2.0888
-5.1340 2.5073 2.0888
-5.8682 1.2879 2.0888
-6.2870 -0.1328 2.0888
-6.3157 -1.6628 2.0888
-5.9107 -3.1769 2.0888
-5.0779 -4.5317 2.0888
-3.8812 -5.5903 2.0888
-2.6129 -6.7076 2.2412
-0.9477 -6.9408 2.2412
0.6776 -6.7104 2.2412
1.5055 -4.2861 1.5802
2.4894 -3.8324 1.6716
4.2373 -3.9881 2.2412
4.8197 -2.7206 2.2412
5.0933 -1.4150 2.2412
5.0795 -0.1338 2.2412
4.8059 1.0741 2.2412
4.3016 2.1711 2.2412
3.5953 3.1266 2.2412
2.7146 3.9144 2.2412
1.6871 4.5101 2.2412
0.2779 2.5071 1.1492
-0.3528 2.5800 1.1502
-1.0071 2.5170 1.1514
-3.0063 4.1792 2.0888
-4.1186 3.5109 2.0888
-5.0906 2.5618 2.0888
-5.8383 1.3542 2.0888
-6.2748 -0.0582 2.0888
-6.3244 -1.5856 2.0888
-5.9414 -3.1038 2.0888
-5.1290 -4.4699 2.0888
-3.9481 -5.5461 2.0888
-2.6944 -6.6833 2.2412
-1.0312 -6.9405 2.2412
0.5994 -6.7321 2.2412
1.4710 -4.3527 1.5943
2.4201 -3.8250 1.6514
4.1999 -4.0491 2.2412
4.7981 -2.7855 2.2412
5.0866 -1.4802 2.2412
5.0866 -0.1965 2.2412
4.8253 1.0161 2.2412
4.3319 2.1194 2.2412
3.6350 3.0826 2.2412
2.7624 3.8794 2.2412
1.7415 4.4852 2.2412
0.3084 2.5001 1.1492
-0.3205 2.5795 1.1502
-0.9742 2.5235 1.1513
-2.9484 4.2052 2.0888
-4.0656 3.5511 2.0888
-5.0465 2.6157 2.0888
-5.8076 1.4200 2.0888
-6.2617 0.0160 2.0888
-6.3320 -1.5082 2.0888
-5.9710 -3.0303 2.0888
-5.1791 -4.4075 2.0888
-4.0143 -5.5010 2.0888
-2.7758 -6.6578 2.2412
-1.1148 -6.9390 2.2412
0.5208 -6.7528 2.2412
1.4614 -4.4997 1.6377
2.3521 -3.8177 1.6318
4.1616 -4.1098 2.2412
4.7756 -2.8503 2.2412
5.0793 -1.5453 2.2412
5.0930 -0.2594 2.2412
4.8441 0.9578 2.2412
4.3616 2.0673 2.2412
3.6743 3.0382 2.2412
2.8098 3.8439 2.2412
1.7957 4.4598 2.2412
0.3388 2.4928 1.1492
-0.2883 2.5786 1.1501
-0.9413 2.5297 1.1513
-2.8903 4.2304 2.0888
-4.0124 3.5906 2.0888
-5.0020 2.6689 2.0888
-5.7761 1.4854 2.0888
-6.2475 0.0900 2.0888
-6.3385 -1.4310 2.0888
-5.9995 -2.9565 2.0888
-5.2283 -4.3442 2.0888
-4.0799 -5.4549 2.0888
-2.8567 -6.6311 2.2412
-1.1984 -6.9364 2.2412
0.4418 -6.7725 2.2412
1.5745 -5.0514 1.8272
2.2854 -3.8105 1.6128
4.1226 -4.1702 2.2412
4.7524 -2.9150 2.2412
5.0712 -1.6107 2.2412
5.0988 -0.3223 2.2412
4.8624 0.8992 2.2412
4.3909 2.0149 2.2412
3.7131 2.9933 2.2412
2.8567 3.8079 2.2412
1.8494 4.4339 2.2412
0.7199 4.8472 2.2412
-0.2561 2.5774 1.1501
-0.9084 2.5356 1.1512
-2.8321 4.2550 2.0888
-3.9587 3.6293 2.0888
-4.9569 2.7215 2.0888
-5.7439 1.5501 2.0888
-6.2324 0.1635 2.0888
-6.3439 -1.3537 2.0888
-6.0270 -2.8822 2.0888
-4.8648 -3.9465 1.9259
-4.1447 -5.4078 2.0888
-2.9374 -6.6032 2.2412
-1.2822 -6.9325 2.2412
0.3624 -6.7911 2.2412
1.5575 -5.2137 1.8746
2.2199 -3.8035 1.5944
4.0827 -4.2303 2.2412
4.7285 -2.9794 2.2412
5.0624 -1.6759 2.2412
5.1040 -0.3856 2.2412
4.8800 0.8403 2.2412
4.4195 1.9622 2.2412
3.7514 2.9481 2.2412
2.9034 3.7715 2.2412
1.9030 4.4075 2.2412
0.7788 4.8319 2.2412
-0.2241 2.5759 1.1500
-0.8755 2.5410 1.1511
-2.7737 4.2788 2.0888
-3.9049 3.6673 2.0888
-4.9113 2.7734 2.0888
-5.7109 1.6143 2.0888
-6.2164 0.2369 2.0888
-6.3482 -1.2765 2.0888
-6.0533 -2.8077 2.0888
-4.8865 -3.8696 1.9173
-4.2089 -5.3597 2.0888
-3.0176 -6.5741 2.2412
-1.3659 -6.9275 2.2412
0.2826 -6.8087 2.2412
1.5395 -5.3858 1.9252
2.1556 -3.7966 1.5766
4.0421 -4.2900 2.2412
4.7037 -3.0439 2.2412
5.0528 -1.7413 2.2412
5.1084 -0.4489 2.2412
4.8971 0.7813 2.2412
4.4477 1.9090 2.2412
3.7893 2.9025 2.2412
2.9496 3.7346 2.2412
1.9562 4.3805 2.2412
0.8375 4.8161 2.2412
-0.1920 2.5740 1.1500
-0.8426 2.5461 1.1511
-2.7152 4.3020 2.0888
-3.8506 3.7047 2.0888
-4.8652 2.8247 2.0888
-5.6772 1.6780 2.0888
-6.1994 0.3098 2.0888
-6.3515 -1.1992 2.0888
-6.0785 -2.7328 2.0888
-5.3700 -4.1506 2.0888
-4.2724 -5.3108 2.0888
-3.0975 -6.5438 2.2412
-1.4497 -6.9212 2.2412
0.2026 -6.8252 2.2412
1.5203 -5.5680 1.9791
2.0924 -3.7898 1.5593
4.0006 -4.3495 2.2412
4.6781 -3.1081 2.2412
5.0425 -1.8066 2.2412
5.1122 -0.5124 2.2412
4.9135 0.7219 2.2412
4.4754 1.8556 2.2412
3.8268 2.8564 2.2412
2.9955 3.6972 2.2412
2.0091 4.3530 2.2412
0.8959 4.7997 2.2412
-0.1601 2.5718 1.1499
-0.8097 2.5509 1.1510
-2.6813 4.3646 2.1082
-3.7961 3.7413 2.0888
-4.8186 2.8752 2.0888
-5.6428 1.7411 2.0888
-6.1815 0.3824 2.0888
-6.3537 -1.1222 2.0888
-6.1026 -2.6577 2.0888
-5.4153 -4.0847 2.0888
-4.3352 -5.2608 2.0888
-3.1769 -6.5123 2.2412
-1.5334 -6.9138 2.2412
0.1221 -6.8407 2.2412
1.6506 -6.3403 2.2412
2.0302 -3.7831 1.5426
3.5431 -3.9460 2.0061
4.6518 -3.1723 2.2412
5.0315 -1.8721 2.2412
5.1153 -0.5761 2.2412
4.9294 0.6623 2.2412
4.5026 1.8018 2.2412
3.8638 2.8100 2.2412
3.0410 3.6594 2.2412
2.0616 4.3250 2.2412
0.9541 4.7827 2.2412
-0.1282 2.5693 1.1499
-0.7769 2.5553 1.1510
-1.4330 2.3974 1.1522
-3.7412 3.7772 2.0888
-4.7714 2.9251 2.0888
-5.6077 1.8036 2.0888
-6.1626 0.4545 2.0888
-6.3548 -1.0451 2.0888
-6.1257 -2.5822 2.0888
-5.4596 -4.0182 2.0888
-4.3971 -5.2100 2.0888
-3.2560 -6.4797 2.2412
-1.6172 -6.9052 2.2412
0.0413 -6.8551 2.2412
1.5790 -6.3742 2.2412
1.9691 -3.7766 1.5263
3.4497 -3.9359 1.9747
4.6247 -3.2362 2.2412
5.0197 -1.9374 2.2412
5.1178 -0.6399 2.2412
4.9446 0.6024 2.2412
4.5291 1.7478 2.2412
3.9003 2.7632 2.2412
3.0861 3.6210 2.2412
2.1139 4.2964 2.2412
1.0120 4.7652 2.2412
-0.0965 2.5665 1.1498
-0.7441 2.5593 1.1509
-1.4005 2.4089 1.1521
-3.6862 3.8124 2.0888
-4.7238 2.9743 2.0888
-5.5718 1.8656 2.0888
-6.1429 0.5264 2.0888
-6.3548 -0.9682 2.0888
-6.1476 -2.5066 2.0888
-5.5029 -3.9511 2.0888
-4.4584 -5.1581 2.0888
-3.3346 -6.4459 2.2412
-1.7008 -6.8954 2.2412
-0.0398 -6.8684 2.2412
1.5067 -6.4073 2.2412
1.9090 -3.7701 1.5106
3.3588 -3.9261 1.9444
4.5968 -3.3000 2.2412
5.0072 -2.0029 2.2412
5.1196 -0.7038 2.2412
4.9593 0.5423 2.2412
4.5552 1.6933 2.2412
3.9364 2.7159 2.2412
3.1308 3.5822 2.2412
2.1658 4.2674 2.2412
1.0698 4.7470 2.2412
-0.0647 2.5633 1.1498
-0.7112 2.5630 1.1508
-1.3679 2.4199 1.1521
-3.6308 3.8468 2.0888
-4.6757 3.0229 2.0888
-5.5352 1.9270 2.0888
-6.1223 0.5978 2.0888
-6.3538 -0.8913 2.0888
-6.1684 -2.4307 2.0888
-5.5452 -3.8833 2.0888
-4.5188 -5.1055 2.0888
-3.4127 -6.4108 2.2412
-1.7845 -6.8844 2.2412
-0.1203 -6.3887 2.2412
1.3256 -5.9958 2.2412
1.8417 -3.7640 1.6011
3.5725 -4.2948 2.2412
4.2781 -3.1626 2.2412
4.6897 -1.9522 2.2412
4.8193 -0.7307 2.2412
4.6887 0.4481 2.2412
4.3236 1.5419 2.2412
3.7511 2.5171 2.2412
2.9981 3.3454 2.2412
2.0916 4.0017 2.2412
1.0597 4.4623 2.2412
-0.0343 2.4133 1.1499
-0.6426 2.4152 1.1509
-1.2589 2.2823 1.1520
-3.3598 3.6335 2.0888
-4.3348 2.8653 2.0888
-5.1343 1.8465 2.0888
-5.6798 0.6142 2.0888
-5.8975 -0.7634 2.0888
-5.7331 -2.1869 2.0888
-5.1690 -3.5331 2.0888
-4.2356 -4.6734 2.0888
-3.2328 -5.8982 2.2412
-1.7363 -6.3665 2.2412
-0.1960 -6.3983 2.2412
1.2572 -6.0240 2.2412
1.7836 -3.7578 1.5855
3.1717 -3.9072 2.0140
4.2498 -3.2217 2.2412
4.6759 -2.0135 2.2412
4.8193 -0.7912 2.2412
4.7010 0.3908 2.2412
4.3470 1.4898 2.2412
3.7842 2.4716 2.2412
3.0396 3.3079 2.2412
2.1402 3.9734 2.2412
1.1138 4.4443 2.2412
-0.0045 2.4099 1.1498
-0.6117 2.4182 1.1508
-1.2283 2.2923 1.1520
-3.3078 3.6650 2.0888
-4.2895 2.9099 2.0888
-5.0997 1.9029 2.0888
-5.6598 0.6800 2.0888
-5.8953 -0.6925 2.0888
-5.7509 -2.1164 2.0888
-5.2064 -3.4697 2.0888
-4.2900 -4.6231 2.0888
-3.3039 -5.8635 2.2412
-1.8133 -6.3535 2.2412
-0.2719 -6.4067 2.2412
1.1884 -6.0514 2.2412
1.7263 -3.7517 1.5704
3.0877 -3.8982 1.9853
4.2208 -3.2806 2.2412
4.6615 -2.0747 2.2412
4.8185 -0.8517 2.2412
4.7127 0.3334 2.2412
4.3699 1.4374 2.2412
3.8169 2.4256 2.2412
3.0808 3.2699 2.2412
2.1884 3.9445 2.2412
1.1677 4.4258 2.2412
0.0252 2.4061 1.1498
-0.5810 2.4209 1.1508
-1.1977 2.3019 1.1519
-3.2555 3.6958 2.0888
-4.2439 2.9538 2.0888
-5.0645 1.9588 2.0888
-5.6389 0.7454 2.0888
-5.8922 -0.6217 2.0888
-5.7676 -2.0459 2.0888
-5.2429 -3.4057 2.0888
-4.3436 -4.5720 2.0888
-3.3746 -5.8277 2.2412
-1.8902 -6.3394 2.2412
-0.3481 -6.4142 2.2412
1.1190 -6.0780 2.2412
1.7034 -3.8210 1.5871
3.0056 -3.8893 1.9575
4.1911 -3.3392 2.2412
4.6463 -2.1359 2.2412
4.8171 -0.9124 2.2412
4.7239 0.2757 2.2412
4.3922 1.3847 2.2412
3.8491 2.3796 2.2412
3.1215 3.2315 2.2412
2.2363 3.9152 2.2412
1.2213 4.4066 2.2412
0.0548 2.4021 1.1497
-0.5502 2.4232 1.1507
-1.1670 2.3112 1.1519
-3.2031 3.7260 2.0888
-4.1978 2.9971 2.0888
-5.0286 2.0141 2.0888
-5.6172 0.8103 2.0888
-5.8882 -0.5511 2.0888
-5.7834 -1.9751 2.0888
-5.2785 -3.3413 2.0888
-4.3965 -4.5202 2.0888
-3.4447 -5.7909 2.2412
-1.9670 -6.3242 2.2412
-0.4244 -6.4206 2.2412
1.0492 -6.1037 2.2412
1.6928 -3.9220 1.6167
2.9255 -3.8807 1.9306
4.1606 -3.3977 2.2412
4.6305 -2.1971 2.2412
4.8150 -0.9731 2.2412
4.7344 0.2179 2.2412
4.4141 1.3317 2.2412
3.8809 2.3330 2.2412
3.1619 3.1927 2.2412
2.2839 3.8854 2.2412
1.2747 4.3870 2.2412
0.0843 2.3977 1.1497
-0.5195 2.4252 1.1507
-1.1363 2.3201 1.1518
-3.1504 3.7555 2.0888
-4.1513 3.0397 2.0888
-4.9922 2.0689 2.0888
-5.5948 0.8749 2.0888
-5.8832 -0.4806 2.0888
-5.7981 -1.9042 2.0888
-5.3131 -3.2763 2.0888
-4.4486 -4.4676 2.0888
-3.5143 -5.7530 2.2412
-2.0436 -6.3079 2.2412
-0.5009 -6.4260 2.2412
0.9790 -6.1285 2.2412
1.6817 -4.0273 1.6479
2.8471 -3.8722 1.9046
4.1294 -3.4559 2.2412
4.6139 -2.2582 2.2412
4.8123 -1.0340 2.2412
4.7444 0.1599 2.2412
4.4354 1.2784 2.2412
3.9122 2.2861 2.2412
3.2018 3.1535 2.2412
2.3312 3.8551 2.2412
1.3278 4.3668 2.2412
0.1138 2.3930 1.1496
-0.4888 2.4269 1.1506
-1.1055 2.3286 1.1517
-3.0974 3.7844 2.0888
-4.1045 3.0817 2.0888
-4.9552 2.1231 2.0888
-5.5715 0.9391 2.0888
-5.8773 -0.4103 2.0888
-5.8118 -1.8332 2.0888
-5.3467 -3.2110 2.0888
-4.4999 -4.4142 2.0888
-3.5834 -5.7141 2.2412
-2.1200 -6.2905 2.2412
-0.5776 -6.4304 2.2412
0.9083 -6.1524 2.2412
1.6467 -4.0791 1.6571
2.7705 -3.8639 1.8795
4.0974 -3.5139 2.2412
4.5966 -2.3192 2.2412
4.8089 -1.0949 2.2412
4.7537 0.1016 2.2412
4.4561 1.2248 2.2412
3.9430 2.2388 2.2412
3.2414 3.1139 2.2412
2.3781 3.8243 2.2412
1.3807 4.3461 2.2412
0.1431 2.3881 1.1496
-0.4581 2.4283 1.1506
-1.0747 2.3369 1.1517
-3.0443 3.8126 2.0888
-4.0572 3.1231 2.0888
-4.9175 2.1768 2.0888
-5.5475 1.0029 2.0888
-5.8704 -0.3402 2.0888
-5.8245 -1.7620 2.0888
-5.3794 -3.1452 2.0888
-4.5505 -4.3601 2.0888
-3.5021 -5.4414 2.1493
-2.1962 -6.2720 2.2412
-0.6544 -6.4336 2.2412
0.8372 -6.1754 2.2412
1.5971 -4.0958 1.6522
2.6955 -3.8559 1.8552
4.0647 -3.5716 2.2412
4.5786 -2.3802 2.2412
4.8048 -1.1559 2.2412
4.7625 0.0432 2.2412
4.4763 1.1710 2.2412
3.9733 2.1912 2.2412
3.2805 3.0738 2.2412
2.4247 3.7931 2.2412
1.4333 4.3249 2.2412
0.1724 2.3828 1.1495
-0.4275 2.4293 1.1505
-1.0439 2.3447 1.1516
-2.9910 3.8401 2.0888
-4.0096 3.1638 2.0888
-4.8793 2.2298 2.0888
-5.5227 1.0662 2.0888
-5.8626 -0.2703 2.0888
-5.8362 -1.6908 2.0888
-5.4111 -3.0789 2.0888
-4.6002 -4.3053 2.0888
-3.4687 -5.2529 2.0899
-2.2722 -6.2524 2.2412
-0.7314 -6.4359 2.2412
0.7657 -6.1975 2.2412
1.5502 -4.1193 1.6503
2.6221 -3.8479 1.8317
4.0313 -3.6291 2.2412
4.5598 -2.4411 2.2412
4.8001 -1.2169 2.2412
4.7706 -0.0154 2.2412
4.4960 1.1169 2.2412
4.0032 2.1432 2.2412
3.3192 3.0334 2.2412
2.4709 3.7614 2.2412
1.4856 4.3031 2.2412
0.2015 2.3773 1.1495
-0.3969 2.4300 1.1504
-1.0131 2.3522 1.1516
-2.9374 3.8670 2.0888
-3.9615 3.2038 2.0888
-4.8406 2.2823 2.0888
-5.4971 1.1291 2.0888
-5.8539 -0.2007 2.0888
-5.8468 -1.6195 2.0888
-5.4418 -3.0123 2.0888
-4.6491 -4.2498 2.0888
-3.5298 -5.2112 2.0888
-2.3480 -6.2317 2.2412
-0.8085 -6.4370 2.2412
0.6937 -6.2187 2.2412
1.5057 -4.1500 1.6515
2.5502 -3.8402 1.8089
3.9971 -3.6863 2.2412
4.5404 -2.5019 2.2412
4.7947 -1.2780 2.2412
4.7781 -0.0742 2.2412
4.5152 1.0625 2.2412
4.0326 2.0949 2.2412
3.3576 2.9925 2.2412
2.5168 3.7292 2.2412
1.5377 4.2808 2.2412
0.2306 2.3714 1.1495
-0.3664 2.4304 1.1504
-0.9822 2.3594 1.1515
-2.8837 3.8932 2.0888
-3.9132 3.2432 2.0888
-4.8012 2.3342 2.0888
-5.4708 1.1915 2.0888
-5.8442 -0.1312 2.0888
-5.8565 -1.5482 2.0888
-5.4716 -2.9453 2.0888
-4.6972 -4.1936 2.0888
-3.5920 -5.1713 2.0888
-2.4236 -6.2099 2.2412
-0.8856 -6.4371 2.2412
0.6214 -6.2389 2.2412
1.4639 -4.1892 1.6563
2.4797 -3.8326 1.7869
3.9622 -3.7432 2.2412
4.5202 -2.5626 2.2412
4.7886 -1.3392 2.2412
4.7850 -0.1331 2.2412
4.5337 1.0079 2.2412
4.0615 2.0462 2.2412
3.3955 2.9512 2.2412
2.5624 3.6966 2.2412
1.5895 4.2580 2.2412
0.2595 2.3652 1.1494
-0.3359 2.4304 1.1503
-0.9514 2.3662 1.1514
-2.8298 3.9188 2.0888
-3.8644 3.2820 2.0888
-4.7614 2.3855 2.0888
-5.4437 1.2535 2.0888
-5.8337 -0.0620 2.0888
-5.8652 -1.4768 2.0888
-5.5003 -2.8779 2.0888
-4.7445 -4.1367 2.0888
-3.6537 -5.1304 2.0888
-2.4988 -6.1870 2.2412
-0.9629 -6.4361 2.2412
0.5487 -6.2583 2.2412
1.4253 -4.2397 1.6656
2.4106 -3.8252 1.7656
3.9266 -3.7998 2.2412
4.4993 -2.6232 2.2412
4.7818 -1.4004 2.2412
4.7913 -0.1922 2.2412
4.5518 0.9530 2.2412
4.0900 1.9973 2.2412
3.4330 2.9096 2.2412
2.6076 3.6635 2.2412
1.6410 4.2346 2.2412
0.2884 2.3588 1.1494
-0.3055 2.4301 1.1503
-0.9205 2.3726 1.1514
-2.7757 3.9437 2.0888
-3.8154 3.3201 2.0888
-4.7209 2.4363 2.0888
-5.4159 1.3150 2.0888
-5.8222 0.0070 2.0888
-5.8729 -1.4053 2.0888
-5.5281 -2.8101 2.0888
-4.7909 -4.0791 2.0888
-3.7148 -5.0886 2.0888
-2.5738 -6.1630 2.2412
-1.0402 -6.4341 2.2412
0.4757 -6.2767 2.2412
1.3917 -4.3084 1.6821
2.3429 -3.8179 1.7449
3.8902 -3.8562 2.2412
4.4776 -2.6837 2.2412
4.7743 -1.4616 2.2412
4.7969 -0.2515 2.2412
4.5693 0.8979 2.2412
4.1179 1.9480 2.2412
3.4700 2.8675 2.2412
2.6524 3.6299 2.2412
1.6923 4.2108 2.2412
0.3172 2.3520 1.1493
-0.2751 2.4295 1.1502
-0.8896 2.3787 1.1513
-2.7215 3.9678 2.0888
-3.7660 3.3575 2.0888
-4.6800 2.4864 2.0888
-5.3874 1.3761 2.0888
-5.8099 0.0757 2.0888
-5.8796 -1.3339 2.0888
-5.5549 -2.7420 2.0888
-4.8365 -4.0208 2.0888
-3.7753 -5.0459 2.0888
-2.6484 -6.1379 2.2412
-1.1176 -6.4309 2.2412
0.4023 -6.2941 2.2412
1.3726 -4.4283 1.7186
2.2763 -3.8107 1.7249
3.8530 -3.9122 2.2412
4.4552 -2.7441 2.2412
4.7662 -1.5229 2.2412
4.8020 -0.3109 2.2412
4.5862 0.8425 2.2412
4.1454 1.8983 2.2412
3.5067 2.8251 2.2412
2.6969 3.5959 2.2412
1.7432 4.1864 2.2412
0.3458 2.3450 1.1493
-0.2448 2.4286 1.1502
-0.8587 2.3845 1.1513
-2.7051 4.0483 2.1186
-3.7163 3.3943 2.0888
-4.6386 2.5359 2.0888
-5.3582 1.4366 2.0888
-5.7967 0.1441 2.0888
-5.8852 -1.2624 2.0888
-5.5807 -2.6736 2.0888
-4.8662 -3.9498 2.0824
-3.8351 -5.0024 2.0888
-2.7228 -6.1117 2.2412
-1.1950 -6.4267 2.2412
0.3286 -6.3106 2.2412
1.7253 -5.8089 2.2412
2.2110 -3.8037 1.7055
3.8152 -3.9679 2.2412
4.4321 -2.8043 2.2412
4.7573 -1.5842 2.2412
4.8064 -0.3704 2.2412
4.6025 0.7868 2.2412
4.1723 1.8484 2.2412
3.5429 2.7822 2.2412
2.7410 3.5615 2.2412
1.7939 4.1615 2.2412
0.7301 4.5589 2.2412
-0.2145 2.4274 1.1501
-0.8278 2.3899 1.1512
-1.4414 2.2147 1.1524
-3.6662 3.4305 2.0888
-4.5966 2.5848 2.0888
-5.3282 1.4967 2.0888
-5.7825 0.2122 2.0888
-5.8899 -1.1910 2.0888
-5.6055 -2.6048 2.0888
-4.8842 -3.8702 2.0715
-3.8943 -4.9579 2.0888
-2.7968 -6.0844 2.2412
-1.2724 -6.4214 2.2412
0.2545 -6.3261 2.2412
1.6600 -5.8421 2.2412
2.1469 -3.7968 1.6868
3.7766 -4.0233 2.2412
4.4083 -2.8644 2.2412
4.7478 -1.6455 2.2412
4.8101 -0.4302 2.2412
4.6183 0.7310 2.2412
4.1988 1.7981 2.2412
3.5787 2.7390 2.2412
2.7848 3.5266 2.2412
1.8442 4.1362 2.2412
0.7855 4.5442 2.2412
-0.1843 2.4258 1.1501
-0.7969 2.3950 1.1512
-1.4111 2.2269 1.1523
-3.6159 3.4659 2.0888
-4.5542 2.6331 2.0888
-5.2976 1.5562 2.0888
-5.7676 0.2800 2.0888
-5.8936 -1.1196 2.0888
-5.6293 -2.5358 2.0888
-4.9679 -3.8424 2.0888
-3.9529 -4.9126 2.0888
-2.8705 -6.0560 2.2412
-1.3498 -6.4150 2.2412
0.1801 -6.3406 2.2412
1.5942 -5.8744 2.2412
2.0838 -3.7900 1.6686
3.7372 -4.0783 2.2412
4.3837 -2.9243 2.2412
4.7376 -1.7068 2.2412
4.8132 -0.4900 2.2412
4.6335 0.6749 2.2412
4.2248 1.7475 2.2412
3.6140 2.6954 2.2412
2.8282 3.4912 2.2412
1.8943 4.1103 2.2412
0.8408 4.5289 2.2412
-0.1542 2.4239 1.1500
-0.7660 2.3997 1.1511
-1.3808 2.2387 1.1523
-3.5652 3.5008 2.0888
-4.5112 2.6808 2.0888
-5.2663 1.6153 2.0888
-5.7517 0.3475 2.0888
-5.8964 -1.0482 2.0888
-5.6521 -2.4665 2.0888
-5.0099 -3.7817 2.0888
-4.0108 -4.8664 2.0888
-2.9437 -6.0266 2.2412
-1.4272 -6.4075 2.2412
0.1055 -6.3541 2.2412
1.5278 -5.9060 2.2412
2.0218 -3.7834 1.6509
3.6971 -4.1330 2.2412
4.3584 -2.9841 2.2412
4.7267 -1.7682 2.2412
4.8157 -0.5500 2.2412
4.6482 0.6185 2.2412
4.2502 1.6966 2.2412
3.6490 2.6514 2.2412
2.8712 3.4554 2.2412
1.9441 4.0839 2.2412
0.8958 4.5131 2.2412
-0.1241 2.4218 1.1500
-0.7352 2.4041 1.1510
-1.3504 2.2501 1.1522
-3.5143 3.5349 2.0888
-4.4678 2.7278 2.0888
-5.2343 1.6739 2.0888
-5.7350 0.4147 2.0888
-5.8981 -0.9769 2.0888
-5.6738 -2.3970 2.0888
-5.0510 -3.7204 2.0888
-4.0680 -4.8194 2.0888
-3.0166 -5.9961 2.2412
-1.5045 -6.3989 2.2412
0.0305 -6.3667 2.2412
1.4610 -5.9367 2.2412
1.9609 -3.7768 1.6338
3.6563 -4.1873 2.2412
4.3324 -3.0438 2.2412
4.7150 -1.8295 2.2412
4.8176 -0.6101 2.2412
4.6623 0.5619 2.2412
4.2752 1.6454 2.2412
3.6834 2.6070 2.2412
2.9139 3.4192 2.2412
1.9936 4.0570 2.2412
0.9506 4.4968 2.2412
-0.0941 2.4193 1.1500
-0.7043 2.4081 1.1510
-1.3200 2.2612 1.1522
-3.4631 3.5684 2.0888
-4.4239 2.7743 2.0888
-5.2016 1.7319 2.0888
-5.7175 0.4815 2.0888
-5.8989 -0.9057 2.0888
-5.6946 -2.3272 2.0888
-5.0913 -3.6585 2.0888
-4.1246 -4.7716 2.0888
-3.0891 -5.9646 2.2412
-1.5818 -6.3892 2.2412
-0.0447 -6.3782 2.2412
1.3936 -5.9666 2.2412
1.9009 -3.7704 1.6172
3.6148 -4.2412 2.2412
4.3056 -3.1032 2.2412
4.7027 -1.8908 2.2412
4.8188 -0.6703 2.2412
4.6758 0.5051 2.2412
4.2996 1.5938 2.2412
3.7175 2.5623 2.2412
2.9562 3.3825 2.2412
2.0427 4.0296 2.2412
1.0052 4.4798 2.2412
-0.0642 2.4164 1.1499
-0.6734 2.4118 1.1509
-1.2895 2.2719 1.1521
-3.4116 3.6012 2.0888
-4.3796 2.8201 2.0888
-5.1683 1.7894 2.0888
-5.6991 0.5480 2.0888
-5.8986 -0.8345 2.0888
-5.7144 -2.2572 2.0888
-5.1306 -3.5961 2.0888
-4.1804 -4.7229 2.0888
-3.1612 -5.9319 2.2412
-1.6590 -6.3784 2.2412
-0.1202 -6.3887 2.2412
1.3257 -5.9957 2.2412
1.8418 -3.7640 1.6011
3.5725 -4.2948 2.2412
4.2781 -3.1626 2.2412
4.6897 -1.9521 2.2412
4.8193 -0.7307 2.2412
4.6887 0.4481 2.2412
4.3236 1.5420 2.2412
3.7510 2.5171 2.2412
2.9981 3.3454 2.2412
2.0916 4.0017 2.2412
1.0596 4.4623 2.2412
-0.0343 2.4133 1.1499
-0.6426 2.4152 1.1509
-1.2590 2.2823 1.1520
-3.3598 3.6334 2.0888
-4.3348 2.8653 2.0888
-5.1343 1.8464 2.0888
-5.6798 0.6141 2.0888
-5.8975 -0.7635 2.0888
-5.7331 -2.1869 2.0888
-5.1690 -3.5332 2.0888
-4.2355 -4.6734 2.0888
-3.2327 -5.8982 2.2412
-1.7362 -6.3665 2.2412
-0.1959 -6.3982 2.2412
1.2573 -6.0240 2.2412
1.7836 -3.7578 1.5856
3.1718 -3.9073 2.0141
4.2498 -3.2216 2.2412
4.6760 -2.0134 2.2412
4.8193 -0.7911 2.2412
4.7010 0.3909 2.2412
4.3470 1.4899 2.2412
3.7842 2.4717 2.2412
3.0396 3.3079 2.2412
2.1401 3.9734 2.2412
1.1137 4.4443 2.2412
-0.0045 2.4099 1.1498
-0.6118 2.4182 1.1508
-1.2284 2.2922 1.1520
-3.3078 3.6649 2.0888
-4.2896 2.9098 2.0888
-5.0997 1.9028 2.0888
-5.6598 0.6799 2.0888
-5.8953 -0.6926 2.0888
-5.7509 -2.1165 2.0888
-5.2064 -3.4697 2.0888
-4.2899 -4.6232 2.0888
-3.3039 -5.8635 2.2412
-1.8132 -6.3535 2.2412
-0.2719 -6.4067 2.2412
1.1884 -6.0514 2.2412
1.7263 -3.7517 1.5705
3.0878 -3.8982 1.9853
4.2208 -3.2805 2.2412
4.6615 -2.0747 2.2412
4.8185 -0.8517 2.2412
4.7127 0.3335 2.2412
4.3699 1.4374 2.2412
3.8169 2.4258 2.2412
3.0807 3.2699 2.2412
2.1884 3.9445 2.2412
1.1676 4.4258 2.2412
0.0251 2.4061 1.1498
-0.5810 2.4209 1.1508
-1.1977 2.3019 1.1519
-3.2556 3.6958 2.0888
-4.2439 2.9537 2.0888
-5.0645 1.9587 2.0888
-5.6389 0.7453 2.0888
-5.8922 -0.6218 2.0888
-5.7676 -2.0459 2.0888
-5.2429 -3.4058 2.0888
-4.3436 -4.5721 2.0888
-3.3745 -5.8277 2.2412
-1.8901 -6.3394 2.2412
-0.3480 -6.4142 2.2412
1.1190 -6.0780 2.2412
1.7034 -3.8208 1.5870
3.0057 -3.8893 1.9575
4.1911 -3.3392 2.2412
4.6464 -2.1359 2.2412
4.8171 -0.9123 2.2412
4.7239 0.2758 2.2412
4.3922 1.3847 2.2412
3.8491 2.3796 2.2412
3.1215 3.2316 2.2412
2.2363 3.9152 2.2412
1.2212 4.4067 2.2412
0.0548 2.4021 1.1497
-0.5502 2.4232 1.1507
-1.1670 2.3112 1.1519
-3.2031 3.7260 2.0888
-4.1978 2.9971 2.0888
-5.0287 2.0140 2.0888
-5.6173 0.8103 2.0888
-5.8882 -0.5512 2.0888
-5.7833 -1.9751 2.0888
-5.2784 -3.3414 2.0888
-4.3964 -4.5203 2.0888
-3.4446 -5.7909 2.2412
-1.9669 -6.3242 2.2412
-0.4243 -6.4206 2.2412
1.0493 -6.1036 2.2412
1.6928 -3.9219 1.6167
2.9255 -3.8807 1.9306
4.1607 -3.3976 2.2412
4.6305 -2.1970 2.2412
4.8150 -0.9731 2.2412
4.7344 0.2179 2.2412
4.4140 1.3318 2.2412
3.8808 2.3330 2.2412
3.1618 3.1928 2.2412
2.2839 3.8854 2.2412
1.2746 4.3870 2.2412
0.0843 2.3977 1.1497
-0.5195 2.4252 1.1507
-1.1363 2.3201 1.1518
-3.1504 3.7555 2.0888
-4.1514 3.0397 2.0888
-4.9922 2.0689 2.0888
-5.5948 0.8749 2.0888
-5.8832 -0.4807 2.0888
-5.7981 -1.9043 2.0888
-5.3131 -3.2764 2.0888
-4.4486 -4.4676 2.0888
-3.5142 -5.7531 2.2412
-2.0435 -6.3079 2.2412
-0.5009 -6.4260 2.2412
0.9790 -6.1285 2.2412
1.6818 -4.0271 1.6479
2.8472 -3.8722 1.9047
4.1294 -3.4558 2.2412
4.6139 -2.2582 2.2412
4.8123 -1.0339 2.2412
4.7444 0.1599 2.2412
4.4353 1.2785 2.2412
3.9121 2.2861 2.2412
3.2017 3.1536 2.2412
2.3311 3.8551 2.2412
1.3277 4.3668 2.2412
0.1137 2.3930 1.1496
-0.4888 2.4269 1.1506
-1.1056 2.3286 1.1517
-3.0975 3.7844 2.0888
-4.1045 3.0817 2.0888
-4.9552 2.1230 2.0888
-5.5715 0.9390 2.0888
-5.8773 -0.4104 2.0888
-5.8118 -1.8332 2.0888
-5.3467 -3.2111 2.0888
-4.4999 -4.4143 2.0888
-3.5834 -5.7142 2.2412
-2.1200 -6.2905 2.2412
-0.5775 -6.4303 2.2412
0.9084 -6.1523 2.2412
