ply
format ascii 1.0
element vertex 2176
property float32 x
property float32 y
property float32 z
end_header
3.3716 3.5609 1.4009
2.4358 4.2859 1.4099
1.6038 5.6735 1.6881
0.3326 9.7312 2.7908
-2.0010 9.5192 2.7908
-3.9847 8.2794 2.6384
-5.8447 7.0824 2.6384
-7.7910 5.7940 2.7908
-8.9491 3.7630 2.7908
-9.5906 1.5148 2.7908
-9.6786 -0.8221 2.7908
-9.2074 -3.1139 2.7908
-8.2031 -5.2290 2.7908
-6.3552 -6.6604 2.6384
-4.5842 -7.9950 2.6384
-2.1603 -7.5322 2.2408
-0.2868 -7.5407 2.1556
1.5525 -7.5327 2.1948
4.2090 -8.8369 2.7908
6.2023 -7.5802 2.7908
7.4097 -5.5609 2.6388
7.6173 -3.2438 2.3579
9.1581 -1.4906 2.6429
9.2450 0.7401 2.6428
8.7898 2.9238 2.6413
7.8217 4.9297 2.6385
3.4029 3.5294 1.4005
2.4741 4.2630 1.4096
1.6028 5.4801 1.6347
0.4207 9.7282 2.7908
-1.9148 9.5373 2.7908
-3.9098 8.3153 2.6384
-5.7805 7.1351 2.6384
-7.7383 5.8643 2.7908
-8.9146 3.8439 2.7908
-9.5764 1.6015 2.7908
-9.6854 -0.7345 2.7908
-9.2349 -3.0304 2.7908
-8.2498 -5.1543 2.7908
-6.4150 -6.6023 2.6384
-4.6562 -7.9529 2.6384
-2.2342 -7.5319 2.2467
-0.3552 -7.5403 2.1564
1.4815 -7.5323 2.1907
4.1288 -8.8743 2.7908
6.1333 -7.6359 2.7908
7.3586 -5.6274 2.6386
8.5001 -3.7109 2.6414
9.1442 -1.5735 2.6429
9.2516 0.6565 2.6428
8.8164 2.8443 2.6414
7.8666 4.8591 2.6386
3.4339 3.4976 1.4001
2.5122 4.2398 1.4093
1.6019 5.2985 1.5847
0.5086 9.7244 2.7908
-1.8286 9.5545 2.7908
-3.8345 8.3506 2.6384
-5.7158 7.1872 2.6384
-7.6849 5.9342 2.7908
-8.8795 3.9244 2.7908
-9.5614 1.6882 2.7908
-9.6915 -0.6467 2.7908
-9.2617 -2.9466 2.7908
-8.2959 -5.0792 2.7908
-6.4742 -6.5438 2.6384
-4.7278 -7.9101 2.6384
-2.4949 -8.1401 2.4349
-0.4236 -7.5400 2.1574
1.4107 -7.5319 2.1869
4.0482 -8.9111 2.7908
6.0639 -7.6909 2.7908
7.3070 -5.6934 2.6385
8.4659 -3.7875 2.6413
9.1296 -1.6561 2.6428
9.2575 0.5727 2.6429
8.8423 2.7646 2.6415
7.9109 4.7881 2.6387
3.4645 3.4656 1.3997
2.5500 4.2162 1.4090
1.6011 5.1279 1.5379
0.5966 9.7198 2.7908
-1.7421 9.5710 2.7908
-3.7589 8.3852 2.6384
-5.6506 7.2389 2.6384
-7.6310 6.0036 2.7908
-8.8436 4.0047 2.7908
-9.5456 1.7746 2.7908
-9.6968 -0.5590 2.7908
-9.2878 -2.8625 2.7908
-8.3412 -5.0038 2.7908
-6.5329 -6.4846 2.6384
-4.7990 -7.8666 2.6384
-2.9439 -9.3035 2.7908
-0.4920 -7.5397 2.1586
1.3402 -7.5315 2.1832
3.9673 -8.9471 2.7908
5.9939 -7.7453 2.7908
7.2549 -5.7590 2.6384
8.4310 -3.8638 2.6413
9.1142 -1.7387 2.6428
9.2625 0.4889 2.6429
8.8675 2.6846 2.6415
7.9544 4.7168 2.6388
3.4948 3.4333 1.3993
2.5876 4.1923 1.4087
1.6002 4.9668 1.4938
0.6846 9.7144 2.7908
-1.6555 9.5867 2.7908
-3.6829 8.4192 2.6384
-5.5850 7.2899 2.6384
-7.5764 6.0725 2.7908
-8.8070 4.0846 2.7908
-9.5291 1.8610 2.7908
-9.7012 -0.4712 2.7908
-9.3131 -2.7782 2.7908
-8.3859 -4.9279 2.7908
-6.5911 -6.4250 2.6384
-4.8698 -7.8225 2.6384
-3.0278 -9.2761 2.7908
-0.5606 -7.5393 2.1599
1.2700 -7.5311 2.1798
3.8860 -8.9824 2.7908
5.9235 -7.7991 2.7908
7.2024 -5.8246 2.6384
8.3954 -3.9398 2.6412
9.0981 -1.8209 2.6428
9.2668 0.4053 2.6429
8.8919 2.6045 2.6416
7.9974 4.6451 2.6390
3.5249 3.4007 1.3989
2.6250 4.1680 1.4084
1.5995 4.8147 1.4523
0.7725 9.7082 2.7908
-1.5687 9.6017 2.7908
-3.6066 8.4524 2.6384
-5.5189 7.3403 2.6384
-7.5212 6.1409 2.7908
-8.7696 4.1642 2.7908
-9.5118 1.9471 2.7908
-9.7049 -0.3833 2.7908
-9.3376 -2.6938 2.7908
-8.4299 -4.8516 2.7908
-6.6487 -6.3648 2.6384
-4.9402 -7.7778 2.6384
-3.1115 -9.2479 2.7908
-0.6292 -7.5390 2.1615
1.2511 -7.8517 2.2693
3.1825 -7.5427 2.3346
5.8525 -7.8522 2.7908
7.1495 -5.8891 2.6384
8.3592 -4.0154 2.6411
9.0812 -1.9031 2.6427
9.2703 0.3214 2.6429
8.9155 2.5241 2.6417
8.0398 4.5729 2.6391
3.5546 3.3678 1.3985
2.6621 4.1433 1.4081
1.6005 4.6758 1.4146
0.8604 9.7011 2.7908
-1.4818 9.6158 2.7908
-3.5301 8.4850 2.6384
-5.4523 7.3901 2.6384
-7.4654 6.2089 2.7908
-8.7316 4.2434 2.7908
-9.4936 2.0332 2.7908
-9.7078 -0.2954 2.7908
-9.3613 -2.6090 2.7908
-8.4731 -4.7749 2.7908
-6.7058 -6.3041 2.6384
-5.0102 -7.7325 2.6384
-3.1950 -9.2190 2.7908
-0.6979 -7.5387 2.1632
1.2044 -8.0254 2.3163
3.1023 -7.5422 2.3257
5.7813 -7.9045 2.7908
7.0958 -5.9535 2.6384
8.3223 -4.0907 2.6410
9.0636 -1.9852 2.6427
9.2731 0.2376 2.6430
8.9385 2.4435 2.6418
8.0815 4.5003 2.6392
3.5840 3.3346 1.3981
2.6990 4.1183 1.4078
1.6426 4.6607 1.4145
0.9482 9.6934 2.7908
-1.3947 9.6292 2.7908
-3.4532 8.5168 2.6384
-5.3853 7.4393 2.6384
-7.4090 6.2763 2.7908
-8.6928 4.3223 2.7908
-9.4748 2.1190 2.7908
-9.7099 -0.2075 2.7908
-9.3843 -2.5241 2.7908
-8.5157 -4.6979 2.7908
-6.7623 -6.2429 2.6384
-5.0798 -7.6865 2.6384
-3.2781 -9.1893 2.7908
-0.7666 -7.5384 2.1651
1.1340 -8.0511 2.3208
3.0226 -7.5417 2.3171
5.7094 -7.9563 2.7908
7.0554 -6.0292 2.6436
8.2846 -4.1656 2.6409
9.0452 -2.0671 2.6427
8.0497 0.1333 2.2938
8.9607 2.3626 2.6418
8.1225 4.4273 2.6393
7.2145 6.5917 2.7908
2.7357 4.0930 1.4075
1.6845 4.6452 1.4143
1.0359 9.6848 2.7908
-1.3075 9.6417 2.7908
-3.3761 8.5480 2.6384
-5.3178 7.4879 2.6384
-7.3519 6.3432 2.7908
-8.6534 4.4008 2.7908
-9.4551 2.2047 2.7908
-9.7112 -0.1196 2.7908
-9.4065 -2.4390 2.7908
-8.5576 -4.6204 2.7908
-6.8183 -6.1812 2.6384
-5.1488 -7.6399 2.6384
-3.3609 -9.1589 2.7908
-0.8356 -7.5380 2.1671
1.0654 -8.0937 2.3303
2.9435 -7.5412 2.3087
5.6370 -8.0075 2.7908
7.0417 -6.1286 2.6592
8.2463 -4.2403 2.6408
9.0261 -2.1488 2.6426
8.0231 0.0603 2.2859
8.9822 2.2816 2.6419
8.1629 4.3540 2.6394
7.2741 6.5263 2.7908
2.7721 4.0673 1.4072
1.7263 4.6294 1.4141
1.1236 9.6754 2.7908
-1.2202 9.6535 2.7908
-3.2987 8.5784 2.6384
-5.2500 7.5359 2.6384
-7.2943 6.4096 2.7908
-8.6132 4.4790 2.7908
-9.4347 2.2902 2.7908
-9.7118 -0.0317 2.7908
-9.4280 -2.3538 2.7908
-8.5987 -4.5428 2.7908
-6.8736 -6.1191 2.6384
-5.2175 -7.5927 2.6384
-3.4435 -9.1277 2.7908
-0.9047 -7.5377 2.1694
0.9992 -8.1610 2.3470
2.8650 -7.5407 2.3006
5.5642 -8.0580 2.7908
7.0355 -6.2359 2.6781
8.2073 -4.3145 2.6407
9.0062 -2.2304 2.6426
9.2768 -0.0142 2.6430
9.0029 2.2003 2.6420
8.2026 4.2803 2.6396
7.3331 6.4602 2.7908
2.8083 4.0413 1.4068
1.7680 4.6131 1.4139
1.2112 9.6652 2.7908
-1.1328 9.6646 2.7908
-3.2210 8.6083 2.6384
-5.1816 7.5833 2.6384
-7.2360 6.4754 2.7908
-8.5723 4.5568 2.7908
-9.4136 2.3753 2.7908
-9.7115 0.0561 2.7908
-9.4486 -2.2683 2.7908
-8.6392 -4.4646 2.7908
-7.3286 -6.4063 2.7908
-5.2858 -7.5449 2.6384
-3.5258 -9.0958 2.7908
-0.9739 -7.5374 2.1718
0.9387 -8.2875 2.3810
2.7870 -7.5402 2.2927
5.4910 -8.1078 2.7908
7.0291 -6.3447 2.6974
8.1676 -4.3884 2.6406
8.9856 -2.3118 2.6425
9.2765 -0.0982 2.6430
9.0229 2.1189 2.6420
8.2416 4.2062 2.6397
7.3414 6.3508 2.7719
2.8442 4.0150 1.4065
1.8095 4.5964 1.4137
1.2986 9.6543 2.7908
-1.0454 9.6748 2.7908
-3.1430 8.6373 2.6384
-5.1129 7.6301 2.6384
-7.1773 6.5407 2.7908
-8.5308 4.6341 2.7908
-9.3916 2.4604 2.7908
-9.7104 0.1440 2.7908
-9.4685 -2.1826 2.7908
-8.6790 -4.3861 2.7908
-7.3860 -6.3394 2.7908
-5.3536 -7.4964 2.6384
-3.6078 -9.0632 2.7908
-1.0433 -7.5371 2.1745
1.0123 -9.7234 2.7908
2.7095 -7.5397 2.2851
5.4173 -8.1570 2.7908
7.0226 -6.4551 2.7173
8.1272 -4.4620 2.6405
8.9642 -2.3929 2.6425
9.2754 -0.1821 2.6430
9.0422 2.0373 2.6421
8.2799 4.1318 2.6398
7.3424 6.2363 2.7507
2.8799 3.9883 1.4062
1.8508 4.5794 1.4135
1.3860 9.6425 2.7908
-0.9578 9.6842 2.7908
-3.0720 8.6854 2.6445
-5.0438 7.6761 2.6384
-7.1179 6.6055 2.7908
-8.4885 4.7112 2.7908
-9.3689 2.5454 2.7908
-9.7086 0.2319 2.7908
-9.4877 -2.0968 2.7908
-8.7181 -4.3072 2.7908
-7.4428 -6.2721 2.7908
-5.4210 -7.4473 2.6384
-3.6895 -9.0297 2.7908
-1.1128 -7.5368 2.1773
0.9242 -9.7318 2.7908
2.6326 -7.5392 2.2777
5.3431 -8.2054 2.7908
7.0160 -6.5671 2.7376
8.0862 -4.5351 2.6404
8.9420 -2.4739 2.6424
9.2735 -0.2660 2.6430
9.0607 1.9555 2.6422
8.3176 4.0570 2.6399
7.3433 6.1236 2.7301
2.9153 3.9613 1.4059
1.8920 4.5620 1.4132
1.4731 9.6300 2.7908
-0.8703 9.6928 2.7908
-3.0571 8.8988 2.7008
-4.9743 7.7217 2.6384
-7.0579 6.6697 2.7908
-8.4456 4.7878 2.7908
-9.3454 2.6301 2.7908
-9.7059 0.3198 2.7908
-9.5060 -2.0108 2.7908
-8.7564 -4.2280 2.7908
-7.4990 -6.2042 2.7908
-5.4880 -7.3977 2.6384
-3.7709 -8.9956 2.7908
-1.1826 -7.5364 2.1803
0.8361 -9.7394 2.7908
2.5561 -7.5387 2.2706
5.2685 -8.2533 2.7908
7.0092 -6.6807 2.7585
8.0445 -4.6079 2.6403
8.9192 -2.5547 2.6424
9.2709 -0.3499 2.6430
9.0784 1.8735 2.6422
8.3546 3.9819 2.6400
7.3442 6.0127 2.7100
2.9504 3.9340 1.4055
1.9329 4.5442 1.4130
1.5603 9.6166 2.7908
-0.7825 9.7006 2.7908
-3.0415 9.1214 2.7598
-4.9043 7.7666 2.6384
-6.9974 6.7334 2.7908
-4.7955 2.7762 1.5929
-9.3212 2.7145 2.7908
-9.7025 0.4076 2.7908
-9.5236 -1.9246 2.7908
-8.7941 -4.1484 2.7908
-7.5546 -6.1358 2.7908
-5.5545 -7.3474 2.6384
-3.8520 -8.9607 2.7908
-1.2525 -7.5361 2.1835
0.7479 -9.7462 2.7908
2.4801 -7.5383 2.2637
5.1935 -8.3004 2.7908
7.0022 -6.7961 2.7799
8.0021 -4.6803 2.6402
8.8956 -2.6352 2.6423
9.2675 -0.4338 2.6430
9.0954 1.7915 2.6423
8.3908 3.9065 2.6401
7.3450 5.9032 2.6904
2.9852 3.9064 1.4052
1.9737 4.5260 1.4128
1.6474 9.6025 2.7908
-0.6947 9.7077 2.7908
-2.9922 9.2516 2.7908
-4.8339 7.8109 2.6384
-6.5575 6.4255 2.6384
-4.7777 2.8240 1.5954
-9.2962 2.7988 2.7908
-9.6983 0.4955 2.7908
-9.5404 -1.8382 2.7908
-8.8310 -4.0685 2.7908
-7.6095 -6.0670 2.7908
-5.6205 -7.2965 2.6384
-3.9328 -8.9251 2.7908
-1.3226 -7.5358 2.1868
0.6597 -9.7522 2.7908
2.4046 -7.5378 2.2570
5.1181 -8.3468 2.7908
6.9677 -6.8861 2.7908
7.9590 -4.7523 2.6401
8.8712 -2.7155 2.6423
9.2633 -0.5176 2.6430
9.1116 1.7091 2.6423
8.4265 3.8306 2.6402
7.3458 5.7951 2.6712
3.0199 3.8784 1.4048
2.0144 4.5073 1.4126
1.7344 9.5876 2.7908
-0.6067 9.7140 2.7908
-2.9082 9.2787 2.7908
-4.7630 7.8546 2.6384
-6.4990 6.4848 2.6384
-8.3127 5.0154 2.7908
-9.2704 2.8827 2.7908
-9.6932 0.5831 2.7908
-9.5564 -1.7519 2.7908
-8.8671 -3.9884 2.7908
-7.6638 -5.9977 2.7908
-5.6860 -7.2451 2.6384
-4.0131 -8.8889 2.7908
-1.3929 -7.5355 2.1904
0.5715 -9.7574 2.7908
2.3297 -7.5373 2.2505
5.0424 -8.3925 2.7908
6.9051 -6.9486 2.7908
7.9154 -4.8237 2.6400
8.8462 -2.7955 2.6422
9.2584 -0.6013 2.6430
9.1271 1.6268 2.6424
8.4613 3.7546 2.6403
7.3471 5.6892 2.6528
3.0542 3.8501 1.4045
2.0548 4.4884 1.4123
1.8211 9.5719 2.7908
-0.5189 9.7194 2.7908
-2.8244 9.3049 2.7908
-4.6919 7.8975 2.6384
-6.4402 6.5436 2.6384
-8.2669 5.0906 2.7908
-9.2439 2.9666 2.7908
-9.6874 0.6710 2.7908
-9.5717 -1.6651 2.7908
-8.9026 -3.9077 2.7908
-7.7175 -5.9278 2.7908
-5.7512 -7.1930 2.6384
-4.0934 -8.8517 2.7908
-1.4636 -7.5352 2.1942
0.4830 -9.7618 2.7908
2.2549 -7.5369 2.2442
4.9660 -8.4377 2.7908
6.8418 -7.0108 2.7908
7.8710 -4.8950 2.6399
8.8203 -2.8755 2.6422
9.2527 -0.6851 2.6430
9.1419 1.5440 2.6424
8.4956 3.6780 2.6404
7.3589 5.5926 2.6386
3.0883 3.8215 1.4041
2.0952 4.4690 1.4121
1.9079 9.5554 2.7908
-0.4311 9.7241 2.7908
-2.7403 9.3303 2.7908
-4.6205 7.9397 2.6384
-6.3810 6.6014 2.6384
-8.2206 5.1651 2.7908
-9.2167 3.0500 2.7908
-9.6808 0.7585 2.7908
-9.5861 -1.5785 2.7908
-8.9373 -3.8270 2.7908
-7.7705 -5.8576 2.7908
-5.8157 -7.1404 2.6384
-4.1730 -8.8140 2.7908
-1.5343 -7.5349 2.1981
0.3948 -9.7654 2.7908
2.1808 -7.5364 2.2382
4.8894 -8.4820 2.7908
6.7781 -7.0722 2.7908
7.8261 -4.9657 2.6398
8.7938 -2.9550 2.6421
9.2462 -0.7687 2.6430
9.1558 1.4615 2.6425
8.5290 3.6014 2.6405
7.4090 5.5255 2.6384
3.1220 3.7926 1.4038
2.1352 4.4494 1.4119
1.9942 9.5382 2.7908
-0.3429 9.7280 2.7908
-2.6556 9.3551 2.7908
-4.5484 7.9815 2.6384
-6.3209 6.6591 2.6384
-8.1734 5.2395 2.7908
-9.1886 3.1335 2.7908
-9.6734 0.8462 2.7908
-9.5998 -1.4915 2.7908
-8.9714 -3.7456 2.7908
-7.8230 -5.7867 2.7908
-5.8800 -7.0871 2.6384
-4.2525 -8.7754 2.7908
-1.6055 -7.5346 2.2023
0.3063 -9.7682 2.7908
2.1068 -7.5360 2.2324
4.8122 -8.5257 2.7908
6.7136 -7.1332 2.7908
7.7804 -5.0362 2.6397
8.7665 -3.0345 2.6420
9.2390 -0.8525 2.6430
9.1690 1.3785 2.6425
8.5618 3.5244 2.6406
7.4589 5.4583 2.6384
3.1555 3.7635 1.4034
2.1750 4.4293 1.4116
2.0804 9.5202 2.7908
-0.2550 9.7310 2.7908
-2.5711 9.3790 2.7908
-4.4762 8.0225 2.6384
-6.2606 6.7161 2.6384
-8.1258 5.3132 2.7908
-9.1599 3.2164 2.7908
-9.6652 0.9336 2.7908
-9.6127 -1.4046 2.7908
-9.0046 -3.6643 2.7908
-7.8747 -5.7155 2.7908
-5.9435 -7.0334 2.6384
-4.3315 -8.7363 2.7908
-1.6767 -7.5343 2.2066
0.2180 -9.7702 2.7908
2.0335 -7.5355 2.2268
4.7349 -8.5686 2.7908
6.6488 -7.1934 2.7908
7.7342 -5.1060 2.6396
8.7386 -3.1135 2.6420
9.2310 -0.9359 2.6430
9.1815 1.2957 2.6426
8.5940 3.4469 2.6407
7.5083 5.3909 2.6384
3.1888 3.7339 1.4031
2.2148 4.4088 1.4114
1.6109 7.0640 2.0749
-0.1667 9.7333 2.7908
-2.4860 9.4022 2.7908
-4.4033 8.0630 2.6384
-6.1995 6.7727 2.6384
-8.0774 5.3867 2.7908
-9.1303 3.2993 2.7908
-9.6562 1.0212 2.7908
-9.6248 -1.3174 2.7908
-9.0372 -3.5824 2.7908
-7.9259 -5.6437 2.7908
-6.0068 -6.9790 2.6384
-4.4103 -8.6963 2.7908
-1.7485 -7.5339 2.2112
0.1294 -9.7714 2.7908
1.9603 -7.5351 2.2214
4.6569 -8.6109 2.7908
6.5832 -7.2533 2.7908
7.6874 -5.1753 2.6395
8.7099 -3.1922 2.6419
8.9174 -0.9855 2.5556
9.1931 1.2128 2.6426
8.6253 3.3694 2.6408
7.5570 5.3231 2.6384
3.2217 3.7041 1.4027
2.2542 4.3880 1.4111
1.6094 6.7746 1.9940
-0.0788 9.7348 2.7908
-2.4010 9.4247 2.7908
-4.3304 8.1027 2.6384
-6.1382 6.8286 2.6384
-8.0284 5.4595 2.7908
-9.1001 3.3817 2.7908
-9.6465 1.1084 2.7908
-9.6361 -1.2303 2.7908
-9.0689 -3.5005 2.7908
-7.9763 -5.5716 2.7908
-4.9488 -5.6458 2.1514
-4.2434 -8.1831 2.6384
-1.8203 -7.5336 2.2159
0.0348 -8.2677 2.3613
1.8877 -7.5347 2.2162
4.5789 -8.6524 2.7908
6.5173 -7.3123 2.7908
7.6398 -5.2445 2.6393
8.6804 -3.2709 2.6419
9.2127 -1.1028 2.6430
9.2041 1.1295 2.6427
8.6561 3.2912 2.6409
7.6053 5.2546 2.6385
3.2544 3.6739 1.4023
2.2935 4.3668 1.4108
1.6080 6.5059 1.9191
0.0095 9.7355 2.7908
-2.3155 9.4464 2.7908
-4.2569 8.1418 2.6384
-6.0761 6.8841 2.6384
-7.9786 5.5322 2.7908
-9.0690 3.4641 2.7908
-9.6359 1.1958 2.7908
-9.6467 -1.1428 2.7908
-9.1000 -3.4180 2.7908
-8.0262 -5.4989 2.7908
-4.9713 -5.5687 2.1391
-4.3172 -8.1439 2.6384
-1.8927 -7.5333 2.2209
-0.0392 -8.1414 2.3253
1.8154 -7.5342 2.2113
4.5004 -8.6932 2.7908
6.4509 -7.3707 2.7908
7.5917 -5.3130 2.6392
8.6503 -3.3491 2.6418
9.2024 -1.1859 2.6430
9.2143 1.0463 2.6427
8.6860 3.2131 2.6410
7.6527 5.1858 2.6385
3.2867 3.6435 1.4019
2.3326 4.3452 1.4106
1.6068 6.2576 1.8500
0.0974 9.7354 2.7908
-2.2301 9.4672 2.7908
-4.1832 8.1802 2.6384
-6.0138 6.9388 2.6384
-7.9284 5.6039 2.7908
-9.0373 3.5459 2.7908
-9.6246 1.2829 2.7908
-9.6564 -1.0556 2.7908
-9.1302 -3.3355 2.7908
-8.0753 -5.4259 2.7908
-6.1933 -6.8126 2.6384
-4.3904 -8.1042 2.6384
-1.9651 -7.5330 2.2260
-0.1122 -8.0802 2.3081
1.7432 -7.5338 2.2065
4.4213 -8.7334 2.7908
6.3837 -7.4288 2.7908
7.5428 -5.3813 2.6391
8.6194 -3.4273 2.6417
9.1913 -1.2693 2.6429
9.2237 0.9627 2.6427
8.7153 3.1345 2.6411
7.6997 5.1165 2.6385
3.3188 3.6128 1.4016
2.3715 4.3233 1.4103
1.6056 6.0256 1.7855
0.1857 9.7345 2.7908
-2.1443 9.4874 2.7908
-4.1090 8.2180 2.6384
-5.9507 6.9932 2.6384
-7.8773 5.6758 2.7908
-9.0048 3.6277 2.7908
-9.6125 1.3701 2.7908
-9.6654 -0.9680 2.7908
-9.1598 -3.2528 2.7908
-8.1237 -5.3526 2.7908
-6.2543 -6.7561 2.6384
-4.4633 -8.0639 2.6384
-2.0379 -7.5327 2.2314
-0.1844 -8.0446 2.2984
1.6716 -7.5334 2.2019
4.3421 -8.7727 2.7908
6.3162 -7.4860 2.7908
7.4935 -5.4489 2.6390
7.6942 -3.1402 2.3668
9.1795 -1.3523 2.6429
9.2323 0.8795 2.6428
8.7438 3.0558 2.6412
7.7459 5.0469 2.6385
3.3505 3.5818 1.4012
2.4101 4.3010 1.4100
1.6045 5.8101 1.7258
0.2737 9.7328 2.7908
-2.0586 9.5062 2.7908
-4.0347 8.2550 2.6384
-5.8874 7.0468 2.6384
-7.8257 5.7468 2.7908
-8.9716 3.7089 2.7908
-9.5996 1.4569 2.7908
-9.6736 -0.8806 2.7908
-9.1886 -3.1695 2.7908
-8.1716 -5.2785 2.7908
-6.3150 -6.6988 2.6384
-4.5360 -8.0228 2.6384
-2.1113 -7.5324 2.2370
-0.2433 -7.6049 2.1734
1.6000 -7.5330 2.1976
4.2623 -8.8115 2.7908
6.2480 -7.5428 2.7908
7.4434 -5.5163 2.6389
7.6421 -3.2000 2.3596
9.1669 -1.4354 2.6429
9.2402 0.7958 2.6428
8.7717 2.9766 2.6413
7.7916 4.9767 2.6385
3.3821 3.5504 1.4008
2.4486 4.2783 1.4098
1.6035 5.6077 1.6699
0.3619 9.7303 2.7908
-1.9723 9.5253 2.7908
-3.9597 8.2915 2.6384
-5.8233 7.1001 2.6384
-7.7736 5.8174 2.7908
-8.9377 3.7899 2.7908
-9.5860 1.5436 2.7908
-9.6809 -0.7931 2.7908
-9.2166 -3.0863 2.7908
-8.2187 -5.2043 2.7908
-6.3751 -6.6412 2.6384
-4.6081 -7.9811 2.6384
-2.1847 -7.5321 2.2427
-0.3095 -7.5406 2.1558
1.5289 -7.5326 2.1934
4.1824 -8.8494 2.7908
6.1795 -7.5987 2.7908
7.3928 -5.5830 2.6387
8.5225 -3.6595 2.6415
9.1536 -1.5181 2.6429
9.2473 0.7123 2.6428
8.7987 2.8974 2.6413
7.8366 4.9063 2.6385
3.4132 3.5189 1.4004
2.4868 4.2553 1.4095
1.6025 5.4186 1.6178
0.4499 9.7270 2.7908
-1.8862 9.5431 2.7908
-3.8848 8.3272 2.6384
-5.7590 7.1525 2.6384
-7.7206 5.8877 2.7908
-8.9030 3.8708 2.7908
-9.5715 1.6304 2.7908
-9.6875 -0.7052 2.7908
-9.2440 -3.0025 2.7908
-8.2652 -5.1293 2.7908
-6.4348 -6.5829 2.6384
-4.6801 -7.9387 2.6384
-2.4195 -8.0673 2.4086
-0.3780 -7.5402 2.1567
1.4579 -7.5322 2.1894
4.1019 -8.8867 2.7908
6.1102 -7.6543 2.7908
7.3415 -5.6494 2.6386
8.4888 -3.7365 2.6414
9.1394 -1.6011 2.6428
9.2537 0.6285 2.6429
8.8251 2.8177 2.6414
7.8814 4.8355 2.6386
3.4441 3.4870 1.4000
2.5248 4.2319 1.4092
1.6016 5.2410 1.5689
0.5377 9.7229 2.7908
-1.8000 9.5601 2.7908
-3.8095 8.3622 2.6384
-5.6943 7.2044 2.6384
-7.6671 5.9573 2.7908
-8.8677 3.9511 2.7908
-9.5562 1.7168 2.7908
-9.6933 -0.6177 2.7908
-9.2705 -2.9187 2.7908
-8.3110 -5.0543 2.7908
-6.4937 -6.5242 2.6384
-4.7515 -7.8957 2.6384
-2.8876 -9.3214 2.7908
-0.4463 -7.5399 2.1578
1.3873 -7.5318 2.1857
4.0214 -8.9231 2.7908
6.0407 -7.7090 2.7908
7.2897 -5.7151 2.6385
8.4544 -3.8129 2.6413
9.1246 -1.6835 2.6428
9.2592 0.5450 2.6429
8.8507 2.7381 2.6415
7.9254 4.7645 2.6388
3.4746 3.4549 1.3996
2.5625 4.2083 1.4089
1.6008 5.0732 1.5229
0.6259 9.7180 2.7908
-1.7133 9.5763 2.7908
-3.7336 8.3966 2.6384
-5.6288 7.2559 2.6384
-7.6129 6.0267 2.7908
-8.8315 4.0314 2.7908
-9.5402 1.8034 2.7908
-9.6983 -0.5297 2.7908
-9.2963 -2.8344 2.7908
-8.3562 -4.9785 2.7908
-6.5524 -6.4648 2.6384
-4.8227 -7.8520 2.6384
-2.9719 -9.2944 2.7908
-0.5149 -7.5396 2.1590
1.3168 -7.5314 2.1821
3.9402 -8.9589 2.7908
5.9705 -7.7633 2.7908
7.2375 -5.7808 2.6384
8.4192 -3.8892 2.6412
9.1089 -1.7661 2.6428
9.2641 0.4610 2.6429
8.8756 2.6582 2.6416
7.9688 4.6931 2.6389
3.5048 3.4225 1.3992
2.6000 4.1842 1.4086
1.6000 4.9155 1.4798
0.7137 9.7124 2.7908
-1.6267 9.5918 2.7908
-3.6577 8.4303 2.6384
-5.5631 7.3066 2.6384
-7.5582 6.0953 2.7908
-8.7947 4.1110 2.7908
-9.5234 1.8895 2.7908
-9.7026 -0.4420 2.7908
-9.3213 -2.7503 2.7908
-8.4005 -4.9026 2.7908
-6.6103 -6.4051 2.6384
-4.8932 -7.8078 2.6384
-3.0556 -9.2668 2.7908
-0.5833 -7.5392 2.1604
1.2525 -7.5660 2.1888
3.2365 -7.5431 2.3406
5.9000 -7.8167 2.7908
7.1849 -5.8459 2.6384
8.3835 -3.9649 2.6412
9.0926 -1.8483 2.6428
9.2681 0.3773 2.6429
8.8998 2.5778 2.6416
8.0116 4.6210 2.6390
3.5348 3.3897 1.3988
2.6374 4.1598 1.4083
1.5992 4.7658 1.4390
0.8018 9.7059 2.7908
-1.5397 9.6065 2.7908
-3.5812 8.4633 2.6384
-5.4967 7.3569 2.6384
-7.5027 6.1636 2.7908
-8.7570 4.1906 2.7908
-9.5058 1.9758 2.7908
-9.7060 -0.3540 2.7908
-9.3456 -2.6655 2.7908
-8.4444 -4.8261 2.7908
-6.6678 -6.3446 2.6384
-4.9636 -7.7628 2.6384
-3.1394 -9.2383 2.7908
-0.6521 -7.5389 2.1620
1.2503 -8.0022 2.3117
3.1557 -7.5425 2.3316
5.8288 -7.8697 2.7908
7.1317 -5.9105 2.6384
8.3470 -4.0404 2.6411
9.0755 -1.9303 2.6427
9.2714 0.2936 2.6429
8.9232 2.4974 2.6417
8.0537 4.5489 2.6391
3.5644 3.3568 1.3984
2.6744 4.1351 1.4080
1.6144 4.6709 1.4146
0.8895 9.6987 2.7908
-1.4529 9.6203 2.7908
-3.5046 8.4956 2.6384
-5.4302 7.4065 2.6384
-7.4467 6.2313 2.7908
-8.7188 4.2696 2.7908
-9.4875 2.0616 2.7908
-9.7086 -0.2663 2.7908
-9.3690 -2.5809 2.7908
-8.4873 -4.7494 2.7908
-6.7246 -6.2839 2.6384
-5.0333 -7.7173 2.6384
-3.2226 -9.2092 2.7908
-0.7207 -7.5386 2.1638
1.1808 -8.0323 2.3173
3.0757 -7.5420 2.3228
5.7573 -7.9219 2.7908
7.0778 -5.9748 2.6384
8.3098 -4.1157 2.6410
9.0576 -2.0125 2.6427
9.2739 0.2095 2.6430
8.9460 2.4166 2.6418
8.0952 4.4760 2.6393
3.5938 3.3235 1.3980
2.7113 4.1099 1.4077
1.6566 4.6556 1.4144
0.9774 9.6906 2.7908
-1.3657 9.6335 2.7908
-3.4276 8.5273 2.6384
-5.3629 7.4556 2.6384
-7.3900 6.2987 2.7908
-8.6798 4.3485 2.7908
-9.4683 2.1476 2.7908
-9.7105 -0.1782 2.7908
-9.3918 -2.4958 2.7908
-8.5298 -4.6721 2.7908
-6.7810 -6.2224 2.6384
-5.1029 -7.6710 2.6384
-3.3055 -9.1794 2.7908
-0.7895 -7.5382 2.1657
1.1110 -8.0631 2.3233
2.9964 -7.5415 2.3143
5.6855 -7.9734 2.7908
7.0498 -6.0611 2.6484
8.2720 -4.1904 2.6409
9.0390 -2.0942 2.6426
8.0256 0.1088 2.2868
8.9679 2.3358 2.6419
8.1360 4.4031 2.6394
7.2343 6.5701 2.7908
2.7478 4.0845 1.4074
1.6984 4.6400 1.4142
1.0650 9.6817 2.7908
-1.2786 9.6456 2.7908
-3.3505 8.5581 2.6384
-5.2954 7.5039 2.6384
-7.3329 6.3652 2.7908
-8.6401 4.4268 2.7908
-9.4485 2.2331 2.7908
-9.7115 -0.0905 2.7908
-9.4137 -2.4107 2.7908
-8.5714 -4.5947 2.7908
-6.8367 -6.1607 2.6384
-5.1717 -7.6243 2.6384
-3.3884 -9.1486 2.7908
-0.8586 -7.5379 2.1679
1.0430 -8.1127 2.3348
2.9173 -7.5410 2.3060
5.6128 -8.0244 2.7908
7.0397 -6.1642 2.6655
8.2333 -4.2651 2.6408
9.0195 -2.1760 2.6426
9.2766 0.0417 2.6430
8.9892 2.2545 2.6419
8.1762 4.3295 2.6395
7.2938 6.5044 2.7908
2.7842 4.0587 1.4071
1.7402 4.6240 1.4140
1.1528 9.6721 2.7908
-1.1911 9.6573 2.7908
-3.2728 8.5884 2.6384
-5.2272 7.5518 2.6384
-7.2749 6.4316 2.7908
-8.5996 4.5050 2.7908
-9.4277 2.3186 2.7908
-9.7118 -0.0024 2.7908
-9.4349 -2.3255 2.7908
-8.6122 -4.5169 2.7908
-6.8918 -6.0984 2.6384
-5.2402 -7.5769 2.6384
-3.4708 -9.1172 2.7908
-0.9276 -7.5376 2.1702
0.9781 -8.1922 2.3552
2.8391 -7.5405 2.2980
5.5400 -8.0746 2.7908
7.0334 -6.2718 2.6844
8.1942 -4.3391 2.6407
8.9994 -2.2574 2.6426
9.2768 -0.0420 2.6430
9.0096 2.1734 2.6420
8.2156 4.2558 2.6396
7.3407 6.4283 2.7863
2.8202 4.0326 1.4067
1.7818 4.6076 1.4138
1.2402 9.6617 2.7908
-1.1039 9.6680 2.7908
-3.1952 8.6179 2.6384
-5.1589 7.5989 2.6384
-7.2166 6.4971 2.7908
-8.5586 4.5825 2.7908
-9.4063 2.4037 2.7908
-9.7112 0.0854 2.7908
-9.4554 -2.2398 2.7908
-8.6526 -4.4385 2.7908
-7.3478 -6.3840 2.7908
-5.3084 -7.5288 2.6384
-3.5532 -9.0850 2.7908
-0.9970 -7.5373 2.1727
1.0709 -9.7173 2.7908
2.7611 -7.5400 2.2902
5.4665 -8.1243 2.7908
7.0270 -6.3814 2.7040
8.1542 -4.4130 2.6406
8.9785 -2.3388 2.6425
9.2762 -0.1261 2.6430
9.0294 2.0917 2.6421
8.2544 4.1814 2.6397
7.3417 6.3124 2.7648
2.8561 4.0061 1.4064
1.8233 4.5908 1.4136
1.3278 9.6504 2.7908
-1.0162 9.6780 2.7908
-3.1170 8.6468 2.6384
-5.0899 7.6455 2.6384
-7.1577 6.5622 2.7908
-8.5169 4.6597 2.7908
-9.3842 2.4886 2.7908
-9.7099 0.1731 2.7908
-9.4750 -2.1542 2.7908
-8.6920 -4.3600 2.7908
-7.4049 -6.3171 2.7908
-5.3760 -7.4802 2.6384
-3.6349 -9.0522 2.7908
-1.0663 -7.5370 2.1754
0.9831 -9.7263 2.7908
2.6840 -7.5395 2.2826
5.3927 -8.1731 2.7908
7.0204 -6.4921 2.7240
8.1137 -4.4863 2.6405
8.9569 -2.4198 2.6425
9.2748 -0.2099 2.6430
9.0484 2.0102 2.6421
8.2925 4.1070 2.6398
7.3427 6.1988 2.7438
2.8916 3.9794 1.4061
1.8645 4.5737 1.4134
1.4150 9.6384 2.7908
-0.9287 9.6871 2.7908
-3.0671 8.7554 2.6630
-5.0207 7.6914 2.6384
-7.0980 6.6269 2.7908
-8.4743 4.7368 2.7908
-9.3612 2.5736 2.7908
-9.7078 0.2612 2.7908
-9.4939 -2.0681 2.7908
-8.7309 -4.2808 2.7908
-7.4616 -6.2495 2.7908
-5.4434 -7.4308 2.6384
-3.7167 -9.0184 2.7908
-1.1361 -7.5366 2.1783
0.8949 -9.7344 2.7908
2.6070 -7.5391 2.2753
5.3183 -8.2215 2.7908
7.0137 -6.6048 2.7445
8.0723 -4.5594 2.6404
8.9345 -2.5009 2.6424
9.2727 -0.2939 2.6430
9.0667 1.9282 2.6422
8.3300 4.0320 2.6399
7.3436 6.0864 2.7233
2.9270 3.9522 1.4057
1.9055 4.5561 1.4132
1.5020 9.6256 2.7908
-0.8412 9.6955 2.7908
-3.0520 8.9715 2.7201
-4.9511 7.7366 2.6384
-7.0379 6.6909 2.7908
-4.8349 2.7601 1.6004
-9.3375 2.6581 2.7908
-9.7049 0.3489 2.7908
-9.5120 -1.9822 2.7908
-8.7690 -4.2016 2.7908
-7.5175 -6.1816 2.7908
-5.5101 -7.3811 2.6384
-3.7979 -8.9841 2.7908
-1.2057 -7.5363 2.1813
0.8069 -9.7417 2.7908
2.5309 -7.5386 2.2683
5.2437 -8.2690 2.7908
7.0069 -6.7188 2.7655
8.0305 -4.6319 2.6403
8.9114 -2.5814 2.6424
9.2698 -0.3777 2.6430
9.0841 1.8463 2.6422
8.3667 3.9569 2.6400
7.3445 5.9760 2.7034
2.9620 3.9249 1.4054
1.9465 4.5381 1.4130
1.5893 9.6120 2.7908
-0.7533 9.7030 2.7908
-3.0362 9.1978 2.7801
-4.8809 7.7814 2.6384
-6.9770 6.7545 2.7908
-4.7887 2.7917 1.5935
-9.3129 2.7427 2.7908
-9.7012 0.4369 2.7908
-9.5293 -1.8958 2.7908
-8.8064 -4.1218 2.7908
-7.5730 -6.1129 2.7908
-5.5766 -7.3305 2.6384
-3.8790 -8.9489 2.7908
-1.2759 -7.5360 2.1846
0.7185 -9.7483 2.7908
2.4549 -7.5381 2.2614
5.1684 -8.3160 2.7908
6.9999 -6.8350 2.7871
7.9878 -4.7043 2.6402
8.8875 -2.6620 2.6423
9.2662 -0.4617 2.6430
9.1008 1.7643 2.6423
8.4027 3.8814 2.6401
7.3453 5.8672 2.6840
2.9967 3.8972 1.4051
1.9872 4.5198 1.4127
1.6762 9.5977 2.7908
-0.6656 9.7099 2.7908
-2.9644 9.2607 2.7908
-4.8105 7.8254 2.6384
-6.5382 6.4452 2.6384
-4.7875 2.8493 1.6015
-9.2877 2.8267 2.7908
-9.6967 0.5246 2.7908
-9.5458 -1.8096 2.7908
-8.8430 -4.0419 2.7908
-7.6276 -6.0440 2.7908
-5.6423 -7.2795 2.6384
-3.9595 -8.9132 2.7908
-1.3459 -7.5357 2.1880
0.6304 -9.7540 2.7908
2.3797 -7.5376 2.2548
5.0930 -8.3621 2.7908
6.9470 -6.9069 2.7908
7.9446 -4.7760 2.6401
8.8630 -2.7421 2.6423
9.2618 -0.5454 2.6430
9.1169 1.6818 2.6423
8.4381 3.8054 2.6403
7.3460 5.7594 2.6650
3.0313 3.8690 1.4047
2.0279 4.5011 1.4125
1.7632 9.5825 2.7908
-0.5775 9.7159 2.7908
-2.8804 9.2875 2.7908
-4.7394 7.8689 2.6384
-6.4796 6.5039 2.6384
-8.2974 5.0406 2.7908
-9.2616 2.9108 2.7908
-9.6914 0.6125 2.7908
-9.5616 -1.7229 2.7908
-8.8791 -3.9614 2.7908
-7.6818 -5.9744 2.7908
-5.7079 -7.2278 2.6384
-4.0400 -8.8765 2.7908
-1.4165 -7.5354 2.1917
0.5419 -9.7590 2.7908
2.3046 -7.5372 2.2484
5.0171 -8.4075 2.7908
6.8842 -6.9693 2.7908
7.9008 -4.8474 2.6400
8.8377 -2.8220 2.6422
9.2566 -0.6290 2.6430
9.1321 1.5994 2.6424
8.4727 3.7293 2.6404
7.3511 5.6570 2.6481
3.0655 3.8407 1.4044
2.0682 4.4820 1.4123
1.8498 9.5665 2.7908
-0.4897 9.7211 2.7908
-2.7965 9.3134 2.7908
-4.6682 7.9116 2.6384
-6.4206 6.5627 2.6384
-8.2516 5.1154 2.7908
-9.2349 2.9944 2.7908
-9.6853 0.7000 2.7908
-9.5766 -1.6364 2.7908
-8.9142 -3.8809 2.7908
-7.7352 -5.9045 2.7908
-5.7727 -7.1756 2.6384
-4.1198 -8.8393 2.7908
-1.4870 -7.5351 2.1955
0.4537 -9.7631 2.7908
2.2302 -7.5367 2.2422
4.9406 -8.4524 2.7908
6.8207 -7.0313 2.7908
7.8562 -4.9186 2.6399
8.8116 -2.9019 2.6421
9.2506 -0.7129 2.6430
9.1466 1.5166 2.6424
8.5068 3.6526 2.6405
7.3754 5.5699 2.6384
3.0996 3.8119 1.4040
2.1085 4.4625 1.4120
1.9365 9.5498 2.7908
-0.4016 9.7255 2.7908
-2.7120 9.3387 2.7908
-4.5964 7.9538 2.6384
-6.3609 6.6207 2.6384
-8.2049 5.1901 2.7908
-9.2073 3.0780 2.7908
-9.6784 0.7878 2.7908
-9.5908 -1.5494 2.7908
-8.9488 -3.7998 2.7908
-7.7881 -5.8339 2.7908
-5.8373 -7.1227 2.6384
-4.1993 -8.8013 2.7908
-1.5578 -7.5348 2.1995
0.3655 -9.7664 2.7908
2.1563 -7.5363 2.2363
4.8639 -8.4965 2.7908
6.7568 -7.0925 2.7908
7.8111 -4.9891 2.6398
8.7849 -2.9813 2.6421
9.2439 -0.7963 2.6430
9.1603 1.4341 2.6425
8.5400 3.5758 2.6406
7.4256 5.5033 2.6384
3.1332 3.7830 1.4037
2.1484 4.4427 1.4118
2.0228 9.5323 2.7908
-0.3137 9.7291 2.7908
-2.6276 9.3631 2.7908
-4.5244 7.9952 2.6384
-6.3009 6.6781 2.6384
-8.1577 5.2640 2.7908
-9.1791 3.1611 2.7908
-9.6708 0.8752 2.7908
-9.6042 -1.4627 2.7908
-8.9825 -3.7187 2.7908
-7.8403 -5.7631 2.7908
-5.9012 -7.0694 2.6384
-4.2788 -8.7625 2.7908
-1.6291 -7.5345 2.2037
0.2770 -9.7689 2.7908
2.0824 -7.5358 2.2305
4.7866 -8.5400 2.7908
6.6921 -7.1533 2.7908
7.7651 -5.0594 2.6397
8.7573 -3.0608 2.6420
9.2364 -0.8802 2.6430
9.1733 1.3510 2.6425
8.5726 3.4985 2.6407
7.4755 5.4357 2.6384
3.1667 3.7536 1.4033
2.1883 4.4225 1.4115
1.6119 7.2707 2.1328
-0.2255 9.7319 2.7908
-2.5426 9.3869 2.7908
-4.4519 8.0361 2.6384
-6.2402 6.7350 2.6384
-8.1097 5.3378 2.7908
-9.1501 3.2442 2.7908
-9.6623 0.9629 2.7908
-9.6168 -1.3758 2.7908
-9.0154 -3.6372 2.7908
-7.8917 -5.6918 2.7908
-5.9645 -7.0155 2.6384
-4.3576 -8.7231 2.7908
-1.7004 -7.5342 2.2081
0.1887 -9.7707 2.7908
2.0092 -7.5354 2.2250
4.7092 -8.5827 2.7908
6.6271 -7.2133 2.7908
7.7187 -5.1291 2.6395
8.7291 -3.1397 2.6420
8.8895 -0.9282 2.5460
9.1854 1.2682 2.6426
8.6045 3.4212 2.6407
7.5246 5.3685 2.6384
3.1997 3.7240 1.4029
2.2279 4.4019 1.4113
1.6104 6.9653 2.0473
-0.1375 9.7339 2.7908
-2.4578 9.4098 2.7908
-4.3792 8.0762 2.6384
-6.1792 6.7913 2.6384
-8.0612 5.4110 2.7908
-9.1203 3.3267 2.7908
-9.6531 1.0502 2.7908
-9.6287 -1.2885 2.7908
-9.0478 -3.5552 2.7908
-7.9427 -5.6198 2.7908
-6.0277 -6.9608 2.6384
-4.4363 -8.6829 2.7908
-1.7723 -7.5338 2.2127
0.1001 -9.7716 2.7908
1.9361 -7.5350 2.2197
4.6310 -8.6248 2.7908
6.5613 -7.2730 2.7908
7.6715 -5.1985 2.6394
8.7001 -3.2186 2.6419
8.9176 -1.0130 2.5566
9.1969 1.1849 2.6426
8.6357 3.3432 2.6408
7.5732 5.3002 2.6385
3.2327 3.6940 1.4026
2.2674 4.3809 1.4110
1.6089 6.6824 1.9683
-0.0493 9.7351 2.7908
-2.3724 9.4320 2.7908
-4.3061 8.1157 2.6384
-6.1177 6.8470 2.6384
-8.0120 5.4836 2.7908
-9.0899 3.4090 2.7908
-9.6431 1.1374 2.7908
-9.6397 -1.2014 2.7908
-9.0793 -3.4732 2.7908
-7.9929 -5.5476 2.7908
-4.9443 -5.6065 2.1420
-4.2679 -8.1702 2.6384
-1.8442 -7.5335 2.2175
0.0100 -8.2622 2.5623
1.8642 -7.5369 2.4056
4.1923 -7.9800 2.7908
5.9807 -6.7511 2.7908
7.0736 -4.8874 2.6596
7.9777 -3.0338 2.6399
8.4734 -1.0404 2.6410
8.4721 1.0134 2.6407
7.9748 3.0044 2.6391
7.3115 5.0187 2.7486
2.9993 3.3651 1.3985
2.1179 4.0026 1.4063
1.6076 6.4199 2.0575
0.0361 8.9680 2.7908
-2.1066 8.7084 2.7908
-3.8989 7.5128 2.6384
-5.5787 6.3594 2.6384
-7.3355 5.1193 2.7908
-8.3459 3.2168 2.7908
-8.8744 1.1285 2.7908
-8.8905 -1.0262 2.7908
-8.3928 -3.1237 2.7908
-7.4088 -5.0434 2.7908
-4.9925 -5.5588 2.3244
-3.9988 -7.4891 2.6384
-1.9172 -7.5356 2.4139
-0.0636 -8.1126 2.5161
1.7919 -7.5365 2.4003
4.1198 -8.0174 2.7908
5.9193 -6.8049 2.7908
7.0684 -4.9789 2.6745
7.9497 -3.1058 2.6399
8.4637 -1.1170 2.6410
8.4812 0.9368 2.6408
8.0021 2.9323 2.6392
7.3121 4.9224 2.7319
3.0290 3.3372 1.3981
2.1537 3.9827 1.4061
1.6064 6.1772 1.9842
0.1173 8.9677 2.7908
-2.0277 8.7278 2.7908
-3.8309 7.5480 2.6384
-5.5210 6.4097 2.6384
-7.2889 5.1855 2.7908
-8.3165 3.2922 2.7908
-8.8638 1.2088 2.7908
-8.8993 -0.9456 2.7908
-8.4205 -3.0475 2.7908
-7.4539 -4.9760 2.7908
-5.7236 -6.2581 2.6384
-4.0663 -7.4523 2.6384
-1.9899 -7.5353 2.4196
-0.1360 -8.0523 2.4977
1.7199 -7.5360 2.3952
4.0470 -8.0541 2.7908
5.8574 -6.8580 2.7908
7.0632 -5.0714 2.6898
7.9211 -3.1775 2.6398
8.4532 -1.1935 2.6410
8.4896 0.8601 2.6408
8.0288 2.8600 2.6393
7.3127 4.8272 2.7156
3.0584 3.3089 1.3978
2.1894 3.9625 1.4058
1.6052 5.9512 1.9161
0.1984 8.9666 2.7908
-1.9487 8.7461 2.7908
-3.7625 7.5825 2.6384
-5.4629 6.4595 2.6384
-7.2417 5.2513 2.7908
-8.2863 3.3674 2.7908
-8.8524 1.2890 2.7908
-8.9073 -0.8650 2.7908
-8.4475 -2.9711 2.7908
-7.4984 -4.9081 2.7908
-5.7798 -6.2058 2.6384
-4.1334 -7.4150 2.6384
-2.0629 -7.5350 2.4255
-0.2080 -8.0193 2.4881
1.6482 -7.5356 2.3903
3.9739 -8.0902 2.7908
5.7950 -6.9106 2.7908
7.0579 -5.1650 2.7055
7.6295 -3.1409 2.5520
8.4421 -1.2700 2.6409
8.4973 0.7833 2.6408
8.0548 2.7874 2.6394
7.3132 4.7332 2.6997
3.0875 3.2804 1.3974
2.2249 3.9420 1.4056
1.6042 5.7401 1.8526
0.2796 8.9647 2.7908
-1.8696 8.7636 2.7908
-3.6938 7.6165 2.6384
-5.4043 6.5088 2.6384
-7.1940 5.3167 2.7908
-8.2555 3.4423 2.7908
-8.8403 1.3690 2.7908
-8.9146 -0.7844 2.7908
-8.4738 -2.8944 2.7908
-7.5423 -4.8399 2.7908
-5.8355 -6.1530 2.6384
-4.2002 -7.3770 2.6384
-2.1363 -7.5347 2.4316
-0.2640 -7.5431 2.3411
1.5768 -7.5352 2.3856
3.9004 -8.1256 2.7908
5.7321 -6.9626 2.7908
7.0525 -5.2597 2.7215
7.6424 -3.2274 2.5660
8.4303 -1.3463 2.6409
8.5043 0.7064 2.6408
8.0801 2.7146 2.6394
7.3137 4.6401 2.6842
3.1164 3.2516 1.3971
2.2601 3.9212 1.4053
1.6032 5.5425 1.7934
0.3607 8.9622 2.7908
-1.7902 8.7805 2.7908
-3.6248 7.6498 2.6384
-5.3452 6.5576 2.6384
-7.1456 5.3816 2.7908
-8.2240 3.5168 2.7908
-8.8274 1.4490 2.7908
-8.9212 -0.7036 2.7908
-8.4994 -2.8175 2.7908
-7.5855 -4.7713 2.7908
-5.8908 -6.0998 2.6384
-4.2666 -7.3384 2.6384
-2.2100 -7.5344 2.4380
-0.3323 -7.5428 2.3419
1.5057 -7.5348 2.3811
3.8267 -8.1603 2.7908
5.6688 -7.0140 2.7908
7.0470 -5.3554 2.7380
7.8314 -3.3910 2.6396
8.4178 -1.4225 2.6409
8.5106 0.6294 2.6409
8.1048 2.6415 2.6395
7.3142 4.5480 2.6690
3.1450 3.2226 1.3967
2.2952 3.9000 1.4051
1.6022 5.3572 1.7380
0.4418 8.9589 2.7908
-1.7107 8.7966 2.7908
-3.5555 7.6825 2.6384
-5.2857 6.6058 2.6384
-7.0967 5.4461 2.7908
-8.1918 3.5911 2.7908
-8.8138 1.5288 2.7908
-8.9270 -0.6228 2.7908
-8.5244 -2.7404 2.7908
-7.6281 -4.7023 2.7908
-5.9455 -6.0460 2.6384
-4.3326 -7.2992 2.6384
-2.6077 -8.6013 2.7908
-0.4007 -7.5424 2.3429
1.4349 -7.5344 2.3769
3.7526 -8.1944 2.7908
5.6050 -7.0649 2.7908
7.0414 -5.4523 2.7549
7.8002 -3.4616 2.6395
8.4046 -1.4986 2.6409
8.5162 0.5524 2.6409
8.1288 2.5682 2.6396
7.3146 4.4572 2.6543
3.1733 3.1933 1.3963
2.3300 3.8785 1.4048
1.6013 5.1829 1.6860
0.5229 8.9548 2.7908
-1.6311 8.8120 2.7908
-3.4859 7.7146 2.6384
-5.2258 6.6535 2.6384
-7.0472 5.5102 2.7908
-8.1590 3.6652 2.7908
-8.7996 1.6085 2.7908
-8.9321 -0.5420 2.7908
-8.5486 -2.6631 2.7908
-7.6701 -4.6329 2.7908
-5.9998 -5.9917 2.6384
-4.3983 -7.2594 2.6384
-2.6854 -8.5770 2.7908
-0.4692 -7.5421 2.3441
1.3643 -7.5340 2.3728
3.6782 -8.2278 2.7908
5.5408 -7.1152 2.7908
7.0357 -5.5504 2.7722
7.7683 -3.5319 2.6395
8.3907 -1.5745 2.6409
8.5211 0.4754 2.6409
8.1521 2.4947 2.6397
7.3233 4.3721 2.6429
3.2014 3.1638 1.3960
2.3647 3.8566 1.4045
1.6005 5.0187 1.6372
0.6039 8.9501 2.7908
-1.5513 8.8267 2.7908
-3.4160 7.7460 2.6384
-5.1655 6.7007 2.6384
-6.9971 5.5738 2.7908
-8.1255 3.7389 2.7908
-8.7846 1.6881 2.7908
-8.9365 -0.4611 2.7908
-8.5721 -2.5855 2.7908
-7.7115 -4.5631 2.7908
-6.0535 -5.9369 2.6384
-4.4637 -7.2190 2.6384
-2.7627 -8.5521 2.7908
-0.5377 -7.5418 2.3455
1.2939 -7.5336 2.3690
3.6035 -8.2605 2.7908
5.4761 -7.1649 2.7908
7.0298 -5.6497 2.7900
7.7358 -3.6019 2.6394
8.3761 -1.6503 2.6408
8.5252 0.3983 2.6409
8.1748 2.4210 2.6397
7.3504 4.2985 2.6384
3.2291 3.1340 1.3956
2.3991 3.8345 1.4042
1.5997 4.8637 1.5912
0.6850 8.9446 2.7908
-1.4714 8.8408 2.7908
-3.3458 7.7768 2.6384
-5.1047 6.7473 2.6384
-6.5671 5.3292 2.6384
-8.0913 3.8123 2.7908
-8.7689 1.7675 2.7908
-8.9402 -0.3802 2.7908
-8.5950 -2.5077 2.7908
-7.7522 -4.4930 2.7908
-6.1068 -5.8817 2.6384
-4.5286 -7.1780 2.6384
-2.8399 -8.5264 2.7908
-0.6063 -7.5414 2.3471
1.2518 -7.7057 2.4195
3.2107 -7.5454 2.5394
5.4109 -7.2140 2.7908
6.9805 -5.7148 2.7908
7.7027 -3.6716 2.6393
8.3608 -1.7260 2.6408
8.5287 0.3212 2.6410
8.1968 2.3471 2.6398
7.3892 4.2320 2.6384
3.2566 3.1039 1.3952
2.4333 3.8120 1.4040
1.5990 4.7172 1.5479
0.7659 8.9383 2.7908
-1.3914 8.8539 2.7908
-3.2754 7.8070 2.6384
-5.0435 6.7934 2.6384
-6.5186 5.3885 2.6384
-8.0565 3.8854 2.7908
-8.7524 1.8468 2.7908
-8.9431 -0.2992 2.7908
-8.6171 -2.4298 2.7908
-7.7923 -4.4225 2.7908
-6.1595 -5.8260 2.6384
-4.5932 -7.1365 2.6384
-2.9168 -8.5000 2.7908
-0.6750 -7.5411 2.3489
1.2278 -8.0154 2.5133
3.1301 -7.5449 2.5296
5.3453 -7.2625 2.7908
6.9284 -5.7776 2.7908
7.6689 -3.7410 2.6392
8.3448 -1.8016 2.6408
8.5315 0.2440 2.6410
8.2181 2.2729 2.6399
7.4274 4.1652 2.6384
3.2838 3.0736 1.3949
2.4673 3.7893 1.4037
1.5983 4.5785 1.5070
0.8468 8.9314 2.7908
-1.3112 8.8664 2.7908
-3.2047 7.8365 2.6384
-4.9819 6.8389 2.6384
-6.4697 5.4470 2.6384
-8.0210 3.9581 2.7908
-8.7353 1.9260 2.7908
-8.9453 -0.2183 2.7908
-8.6385 -2.3516 2.7908
-7.8318 -4.3517 2.7908
-6.2118 -5.7698 2.6384
-4.6574 -7.0943 2.6384
-2.9935 -8.4729 2.7908
-0.7438 -7.5408 2.3509
1.1569 -8.0379 2.5170
3.0502 -7.5443 2.5202
5.2794 -7.3104 2.7908
6.8758 -5.8400 2.7908
7.6345 -3.8101 2.6391
8.3281 -1.8770 2.6407
8.0221 0.1568 2.4827
8.2387 2.1986 2.6399
7.4711 4.1007 2.6406
3.3107 3.0430 1.3945
2.5011 3.7662 1.4034
1.5976 4.4468 1.4683
0.9276 8.9237 2.7908
-1.2310 8.8782 2.7908
-3.1337 7.8655 2.6384
-4.9199 6.8839 2.6384
-6.4201 5.5057 2.6384
-7.9848 4.0306 2.7908
-8.7174 2.0049 2.7908
-8.9468 -0.1373 2.7908
-8.6592 -2.2733 2.7908
-7.8706 -4.2805 2.7908
-6.2635 -5.7131 2.6384
-4.7213 -7.0516 2.6384
-3.0699 -8.4451 2.7908
-0.8127 -7.5405 2.3531
1.0884 -8.0796 2.5270
2.9709 -7.5438 2.5110
5.2129 -7.3577 2.7908
6.8227 -5.9019 2.7908
7.5995 -3.8788 2.6391
8.3107 -1.9522 2.6407
8.0502 0.0846 2.4910
8.2587 2.1241 2.6400
7.5020 4.0303 2.6384
3.3373 3.0122 1.3941
2.5346 3.7427 1.4031
1.5970 4.3217 1.4317
1.0084 8.9153 2.7908
-1.1506 8.8893 2.7908
-3.0879 7.9594 2.6604
-4.8575 6.9282 2.6384
-6.3702 5.5636 2.6384
-7.9480 4.1027 2.7908
-8.6989 2.0837 2.7908
-8.9475 -0.0563 2.7908
-8.6793 -2.1948 2.7908
-7.9088 -4.2089 2.7908
-6.3147 -5.6560 2.6384
-4.7847 -7.0083 2.6384
-3.1461 -8.4167 2.7908
-0.8818 -7.5401 2.3554
1.0231 -8.1513 2.5465
2.8922 -7.5433 2.5021
5.1460 -7.4044 2.7908
6.7689 -5.9633 2.7908
7.5638 -3.9473 2.6390
8.2927 -2.0273 2.6407
8.5355 0.0125 2.6410
8.2779 2.0494 2.6401
7.5385 3.9624 2.6385
3.3636 2.9812 1.3937
2.5679 3.7190 1.4028
1.6104 4.2398 1.4092
1.0891 8.9061 2.7908
-1.0702 8.8997 2.7908
-3.0746 8.1426 2.7122
-4.7947 6.9720 2.6384
-6.3196 5.6211 2.6384
-7.9106 4.1745 2.7908
-8.6796 2.1624 2.7908
-8.9475 0.0247 2.7908
-8.6986 -2.1161 2.7908
-7.9463 -4.1370 2.7908
-6.3655 -5.5984 2.6384
-4.8478 -6.9645 2.6384
-3.2220 -8.3875 2.7908
-0.9509 -7.5398 2.3580
1.0404 -8.9429 2.7908
2.8140 -7.5428 2.4935
5.0787 -7.4505 2.7908
6.7146 -6.0242 2.7908
7.5275 -4.0154 2.6389
8.2739 -2.1022 2.6406
8.5354 -0.0648 2.6410
8.2965 1.9745 2.6401
7.5742 3.8942 2.6385
3.3896 2.9499 1.3933
2.6010 3.6950 1.4025
1.6486 4.2246 1.4090
1.1696 8.8962 2.7908
-0.9896 8.9093 2.7908
-3.0607 8.3333 2.7662
-4.7315 7.0153 2.6384
-6.2685 5.6782 2.6384
-7.8725 4.2460 2.7908
-8.6596 2.2409 2.7908
-8.9468 0.1057 2.7908
-8.7172 -2.0372 2.7908
-7.9832 -4.0648 2.7908
-6.4156 -5.5404 2.6384
-4.9104 -6.9201 2.6384
-3.2976 -8.3577 2.7908
-1.0203 -7.5395 2.3608
0.9594 -8.9516 2.7908
2.7363 -7.5423 2.4851
5.0110 -7.4959 2.7908
6.6597 -6.0846 2.7908
7.4906 -4.0832 2.6388
8.2545 -2.1770 2.6406
8.5346 -0.1420 2.6410
8.3144 1.8994 2.6402
7.6094 3.8257 2.6385
3.4153 2.9185 1.3929
2.6339 3.6707 1.4022
1.6866 4.2091 1.4089
1.2501 8.8856 2.7908
-0.9090 8.9182 2.7908
-3.0118 8.4352 2.7908
-4.6679 7.0580 2.6384
-6.2169 5.7348 2.6384
-7.8338 4.3171 2.7908
-8.6389 2.3192 2.7908
-8.9453 0.1867 2.7908
-8.7350 -1.9582 2.7908
-8.0194 -3.9923 2.7908
-6.4653 -5.4819 2.6384
-4.9726 -6.8751 2.6384
-3.3730 -8.3272 2.7908
-1.0898 -7.5392 2.3638
0.8783 -8.9596 2.7908
2.6591 -7.5418 2.4770
4.9429 -7.5408 2.7908
6.6043 -6.1445 2.7908
7.4531 -4.1506 2.6387
8.2343 -2.2515 2.6405
8.5332 -0.2191 2.6410
8.3316 1.8243 2.6402
7.6439 3.7568 2.6385
3.4408 2.8867 1.3926
2.6665 3.6461 1.4019
1.7244 4.1933 1.4087
1.3306 8.8743 2.7908
-0.8282 8.9264 2.7908
-2.9354 8.4624 2.7908
-4.6039 7.1001 2.6384
-6.1648 5.7909 2.6384
-7.7944 4.3878 2.7908
-8.6175 2.3972 2.7908
-8.9431 0.2676 2.7908
-8.7522 -1.8790 2.7908
-8.0550 -3.9194 2.7908
-6.5144 -5.4230 2.6384
-5.0344 -6.8295 2.6384
-3.4481 -8.2960 2.7908
-1.1595 -7.5389 2.3670
0.7972 -8.9669 2.7908
2.5825 -7.5413 2.4691
4.8743 -7.5851 2.7908
6.5484 -6.2040 2.7908
7.4150 -4.2177 2.6386
8.2136 -2.3258 2.6405
8.5310 -0.2963 2.6411
8.3482 1.7489 2.6403
7.6779 3.6876 2.6385
3.4659 2.8548 1.3922
2.6989 3.6211 1.4016
1.7621 4.1771 1.4085
1.4109 8.8622 2.7908
-0.7474 8.9338 2.7908
-2.8587 8.4889 2.7908
-4.5395 7.1417 2.6384
-6.1123 5.8465 2.6384
-4.8144 2.7679 1.7327
-8.5954 2.4751 2.7908
-8.9402 0.3486 2.7908
-8.7686 -1.7996 2.7908
-8.0899 -3.8462 2.7908
-6.5630 -5.3636 2.6384
-5.0958 -6.7834 2.6384
-3.5229 -8.2641 2.7908
-1.2294 -7.5386 2.3704
0.7160 -8.9734 2.7908
2.5063 -7.5409 2.4615
4.8055 -7.6286 2.7908
6.4920 -6.2628 2.7908
7.3762 -4.2844 2.6385
8.1921 -2.4000 2.6404
8.5281 -0.3735 2.6411
8.3640 1.6734 2.6403
7.7112 3.6181 2.6385
3.4907 2.8226 1.3918
2.7311 3.5959 1.4013
1.7997 4.1605 1.4083
1.4911 8.8494 2.7908
-0.6665 8.9405 2.7908
-2.7819 8.5146 2.7908
-4.4749 7.1826 2.6384
-6.0592 5.9017 2.6384
-4.7817 2.8070 1.7301
-8.5726 2.5528 2.7908
-8.9366 0.4295 2.7908
-8.7844 -1.7201 2.7908
-8.1241 -3.7727 2.7908
-6.6110 -5.3038 2.6384
-5.1568 -6.7368 2.6384
-3.5974 -8.2316 2.7908
-1.2995 -7.5382 2.3740
0.6348 -8.9792 2.7908
2.4307 -7.5404 2.4541
4.7361 -7.6716 2.7908
6.4349 -6.3212 2.7908
7.3370 -4.3508 2.6385
8.1699 -2.4740 2.6404
8.5245 -0.4506 2.6411
8.3791 1.5977 2.6404
7.7438 3.5482 2.6385
3.5152 2.7902 1.3914
2.7630 3.5704 1.4010
1.8370 4.1436 1.4081
1.5711 8.8359 2.7908
-0.5857 8.9465 2.7908
-2.7048 8.5397 2.7908
-4.4097 7.2230 2.6384
-6.0056 5.9564 2.6384
-7.6725 4.5979 2.7908
-8.5491 2.6303 2.7908
-8.9322 0.5104 2.7908
-8.7994 -1.6405 2.7908
-8.1577 -3.6989 2.7908
-6.6585 -5.2435 2.6384
-5.2173 -6.6896 2.6384
-3.6715 -8.1984 2.7908
-1.3697 -7.5379 2.3777
0.5535 -8.9843 2.7908
2.3555 -7.5399 2.4470
4.6664 -7.7140 2.7908
6.3774 -6.3790 2.7908
7.2972 -4.4170 2.6384
8.1471 -2.5478 2.6403
8.5202 -0.5278 2.6411
8.3936 1.5219 2.6404
7.7760 3.4782 2.6385
3.5394 2.7576 1.3910
2.7946 3.5446 1.4007
1.8742 4.1264 1.4078
1.6511 8.8217 2.7908
-0.5047 8.9517 2.7908
-2.6275 8.5641 2.7908
-4.3443 7.2628 2.6384
-5.9515 6.0106 2.6384
-7.6306 4.6672 2.7908
-8.5249 2.7076 2.7908
-8.9271 0.5912 2.7908
-8.8137 -1.5607 2.7908
-8.1906 -3.6249 2.7908
-6.7054 -5.1829 2.6384
-5.2775 -6.6418 2.6384
-3.7454 -8.1645 2.7908
-1.4402 -7.5376 2.3818
0.4722 -8.9886 2.7908
2.2807 -7.5394 2.4401
4.5963 -7.7557 2.7908
6.3193 -6.4364 2.7908
7.2569 -4.4828 2.6384
8.1236 -2.6213 2.6403
8.5151 -0.6048 2.6411
8.4073 1.4460 2.6405
7.8076 3.4080 2.6386
3.5633 2.7247 1.3906
2.8261 3.5185 1.4004
1.9113 4.1088 1.4076
1.7310 8.8067 2.7908
-0.4236 8.9563 2.7908
-2.5499 8.5878 2.7908
-4.2784 7.3020 2.6384
-5.8969 6.0644 2.6384
-7.5881 4.7361 2.7908
-8.5000 2.7847 2.7908
-8.9212 0.6719 2.7908
-8.8273 -1.4809 2.7908
-8.2229 -3.5505 2.7908
-6.7519 -5.1218 2.6384
-5.3372 -6.5936 2.6384
-3.8190 -8.1300 2.7908
-1.5110 -7.5373 2.3860
0.3908 -8.9922 2.7908
2.2063 -7.5390 2.4335
4.5259 -7.7968 2.7908
6.2607 -6.4932 2.7908
7.2160 -4.5482 2.6384
8.0994 -2.6946 2.6402
8.5094 -0.6818 2.6410
8.4204 1.3699 2.6405
7.8386 3.3374 2.6387
3.5869 2.6917 1.3901
2.8572 3.4921 1.4000
1.9482 4.0909 1.4074
1.8107 8.7910 2.7908
-0.3426 8.9601 2.7908
-2.4721 8.6108 2.7908
-4.2123 7.3406 2.6384
-5.8419 6.1176 2.6384
-7.5450 4.8046 2.7908
-8.4745 2.8614 2.7908
-8.9147 0.7527 2.7908
-8.8401 -1.4009 2.7908
-8.2544 -3.4758 2.7908
-6.7977 -5.0603 2.6384
-5.3964 -6.5447 2.6384
-3.8923 -8.0947 2.7908
-1.5820 -7.5370 2.3904
0.3094 -8.9950 2.7908
2.1323 -7.5385 2.4271
4.4550 -7.8372 2.7908
6.2016 -6.5495 2.7908
7.1745 -4.6133 2.6384
8.0745 -2.7678 2.6402
8.5030 -0.7588 2.6410
8.4328 1.2937 2.6406
7.8690 3.2665 2.6388
7.2498 5.3387 2.7908
2.8881 3.4654 1.3997
1.9848 4.0726 1.4072
1.8902 8.7746 2.7908
-0.2615 8.9631 2.7908
-2.3942 8.6331 2.7908
-4.1458 7.3786 2.6384
-5.7864 6.1703 2.6384
-7.5012 4.8728 2.7908
-8.4482 2.9380 2.7908
-8.9074 0.8333 2.7908
-8.8523 -1.3208 2.7908
-8.2853 -3.4009 2.7908
-6.8430 -4.9984 2.6384
-5.4552 -6.4954 2.6384
-3.7487 -7.6188 2.6384
-1.6533 -7.5367 2.3951
0.2280 -8.9971 2.7908
2.0587 -7.5381 2.4209
4.3838 -7.8770 2.7908
6.1420 -6.6052 2.7908
7.1325 -4.6780 2.6384
8.0490 -2.8406 2.6401
8.4958 -0.8357 2.6410
8.4444 1.2175 2.6406
7.8987 3.1955 2.6389
7.2980 5.2729 2.7908
2.9188 3.4384 1.3994
2.0214 4.0540 1.4069
1.6114 7.1649 2.2833
-0.1804 8.9654 2.7908
-2.3160 8.6547 2.7908
-4.0789 7.4160 2.6384
-5.7304 6.2225 2.6384
-7.4568 4.9405 2.7908
-8.4212 3.0144 2.7908
-8.8994 0.9139 2.7908
-8.8637 -1.2406 2.7908
-8.3155 -3.3256 2.7908
-7.2856 -5.2212 2.7908
-5.5136 -6.4455 2.6384
-3.8173 -7.5843 2.6384
-1.7249 -7.5364 2.3999
0.1466 -8.9985 2.7908
1.9854 -7.5376 2.4150
4.3123 -7.9162 2.7908
6.0819 -6.6604 2.7908
7.0926 -4.7440 2.6394
8.0229 -2.9132 2.6401
8.4880 -0.9124 2.6410
8.4554 1.1411 2.6407
7.9278 3.1241 2.6390
7.3104 5.1821 2.7774
2.9492 3.4112 1.3990
2.0577 4.0350 1.4067
1.6099 6.8672 2.1929
-0.0992 8.9670 2.7908
-2.2377 8.6755 2.7908
-4.0117 7.4528 2.6384
-5.6739 6.2742 2.6384
-7.4118 5.0079 2.7908
-8.3936 3.0905 2.7908
-8.8906 0.9945 2.7908
-8.8744 -1.1603 2.7908
-8.3451 -3.2501 2.7908
-7.3323 -5.1549 2.7908
-5.5715 -6.3951 2.6384
-3.8857 -7.5491 2.6384
-1.7967 -7.5361 2.4050
0.0651 -8.9991 2.7908
1.9126 -7.5372 2.4093
4.2405 -7.9546 2.7908
6.0214 -6.7149 2.7908
7.0792 -4.8283 2.6506
7.9960 -2.9856 2.6400
8.4795 -0.9892 2.6410
8.4657 1.0646 2.6407
7.9562 3.0524 2.6391
7.3111 5.0837 2.7600
2.9793 3.3837 1.3987
2.0939 4.0157 1.4065
1.5748 6.4543 2.0655
-0.0181 8.9679 2.7908
-2.1591 8.6960 2.7908
-3.9442 7.4890 2.6384
-5.6170 6.3255 2.6384
-7.3663 5.0748 2.7908
-8.3652 3.1664 2.7908
-8.8812 1.0749 2.7908
-8.8843 -1.0799 2.7908
-8.3739 -3.1743 2.7908
-7.3784 -5.0881 2.7908
-4.9532 -5.5826 2.3217
-3.9537 -7.5133 2.6384
-1.8689 -7.5358 2.4103
-0.0147 -8.1860 2.5387
1.8402 -7.5368 2.4038
4.1683 -7.9925 2.7908
5.9603 -6.7690 2.7908
7.0719 -4.9176 2.6645
7.9685 -3.0577 2.6399
8.4702 -1.0658 2.6410
8.4752 0.9880 2.6407
7.9840 2.9805 2.6392
7.3117 4.9866 2.7430
3.0092 3.3559 1.3983
2.1298 3.9960 1.4062
1.6072 6.3372 2.0325
0.0631 8.9680 2.7908
-2.0804 8.7152 2.7908
-3.8763 7.5246 2.6384
-5.5596 6.3762 2.6384
-7.3201 5.1414 2.7908
-8.3362 3.2420 2.7908
-8.8710 1.1552 2.7908
-8.8935 -0.9994 2.7908
-8.4021 -3.0983 2.7908
-7.4239 -5.0210 2.7908
-5.0277 -5.5642 2.3330
-4.0212 -7.4770 2.6384
-1.9412 -7.5355 2.4158
-0.0877 -8.0884 2.5087
1.7680 -7.5363 2.3986
4.0957 -8.0296 2.7908
5.8988 -6.8226 2.7908
7.0667 -5.0095 2.6795
7.9403 -3.1296 2.6399
8.4603 -1.1424 2.6410
8.4841 0.9113 2.6408
8.0111 2.9083 2.6392
7.3123 4.8906 2.7264
3.0388 3.3278 1.3980
2.1656 3.9761 1.4060
1.6060 6.1002 1.9610
0.1443 8.9674 2.7908
-2.0015 8.7339 2.7908
-3.8081 7.5595 2.6384
-5.5017 6.4263 2.6384
-7.2733 5.2076 2.7908
-8.3065 3.3173 2.7908
-8.8601 1.2355 2.7908
-8.9021 -0.9188 2.7908
-8.4296 -3.0220 2.7908
-7.4687 -4.9535 2.7908
-5.7423 -6.2408 2.6384
-4.0886 -7.4400 2.6384
-2.0141 -7.5352 2.4215
-0.1599 -8.0390 2.4938
1.6961 -7.5359 2.3935
4.0228 -8.0662 2.7908
5.8367 -6.8755 2.7908
7.0615 -5.1024 2.6949
7.9115 -3.2012 2.6398
8.4496 -1.2189 2.6410
8.4923 0.8345 2.6408
8.0375 2.8359 2.6393
7.3129 4.7958 2.7103
3.0681 3.2995 1.3977
2.2012 3.9558 1.4057
1.6049 5.8793 1.8945
0.2254 8.9660 2.7908
-1.9224 8.7520 2.7908
-3.7396 7.5939 2.6384
-5.4434 6.4760 2.6384
-7.2259 5.2731 2.7908
-8.2761 3.3924 2.7908
-8.8484 1.3155 2.7908
-8.9098 -0.8383 2.7908
-8.4563 -2.9457 2.7908
-7.5130 -4.8855 2.7908
-5.7984 -6.1884 2.6384
-4.1556 -7.4024 2.6384
-2.0872 -7.5349 2.4275
-0.2320 -8.0126 2.4862
1.6245 -7.5355 2.3887
3.9495 -8.1020 2.7908
5.7741 -6.9279 2.7908
7.0561 -5.1963 2.7108
7.6145 -3.1615 2.5501
8.4383 -1.2953 2.6409
8.4997 0.7577 2.6408
8.0633 2.7632 2.6394
7.3134 4.7021 2.6945
3.0972 3.2709 1.3973
2.2366 3.9351 1.4055
1.6038 5.6729 1.8325
0.3066 8.9640 2.7908
-1.8431 8.7693 2.7908
-3.6708 7.6277 2.6384
-5.3846 6.5251 2.6384
-7.1780 5.3382 2.7908
-8.2451 3.4670 2.7908
-8.8361 1.3956 2.7908
-8.9169 -0.7576 2.7908
-8.4824 -2.8689 2.7908
-7.5567 -4.8172 2.7908
-5.8539 -6.1354 2.6384
-4.2222 -7.3642 2.6384
-2.1607 -7.5346 2.4337
-0.2867 -7.5430 2.3413
1.5532 -7.5351 2.3841
3.8760 -8.1372 2.7908
5.7111 -6.9798 2.7908
7.0507 -5.2914 2.7270
7.6173 -3.2438 2.5608
8.4262 -1.3716 2.6409
8.5065 0.6808 2.6409
8.0884 2.6903 2.6395
7.3139 4.6094 2.6791
3.1260 3.2420 1.3969
2.2718 3.9141 1.4052
1.6028 5.4795 1.7746
0.3877 8.9611 2.7908
-1.7637 8.7859 2.7908
-3.6018 7.6607 2.6384
-5.3255 6.5736 2.6384
-7.1295 5.4030 2.7908
-8.2134 3.5415 2.7908
-8.8230 1.4755 2.7908
-8.9232 -0.6768 2.7908
-8.5078 -2.7919 2.7908
-7.5997 -4.7484 2.7908
-5.9090 -6.0819 2.6384
-4.2886 -7.3254 2.6384
-2.2346 -7.5343 2.4401
-0.3551 -7.5426 2.3422
1.4821 -7.5346 2.3797
3.8021 -8.1717 2.7908
5.6476 -7.0310 2.7908
7.0451 -5.3875 2.7436
7.8211 -3.4145 2.6396
8.4135 -1.4478 2.6409
8.5125 0.6038 2.6409
8.1129 2.6171 2.6395
7.3143 4.5177 2.6641
3.1545 3.2129 1.3966
2.3068 3.8928 1.4050
1.6019 5.2979 1.7203
0.4687 8.9576 2.7908
-1.6843 8.8018 2.7908
-3.5324 7.6932 2.6384
-5.2659 6.6217 2.6384
-7.0803 5.4674 2.7908
-8.1810 3.6157 2.7908
-8.8092 1.5553 2.7908
-8.9288 -0.5960 2.7908
-8.5325 -2.7147 2.7908
-7.6422 -4.6793 2.7908
-5.9636 -6.0280 2.6384
-4.3545 -7.2860 2.6384
-2.6336 -8.5933 2.7908
-0.4235 -7.5423 2.3433
1.4114 -7.5342 2.3755
3.7279 -8.2056 2.7908
5.5837 -7.0817 2.7908
7.0395 -5.4848 2.7606
7.7896 -3.4850 2.6395
8.4000 -1.5239 2.6409
8.5179 0.5268 2.6409
8.1367 2.5437 2.6396
7.3172 4.4286 2.6504
3.1827 3.1835 1.3962
2.3415 3.8713 1.4047
1.6011 5.1274 1.6695
0.5498 8.9533 2.7908
-1.6046 8.8169 2.7908
-3.4627 7.7251 2.6384
-5.2058 6.6692 2.6384
-7.0306 5.5314 2.7908
-8.1479 3.6897 2.7908
-8.7947 1.6350 2.7908
-8.9337 -0.5151 2.7908
-8.5565 -2.6373 2.7908
-7.6840 -4.6097 2.7908
-6.0177 -5.9735 2.6384
-4.4201 -7.2460 2.6384
