ply
format ascii 1.0
element vertex 2175
property float32 x
property float32 y
property float32 z
end_header
-0.9503 2.9017 1.1509
-3.0885 4.9310 2.0889
-4.4123 4.2754 2.0889
-5.6165 3.2871 2.0889
-7.0855 2.1188 2.2413
-7.7939 0.4108 2.2413
-8.0368 -1.4999 2.2413
-7.7295 -3.4622 2.2413
-6.3817 -4.9265 2.0889
-5.0769 -6.3139 2.0889
-3.6675 -7.7696 2.2413
-1.6989 -8.1862 2.2413
0.2585 -8.0263 2.2413
1.4558 -5.2678 1.6035
2.7856 -5.0042 1.7767
4.6343 -5.0013 2.2413
5.3796 -3.5457 2.2413
5.7631 -2.0422 2.2413
5.8138 -0.5647 2.2413
5.5669 0.8319 2.2413
5.0581 2.1073 2.2413
4.3202 3.2304 2.2413
3.3833 4.1750 2.2413
2.2752 4.9168 2.2413
1.0240 5.4303 2.2413
-0.1741 2.9174 1.1496
-0.9127 2.9063 1.1508
-3.0207 4.9552 2.0889
-4.3482 4.3161 2.0889
-5.5606 3.3444 2.0889
-7.0399 2.1969 2.2413
-7.7686 0.5020 2.2413
-8.0372 -1.4017 2.2413
-7.7586 -3.3657 2.2413
-6.4350 -4.8475 2.0889
-5.1519 -6.2545 2.0889
-3.7627 -7.7332 2.2413
-1.7987 -8.1794 2.2413
0.1637 -8.0470 2.2413
1.3994 -5.3088 1.6065
2.7030 -4.9952 1.7569
4.5872 -5.0712 2.2413
5.3512 -3.6203 2.2413
5.7521 -2.1173 2.2413
5.8186 -0.6371 2.2413
5.5858 0.7646 2.2413
5.0892 2.0469 2.2413
4.3621 3.1782 2.2413
3.4344 4.1324 2.2413
2.3343 4.8849 2.2413
1.0895 5.4104 2.2413
-0.1381 2.9140 1.1495
-0.8752 2.9106 1.1508
-2.9528 4.9786 2.0889
-4.2838 4.3559 2.0889
-5.5042 3.4008 2.0889
-6.9934 2.2743 2.2413
-7.7422 0.5927 2.2413
-8.0363 -1.3036 2.2413
-7.7863 -3.2689 2.2413
-6.4871 -4.7677 2.0889
-5.2260 -6.1939 2.0889
-3.8574 -7.6954 2.2413
-1.8984 -8.1712 2.2413
0.0685 -8.0665 2.2413
1.3472 -5.3690 1.6154
2.6217 -4.9863 1.7377
4.5392 -5.1407 2.2413
5.3218 -3.6948 2.2413
5.7403 -2.1924 2.2413
5.8227 -0.7096 2.2413
5.6040 0.6971 2.2413
5.1198 1.9862 2.2413
4.4035 3.1257 2.2413
3.4851 4.0893 2.2413
2.3930 4.8524 2.2413
1.1547 5.3899 2.2413
-0.1021 2.9103 1.1495
-0.8377 2.9145 1.1507
-2.8848 5.0012 2.0889
-4.2192 4.3949 2.0889
-5.4472 3.4565 2.0889
-6.9461 2.3508 2.2413
-7.7147 0.6829 2.2413
-8.0339 -1.2058 2.2413
-7.8125 -3.1718 2.2413
-6.5380 -4.6872 2.0889
-5.2991 -6.1322 2.0889
-3.9515 -7.6561 2.2413
-1.9982 -8.1615 2.2413
-0.0272 -8.0847 2.2413
1.3033 -5.4684 1.6362
2.5418 -4.9776 1.7190
4.4902 -5.2098 2.2413
5.2915 -3.7691 2.2413
5.7276 -2.2676 2.2413
5.8260 -0.7823 2.2413
5.6215 0.6293 2.2413
5.1498 1.9250 2.2413
4.4443 3.0727 2.2413
3.5354 4.0457 2.2413
2.4513 4.8194 2.2413
1.2196 5.3688 2.2413
-0.0663 2.9061 1.1494
-0.8003 2.9179 1.1506
-2.8168 5.0230 2.0889
-4.1543 4.4330 2.0889
-5.3897 3.5113 2.0889
-6.8979 2.4266 2.2413
-7.6860 0.7725 2.2413
-8.0302 -1.1080 2.2413
-7.8373 -3.0744 2.2413
-6.5876 -4.6059 2.0889
-5.3712 -6.0694 2.0889
-4.0452 -7.6154 2.2413
-2.0979 -8.1503 2.2413
-0.1233 -8.1017 2.2413
1.4402 -6.3779 1.8982
2.4631 -4.9691 1.7009
4.4402 -5.2785 2.2413
5.2602 -3.8434 2.2413
5.7141 -2.3429 2.2413
5.8286 -0.8553 2.2413
5.6384 0.5612 2.2413
5.1792 1.8635 2.2413
4.4846 3.0192 2.2413
3.5853 4.0015 2.2413
2.5092 4.7858 2.2413
1.2843 5.3471 2.2413
-0.0305 2.9017 1.1494
-0.7629 2.9210 1.1506
-2.7487 5.0440 2.0889
-4.0891 4.4703 2.0889
-5.3318 3.5653 2.0889
-6.8489 2.5016 2.2413
-7.6562 0.8615 2.2413
-8.0252 -1.0106 2.2413
-7.8606 -2.9768 2.2413
-6.6360 -4.5240 2.0889
-5.4424 -6.0055 2.0889
-4.1382 -7.5732 2.2413
-2.1975 -8.1376 2.2413
-0.2197 -8.1173 2.2413
1.4137 -6.6261 1.9618
2.3856 -4.9606 1.6834
4.3894 -5.3469 2.2413
5.2281 -3.9175 2.2413
5.6997 -2.4181 2.2413
5.8304 -0.9284 2.2413
5.6546 0.4927 2.2413
5.2080 1.8016 2.2413
4.5245 2.9654 2.2413
3.6347 3.9569 2.2413
2.5668 4.7517 2.2413
1.3486 5.3247 2.2413
0.0051 2.8968 1.1493
-0.7256 2.9237 1.1505
-2.6805 5.0642 2.0889
-4.0237 4.5068 2.0889
-5.2733 3.6185 2.0889
-6.7991 2.5758 2.2413
-7.6253 0.9499 2.2413
-8.0188 -0.9134 2.2413
-7.8824 -2.8789 2.2413
-6.6830 -4.4414 2.0889
-5.5126 -5.9404 2.0889
-4.2306 -7.5296 2.2413
-2.2971 -8.1235 2.2413
-0.3166 -8.1315 2.2413
1.5290 -7.6086 2.2413
2.3093 -4.9523 1.6664
4.3376 -5.4147 2.2413
5.1950 -3.9913 2.2413
5.6845 -2.4934 2.2413
5.8314 -1.0017 2.2413
5.6701 0.4240 2.2413
5.2362 1.7394 2.2413
4.5638 2.9111 2.2413
3.6836 3.9118 2.2413
2.6240 4.7170 2.2413
1.4126 5.3018 2.2413
0.0406 2.8916 1.1493
-0.6883 2.9259 1.1504
-2.6234 5.1051 2.0977
-3.9581 4.5424 2.0889
-5.2144 3.6709 2.0889
-6.2897 2.4690 2.0889
-7.5934 1.0377 2.2413
-8.0110 -0.8166 2.2413
-7.9028 -2.7809 2.2413
-6.7288 -4.3581 2.0889
-5.5819 -5.8743 2.0889
-4.3223 -7.4847 2.2413
-2.3965 -8.1078 2.2413
-0.4137 -8.1445 2.2413
1.4422 -7.6458 2.2413
2.2342 -4.9442 1.6499
4.2848 -5.4822 2.2413
5.1611 -4.0650 2.2413
5.6684 -2.5688 2.2413
5.8317 -1.0751 2.2413
5.6849 0.3551 2.2413
5.2639 1.6768 2.2413
4.6026 2.8563 2.2413
3.7321 3.8663 2.2413
2.6808 4.6818 2.2413
1.4764 5.2782 2.2413
0.0760 2.8861 1.1492
-0.6511 2.9278 1.1504
-1.4027 2.8133 1.1517
-3.8922 4.5772 2.0889
-5.1550 3.7224 2.0889
-6.2418 2.5366 2.0889
-7.5603 1.1249 2.2413
-8.0019 -0.7198 2.2413
-7.9217 -2.6826 2.2413
-6.7733 -4.2743 2.0889
-5.6500 -5.8072 2.0889
-4.4135 -7.4382 2.2413
-2.4959 -8.0907 2.2413
-0.5111 -8.1560 2.2413
1.3548 -7.6820 2.2413
2.1600 -4.9361 1.6339
4.2311 -5.5493 2.2413
5.1262 -4.1385 2.2413
5.6515 -2.6441 2.2413
5.8312 -1.1487 2.2413
5.6991 0.2858 2.2413
5.2909 1.6139 2.2413
4.6409 2.8012 2.2413
3.7801 3.8201 2.2413
2.7372 4.6460 2.2413
1.5397 5.2540 2.2413
0.1113 2.8802 1.1492
-0.6139 2.9293 1.1503
-1.3649 2.8229 1.1517
-3.8262 4.6112 2.0889
-5.0953 3.7731 2.0889
-6.1933 2.6035 2.0889
-7.5262 1.2116 2.2413
-7.9916 -0.6236 2.2413
-7.9392 -2.5844 2.2413
-6.8165 -4.1897 2.0889
-5.7171 -5.7390 2.0889
-4.5039 -7.3904 2.2413
-2.5950 -8.0721 2.2413
-0.6090 -8.1662 2.2413
1.2667 -7.7171 2.2413
2.0870 -4.9281 1.6183
4.1765 -5.6158 2.2413
5.0903 -4.2118 2.2413
5.6337 -2.7195 2.2413
5.8299 -1.2224 2.2413
5.7125 0.2163 2.2413
5.3173 1.5505 2.2413
4.6786 2.7452 2.2413
3.8277 3.7736 2.2413
2.7932 4.6097 2.2413
1.6029 5.2291 2.2413
0.1465 2.8739 1.1491
-0.5769 2.9304 1.1503
-1.3272 2.8322 1.1516
-3.7599 4.6444 2.0889
-5.0351 3.8230 2.0889
-6.1440 2.6697 2.0889
-7.4911 1.2974 2.2413
-7.9799 -0.5275 2.2413
-7.9552 -2.4858 2.2413
-7.3587 -4.4041 2.2413
-5.7831 -5.6699 2.0889
-4.5937 -7.3411 2.2413
-2.6940 -8.0520 2.2413
-0.7070 -8.1751 2.2413
1.1780 -7.7510 2.2413
2.0148 -4.9203 1.6033
4.1208 -5.6819 2.2413
5.0536 -4.2849 2.2413
5.6150 -2.7948 2.2413
5.8279 -1.2964 2.2413
5.7253 0.1465 2.2413
5.3431 1.4869 2.2413
4.7158 2.6896 2.2413
3.8749 3.7266 2.2413
2.8489 4.5728 2.2413
1.6656 5.2037 2.2413
0.1815 2.8673 1.1490
-0.5399 2.9311 1.1502
-1.2894 2.8410 1.1515
-3.6935 4.6767 2.0889
-4.9745 3.8719 2.0889
-6.0941 2.7349 2.0889
-7.4549 1.3828 2.2413
-7.9669 -0.4319 2.2413
-7.9698 -2.3873 2.2413
-7.4022 -4.3122 2.2413
-5.8481 -5.5996 2.0889
-4.6827 -7.2906 2.2413
-2.7927 -8.0305 2.2413
-0.8054 -8.1825 2.2413
1.0886 -7.7838 2.2413
1.9437 -4.9126 1.5886
4.0644 -5.7474 2.2413
5.0159 -4.3578 2.2413
5.5955 -2.8701 2.2413
5.8250 -1.3704 2.2413
5.7373 0.0765 2.2413
5.3683 1.4229 2.2413
4.7525 2.6332 2.2413
3.9215 3.6791 2.2413
2.9042 4.5354 2.2413
1.7281 5.1777 2.2413
0.2165 2.8604 1.1490
-0.5029 2.9315 1.1501
-1.2517 2.8494 1.1515
-3.6269 4.7082 2.0889
-4.9134 3.9202 2.0889
-6.0435 2.7994 2.0889
-7.4177 1.4673 2.2413
-7.9527 -0.3365 2.2413
-7.9830 -2.2886 2.2413
-7.4443 -4.2198 2.2413
-5.9119 -5.5285 2.0889
-4.7710 -7.2385 2.2413
-2.8912 -8.0074 2.2413
-0.9039 -8.1886 2.2413
0.9986 -7.8155 2.2413
1.8734 -4.9049 1.5745
3.5037 -5.0826 1.9599
4.9773 -4.4303 2.2413
5.5751 -2.9454 2.2413
5.8214 -1.4446 2.2413
5.7487 0.0061 2.2413
5.3929 1.3586 2.2413
4.7887 2.5764 2.2413
3.9677 3.6311 2.2413
2.9591 4.4975 2.2413
1.7902 5.1511 2.2413
0.2512 2.8531 1.1489
-0.4661 2.9314 1.1501
-1.2140 2.8574 1.1514
-3.5601 4.7389 2.0889
-4.8521 3.9675 2.0889
-5.9923 2.8632 2.0889
-7.3795 1.5513 2.2413
-7.9371 -0.2417 2.2413
-7.9947 -2.1900 2.2413
-7.4850 -4.1267 2.2413
-5.9748 -5.4564 2.0889
-4.5281 -6.6966 2.0889
-2.9894 -7.9829 2.2413
-1.0028 -8.1933 2.2413
0.9080 -7.8461 2.2413
1.8040 -4.8974 1.5607
3.4078 -5.0721 1.9344
4.9377 -4.5028 2.2413
5.5537 -3.0207 2.2413
5.8169 -1.5189 2.2413
5.7594 -0.0643 2.2413
5.4169 1.2939 2.2413
4.8243 2.5191 2.2413
4.0134 3.5826 2.2413
3.0135 4.4590 2.2413
1.8520 5.1238 2.2413
0.2859 2.8455 1.1489
-0.4292 2.9310 1.1500
-1.1763 2.8650 1.1513
-3.4931 4.7688 2.0889
-4.7902 4.0140 2.0889
-5.9404 2.9261 2.0889
-7.3404 1.6345 2.2413
-7.9203 -0.1471 2.2413
-8.0049 -2.0913 2.2413
-7.5243 -4.0331 2.2413
-6.0363 -5.3834 2.0889
-4.6089 -6.6456 2.0889
-3.0874 -7.9568 2.2413
-1.1019 -8.1966 2.2413
0.8169 -7.8754 2.2413
1.7354 -4.8900 1.5474
3.3137 -5.0618 1.9096
4.8971 -4.5749 2.2413
5.5316 -3.0958 2.2413
5.8117 -1.5934 2.2413
5.7693 -0.1352 2.2413
5.4402 1.2288 2.2413
4.8593 2.4615 2.2413
4.0587 3.5337 2.2413
3.0676 4.4200 2.2413
1.9136 5.0960 2.2413
0.3204 2.8375 1.1488
-0.3926 2.9302 1.1499
-1.1385 2.8721 1.1512
-3.4260 4.7978 2.0889
-4.7281 4.0596 2.0889
-5.8879 2.9883 2.0889
-7.3002 1.7170 2.2413
-7.9023 -0.0529 2.2413
-8.0138 -1.9927 2.2413
-7.5621 -3.9391 2.2413
-6.0969 -5.3094 2.0889
-4.6890 -6.5934 2.0889
-3.1850 -7.9294 2.2413
-1.2010 -8.1984 2.2413
0.7251 -7.9036 2.2413
1.6676 -4.8826 1.5344
3.2215 -5.0518 1.8857
4.8557 -4.6467 2.2413
5.5085 -3.1710 2.2413
5.8056 -1.6680 2.2413
5.7785 -0.2061 2.2413
5.4629 1.1635 2.2413
4.8939 2.4035 2.2413
4.1035 3.4842 2.2413
3.1212 4.3805 2.2413
1.9747 5.0676 2.2413
0.3548 2.8292 1.1488
-0.3559 2.9290 1.1499
-1.1009 2.8789 1.1512
-3.3588 4.8261 2.0889
-4.6656 4.1045 2.0889
-5.8348 3.0497 2.0889
-7.2592 1.7988 2.2413
-7.8830 0.0407 2.2413
-8.0212 -1.8939 2.2413
-7.5985 -3.8445 2.2413
-6.1561 -5.2346 2.0889
-4.7682 -6.5399 2.0889
-3.2823 -7.9003 2.2413
-1.3004 -8.1989 2.2413
0.6329 -7.9306 2.2413
1.6006 -4.8753 1.5219
3.1310 -5.0419 1.8625
4.8133 -4.7182 2.2413
5.4845 -3.2461 2.2413
5.7987 -1.7426 2.2413
5.7870 -0.2774 2.2413
5.4850 1.0978 2.2413
4.9278 2.3451 2.2413
4.1478 3.4344 2.2413
3.1745 4.3404 2.2413
2.0355 5.0386 2.2413
0.7591 5.5032 2.2413
-0.3194 2.9274 1.1498
-1.0632 2.8852 1.1511
-3.2914 4.8535 2.0889
-4.6028 4.1484 2.0889
-5.7811 3.1102 2.0889
-7.2171 1.8799 2.2413
-7.8626 0.1340 2.2413
-8.0272 -1.7954 2.2413
-7.6334 -3.7496 2.2413
-6.2144 -5.1588 2.0889
-4.8467 -6.4852 2.0889
-3.3792 -7.8699 2.2413
-1.3998 -8.1979 2.2413
0.5400 -7.9564 2.2413
1.5844 -5.0270 1.5589
3.0424 -5.0322 1.8401
4.7700 -4.7894 2.2413
5.4596 -3.3211 2.2413
5.7911 -1.8174 2.2413
5.7948 -0.3489 2.2413
5.5065 1.0318 2.2413
4.9612 2.2862 2.2413
4.1917 3.3841 2.2413
3.2273 4.2999 2.2413
2.0959 5.0090 2.2413
0.8257 5.4859 2.2413
-0.2829 2.9255 1.1498
-1.0255 2.8911 1.1510
-3.2239 4.8801 2.0889
-4.5396 4.1916 2.0889
-5.7268 3.1700 2.0889
-7.1742 1.9602 2.2413
-7.8409 0.2266 2.2413
-8.0318 -1.6967 2.2413
-7.6669 -3.6542 2.2413
-4.8626 -3.9407 1.6196
-4.9242 -6.4294 2.0889
-3.4757 -7.8379 2.2413
-1.4995 -8.1954 2.2413
0.4467 -7.9809 2.2413
1.5673 -5.1870 1.5984
2.9552 -5.0227 1.8183
4.7257 -4.8604 2.2413
5.4339 -3.3960 2.2413
5.7826 -1.8922 2.2413
5.8019 -0.4206 2.2413
5.5273 0.9655 2.2413
4.9941 2.2270 2.2413
4.2350 3.3333 2.2413
3.2797 4.2588 2.2413
2.1560 4.9788 2.2413
0.8920 5.4680 2.2413
-0.2466 2.9232 1.1497
-0.9879 2.8966 1.1510
-3.1563 4.9059 2.0889
-4.4762 4.2339 2.0889
-5.6720 3.2289 2.0889
-7.1303 2.0399 2.2413
-7.8180 0.3190 2.2413
-8.0350 -1.5983 2.2413
-7.6989 -3.5585 2.2413
-4.8905 -3.8685 1.6146
-5.0010 -6.3723 2.0889
-3.5718 -7.8045 2.2413
-1.5991 -8.1916 2.2413
0.3528 -8.0042 2.2413
1.5157 -5.2408 1.6049
2.8697 -5.0134 1.7972
4.6805 -4.9309 2.2413
5.4072 -3.4709 2.2413
5.7732 -1.9672 2.2413
5.8082 -0.4925 2.2413
5.5474 0.8989 2.2413
5.0264 2.1674 2.2413
4.2779 3.2821 2.2413
3.3317 4.2172 2.2413
2.2158 4.9481 2.2413
0.9581 5.4495 2.2413
-0.2103 2.9205 1.1497
-0.9503 2.9016 1.1509
-3.0886 4.9309 2.0889
-4.4123 4.2754 2.0889
-5.6166 3.2870 2.0889
-7.0856 2.1187 2.2413
-7.7939 0.4107 2.2413
-8.0368 -1.4999 2.2413
-7.7295 -3.4622 2.2413
-6.3816 -4.9266 2.0889
-5.0768 -6.3140 2.0889
-3.6675 -7.7696 2.2413
-1.6988 -8.1862 2.2413
0.2586 -8.0262 2.2413
1.4559 -5.2678 1.6035
2.7856 -5.0042 1.7768
4.6343 -5.0012 2.2413
5.3797 -3.5456 2.2413
5.7631 -2.0421 2.2413
5.8138 -0.5647 2.2413
5.5669 0.8319 2.2413
5.0581 2.1074 2.2413
4.3202 3.2304 2.2413
3.3833 4.1751 2.2413
2.2752 4.9168 2.2413
1.0239 5.4303 2.2413
-0.1742 2.9174 1.1496
-0.9127 2.9063 1.1508
-3.0207 4.9552 2.0889
-4.3483 4.3160 2.0889
-5.5607 3.3443 2.0889
-7.0399 2.1969 2.2413
-7.7686 0.5020 2.2413
-8.0372 -1.4018 2.2413
-7.7586 -3.3658 2.2413
-6.4350 -4.8476 2.0889
-5.1518 -6.2546 2.0889
-3.7626 -7.7333 2.2413
-1.7985 -8.1794 2.2413
0.1638 -8.0470 2.2413
1.3994 -5.3088 1.6065
2.7031 -4.9952 1.7569
4.5873 -5.0710 2.2413
5.3512 -3.6202 2.2413
5.7521 -2.1172 2.2413
5.8186 -0.6370 2.2413
5.5858 0.7647 2.2413
5.0892 2.0470 2.2413
4.3621 3.1783 2.2413
3.4344 4.1325 2.2413
2.3342 4.8849 2.2413
1.0894 5.4104 2.2413
-0.1381 2.9140 1.1495
-0.8753 2.9106 1.1508
-2.9529 4.9785 2.0889
-4.2839 4.3559 2.0889
-5.5042 3.4008 2.0889
-6.9935 2.2742 2.2413
-7.7423 0.5926 2.2413
-8.0363 -1.3037 2.2413
-7.7863 -3.2689 2.2413
-6.4871 -4.7679 2.0889
-5.2259 -6.1940 2.0889
-3.8573 -7.6954 2.2413
-1.8983 -8.1712 2.2413
0.0686 -8.0665 2.2413
1.3473 -5.3689 1.6154
2.6218 -4.9864 1.7377
4.5392 -5.1406 2.2413
5.3218 -3.6947 2.2413
5.7403 -2.1923 2.2413
5.8227 -0.7096 2.2413
5.6040 0.6972 2.2413
5.1198 1.9863 2.2413
4.4034 3.1258 2.2413
3.4851 4.0893 2.2413
2.3929 4.8524 2.2413
1.1546 5.3900 2.2413
-0.1022 2.9103 1.1495
-0.8378 2.9145 1.1507
-2.8849 5.0012 2.0889
-4.2193 4.3948 2.0889
-5.4473 3.4564 2.0889
-6.9461 2.3508 2.2413
-7.7147 0.6828 2.2413
-8.0339 -1.2059 2.2413
-7.8125 -3.1719 2.2413
-6.5380 -4.6873 2.0889
-5.2990 -6.1323 2.0889
-3.9514 -7.6562 2.2413
-1.9980 -8.1615 2.2413
-0.0271 -8.0847 2.2413
1.3033 -5.4683 1.6362
2.5419 -4.9776 1.7191
4.4902 -5.2097 2.2413
5.2915 -3.7691 2.2413
5.7276 -2.2676 2.2413
5.8260 -0.7822 2.2413
5.6215 0.6294 2.2413
5.1498 1.9251 2.2413
4.4443 3.0727 2.2413
3.5354 4.0457 2.2413
2.4512 4.8195 2.2413
1.2195 5.3689 2.2413
-0.0663 2.9061 1.1494
-0.8003 2.9179 1.1506
-2.8169 5.0230 2.0889
-4.1543 4.4330 2.0889
-5.3898 3.5113 2.0889
-6.8979 2.4266 2.2413
-7.6860 0.7724 2.2413
-8.0302 -1.1082 2.2413
-7.8373 -3.0745 2.2413
-6.5876 -4.6060 2.0889
-5.3711 -6.0695 2.0889
-4.0450 -7.6154 2.2413
-2.0978 -8.1503 2.2413
-0.1220 -7.4456 2.2413
1.2301 -5.4847 1.7697
2.4529 -4.9693 1.8368
4.1141 -4.9086 2.2413
4.8932 -3.5889 2.2413
5.3333 -2.1975 2.2413
5.4551 -0.8091 2.2413
5.2882 0.5196 2.2413
4.8645 1.7453 2.2413
4.2152 2.8349 2.2413
3.3697 3.7608 2.2413
2.3558 4.4980 2.2413
1.2016 5.0218 2.2413
-0.0320 2.7216 1.1495
-0.7184 2.7338 1.1507
-1.4204 2.5960 1.1520
-3.8167 4.1576 2.0889
-4.9571 3.3022 2.0889
-5.9109 2.1479 2.0889
-7.0616 0.7843 2.2413
-7.3752 -0.9374 2.2413
-7.2029 -2.7344 2.2413
-6.0697 -4.1417 2.0889
-4.9759 -5.4908 2.0889
-3.7885 -6.9266 2.2413
-2.0198 -7.4559 2.2413
-0.2105 -7.4587 2.2413
1.4789 -6.9812 2.2413
2.3756 -4.9609 1.8182
4.0661 -4.9711 2.2413
4.8625 -3.6572 2.2413
5.3191 -2.2676 2.2413
5.4561 -0.8775 2.2413
5.3029 0.4553 2.2413
4.8913 1.6870 2.2413
4.2526 2.7841 2.2413
3.4162 3.7188 2.2413
2.4101 4.4660 2.2413
1.2621 5.0010 2.2413
0.0015 2.7173 1.1495
-0.6835 2.7367 1.1506
-1.3853 2.6066 1.1519
-3.7564 4.1923 2.0889
-4.9038 3.3522 2.0889
-5.8691 2.2123 2.0889
-7.0345 0.8659 2.2413
-7.3705 -0.8483 2.2413
-7.2238 -2.6452 2.2413
-6.1131 -4.0665 2.0889
-5.0400 -5.4315 2.0889
-3.8727 -6.8864 2.2413
-2.1107 -7.4421 2.2413
-0.2993 -7.4705 2.2413
1.3994 -7.0152 2.2413
2.2995 -4.9526 1.8002
4.0172 -5.0332 2.2413
4.8308 -3.7254 2.2413
5.3041 -2.3376 2.2413
5.4565 -0.9460 2.2413
5.3170 0.3907 2.2413
4.9175 1.6284 2.2413
4.2895 2.7329 2.2413
3.4623 3.6763 2.2413
2.4640 4.4335 2.2413
1.3225 4.9797 2.2413
0.0349 2.7127 1.1494
-0.6487 2.7391 1.1506
-1.3503 2.6169 1.1519
-3.6959 4.2262 2.0889
-4.8500 3.4015 2.0889
-5.8266 2.2760 2.0889
-7.0064 0.9471 2.2413
-7.3647 -0.7595 2.2413
-7.2434 -2.5558 2.2413
-6.1553 -3.9907 2.0889
-5.1032 -5.3712 2.0889
-3.9562 -6.8449 2.2413
-2.2014 -7.4269 2.2413
-0.3884 -7.4812 2.2413
1.3192 -7.0482 2.2413
2.2245 -4.9444 1.7828
3.9675 -5.0949 2.2413
4.7983 -3.7934 2.2413
5.2882 -2.4077 2.2413
5.4560 -1.0147 2.2413
5.3304 0.3259 2.2413
4.9432 1.5694 2.2413
4.3258 2.6813 2.2413
3.5079 3.6334 2.2413
2.5175 4.4004 2.2413
1.3825 4.9578 2.2413
0.0681 2.7077 1.1494
-0.6138 2.7412 1.1505
-1.3152 2.6268 1.1518
-3.6351 4.2594 2.0889
-4.7957 3.4500 2.0889
-5.7834 2.3391 2.0889
-6.9772 1.0277 2.2413
-7.3576 -0.6708 2.2413
-7.2617 -2.4662 2.2413
-6.1965 -3.9144 2.0889
-5.1655 -5.3100 2.0889
-4.0392 -6.8021 2.2413
-2.2920 -7.4104 2.2413
-0.4778 -7.4906 2.2413
1.2384 -7.0802 2.2413
2.1506 -4.9364 1.7658
3.9169 -5.1561 2.2413
4.7650 -3.8612 2.2413
5.2716 -2.4777 2.2413
5.4549 -1.0836 2.2413
5.3431 0.2609 2.2413
4.9682 1.5101 2.2413
4.3617 2.6293 2.2413
3.5532 3.5900 2.2413
2.5707 4.3668 2.2413
1.4422 4.9353 2.2413
0.1013 2.7024 1.1493
-0.5791 2.7430 1.1504
-1.2801 2.6362 1.1517
-3.5741 4.2918 2.0889
-4.7410 3.4977 2.0889
-5.7396 2.4014 2.0889
-6.9471 1.1077 2.2413
-7.3493 -0.5824 2.2413
-7.2787 -2.3764 2.2413
-6.2364 -3.8375 2.0889
-5.2268 -5.2478 2.0889
-4.1216 -6.7581 2.2413
-2.3824 -7.3926 2.2413
-0.5674 -7.4988 2.2413
1.1571 -7.1112 2.2413
2.0776 -4.9284 1.7494
3.8654 -5.2168 2.2413
4.7308 -3.9288 2.2413
5.2542 -2.5477 2.2413
5.4530 -1.1525 2.2413
5.3552 0.1956 2.2413
4.9927 1.4505 2.2413
4.3970 2.5769 2.2413
3.5979 3.5461 2.2413
2.6235 4.3327 2.2413
1.5017 4.9122 2.2413
0.1344 2.6968 1.1493
-0.5444 2.7443 1.1504
-1.2450 2.6453 1.1516
-3.5129 4.3235 2.0889
-4.6859 3.5447 2.0889
-5.6951 2.4631 2.0889
-6.9160 1.1872 2.2413
-7.3398 -0.4943 2.2413
-7.2943 -2.2866 2.2413
-6.2752 -3.7600 2.0889
-5.2872 -5.1848 2.0889
-4.2034 -6.7128 2.2413
-2.4727 -7.3734 2.2413
-0.6573 -7.5058 2.2413
1.0752 -7.1411 2.2413
2.0057 -4.9206 1.7335
3.8131 -5.2771 2.2413
4.6957 -3.9962 2.2413
5.2359 -2.6176 2.2413
5.4503 -1.2216 2.2413
5.3667 0.1300 2.2413
5.0167 1.3905 2.2413
4.4319 2.5241 2.2413
3.6423 3.5018 2.2413
2.6760 4.2981 2.2413
1.5608 4.8886 2.2413
0.1673 2.6908 1.1492
-0.5097 2.7453 1.1503
-1.2098 2.6539 1.1516
-3.4514 4.3543 2.0889
-4.6304 3.5909 2.0889
-5.6500 2.5241 2.0889
-6.8840 1.2661 2.2413
-7.3292 -0.4064 2.2413
-7.3087 -2.1966 2.2413
-6.3128 -3.6821 2.0889
-5.3466 -5.1208 2.0889
-3.9931 -6.2130 2.0889
-2.5627 -7.3529 2.2413
-0.7473 -7.5115 2.2413
0.9928 -7.1700 2.2413
1.9347 -4.9129 1.7180
3.7600 -5.3369 2.2413
4.6598 -4.0633 2.2413
5.2168 -2.6876 2.2413
5.4469 -1.2908 2.2413
5.3775 0.0643 2.2413
5.0400 1.3303 2.2413
4.4662 2.4709 2.2413
3.6862 3.4570 2.2413
2.7281 4.2630 2.2413
1.6197 4.8643 2.2413
0.2002 2.6845 1.1492
-0.4751 2.7459 1.1503
-1.1747 2.6622 1.1515
-3.3898 4.3845 2.0889
-4.5745 3.6364 2.0889
-5.6042 2.5844 2.0889
-6.3852 1.2530 2.0889
-7.3174 -0.3189 2.2413
-7.3218 -2.1065 2.2413
-6.3492 -3.6036 2.0889
-5.4051 -5.0560 2.0889
-4.0681 -6.1685 2.0889
-2.6525 -7.3311 2.2413
-0.8376 -7.5159 2.2413
0.9098 -7.1979 2.2413
1.8646 -4.9053 1.7030
3.7060 -5.3962 2.2413
4.6230 -4.1301 2.2413
5.1969 -2.7574 2.2413
5.4428 -1.3601 2.2413
5.3876 -0.0017 2.2413
5.0627 1.2697 2.2413
4.5001 2.4173 2.2413
3.7296 3.4118 2.2413
2.7798 4.2273 2.2413
1.6782 4.8395 2.2413
0.2329 2.6779 1.1492
-0.4406 2.7462 1.1502
-1.1395 2.6700 1.1514
-3.3281 4.4138 2.0889
-4.5183 3.6811 2.0889
-5.5578 2.6439 2.0889
-6.3535 1.3254 2.0889
-7.3044 -0.2317 2.2413
-7.3335 -2.0164 2.2413
-6.3844 -3.5247 2.0889
-5.4625 -4.9903 2.0889
-4.1423 -6.1229 2.0889
-2.7421 -7.3079 2.2413
-0.9281 -7.5191 2.2413
0.8263 -7.2247 2.2413
1.7953 -4.8977 1.6885
3.6512 -5.4549 2.2413
4.5853 -4.1967 2.2413
5.1762 -2.8273 2.2413
5.4379 -1.4295 2.2413
5.3970 -0.0679 2.2413
5.0849 1.2088 2.2413
4.5334 2.3634 2.2413
3.7727 3.3661 2.2413
2.8311 4.1912 2.2413
1.7364 4.8141 2.2413
0.2655 2.6710 1.1491
-0.4061 2.7461 1.1501
-1.1044 2.6775 1.1514
-3.2661 4.4424 2.0889
-4.4616 3.7250 2.0889
-5.5108 2.7028 2.0889
-6.3211 1.3973 2.0889
-7.2903 -0.1448 2.2413
-7.3440 -1.9263 2.2413
-6.4185 -3.4453 2.0889
-5.5189 -4.9238 2.0889
-4.2159 -6.0761 2.0889
-2.8313 -7.2834 2.2413
-1.0187 -7.5210 2.2413
0.7424 -7.2504 2.2413
1.7269 -4.8903 1.6744
3.5955 -5.5132 2.2413
4.5468 -4.2630 2.2413
5.1547 -2.8970 2.2413
5.4323 -1.4990 2.2413
5.4057 -0.1343 2.2413
5.1064 1.1476 2.2413
4.5662 2.3090 2.2413
3.8152 3.3201 2.2413
2.8820 4.1545 2.2413
1.7944 4.7882 2.2413
0.2980 2.6637 1.1491
-0.3717 2.7456 1.1501
-1.0692 2.6845 1.1513
-3.2040 4.4702 2.0889
-4.4046 3.7682 2.0889
-5.4632 2.7609 2.0889
-6.2878 1.4686 2.0889
-7.2750 -0.0583 2.2413
-7.3532 -1.8361 2.2413
-6.4513 -3.3656 2.0889
-5.5743 -4.8565 2.0889
-4.2889 -6.0282 2.0889
-2.9203 -7.2576 2.2413
-1.1094 -7.5216 2.2413
0.6579 -7.2750 2.2413
1.6592 -4.8830 1.6607
3.2093 -5.0519 2.0325
4.5074 -4.3291 2.2413
5.1323 -2.9667 2.2413
5.4259 -1.5686 2.2413
5.4138 -0.2009 2.2413
5.1274 1.0861 2.2413
4.5984 2.2543 2.2413
3.8573 3.2734 2.2413
2.9326 4.1174 2.2413
1.8520 4.7616 2.2413
0.3303 2.6561 1.1490
-0.3373 2.7448 1.1500
-1.0340 2.6912 1.1513
-3.1417 4.4973 2.0889
-4.3472 3.8106 2.0889
-5.4150 2.8184 2.0889
-6.2536 1.5393 2.0889
-7.2586 0.0279 2.2413
-7.3611 -1.7459 2.2413
-6.4830 -3.2853 2.0889
-5.6287 -4.7883 2.0889
-4.3611 -5.9792 2.0889
-3.0089 -7.2304 2.2413
-1.2003 -7.5209 2.2413
0.5729 -7.2985 2.2413
1.5985 -4.8944 1.6538
3.1191 -5.0421 2.0079
4.4672 -4.3948 2.2413
5.1091 -3.0363 2.2413
5.4187 -1.6382 2.2413
5.4212 -0.2677 2.2413
5.1477 1.0243 2.2413
4.6301 2.1991 2.2413
3.8990 3.2264 2.2413
2.9828 4.0797 2.2413
1.9093 4.7345 2.2413
0.3626 2.6482 1.1490
-0.3031 2.7436 1.1500
-0.9989 2.6975 1.1512
-3.0793 4.5237 2.0889
-4.2895 3.8522 2.0889
-5.3663 2.8750 2.0889
-6.2187 1.6093 2.0889
-7.2410 0.1137 2.2413
-7.3677 -1.6557 2.2413
-6.5134 -3.2047 2.0889
-5.6820 -4.7194 2.0889
-4.4326 -5.9292 2.0889
-3.0972 -7.2019 2.2413
-1.2912 -7.5189 2.2413
0.4875 -7.3209 2.2413
1.5822 -5.0470 1.6946
3.0306 -5.0324 1.9841
4.4261 -4.4602 2.2413
5.0851 -3.1058 2.2413
5.4107 -1.7080 2.2413
5.4279 -0.3347 2.2413
5.1675 0.9622 2.2413
4.6613 2.1437 2.2413
3.9402 3.1790 2.2413
3.0325 4.0416 2.2413
1.9663 4.7069 2.2413
0.7699 5.1500 2.2413
-0.2689 2.7421 1.1499
-0.9638 2.7034 1.1511
-3.0167 4.5492 2.0889
-4.2315 3.8931 2.0889
-5.3170 2.9310 2.0889
-6.1829 1.6789 2.0889
-7.2224 0.1990 2.2413
-7.3731 -1.5656 2.2413
-6.5426 -3.1238 2.0889
-4.8639 -3.9439 1.7717
-4.5033 -5.8780 2.0889
-3.1851 -7.1721 2.2413
-1.3823 -7.5157 2.2413
0.4017 -7.3422 2.2413
1.5475 -5.1500 1.7185
2.9438 -5.0229 1.9611
4.3841 -4.5254 2.2413
5.0602 -3.1752 2.2413
5.4020 -1.7778 2.2413
5.4339 -0.4020 2.2413
5.1866 0.8998 2.2413
4.6920 2.0879 2.2413
3.9809 3.1311 2.2413
3.0819 4.0029 2.2413
2.0229 4.6787 2.2413
0.8323 5.1335 2.2413
-0.2348 2.7402 1.1499
-0.9286 2.7089 1.1511
-2.9540 4.5741 2.0889
-4.1731 3.9332 2.0889
-5.2671 2.9862 2.0889
-6.1463 1.7478 2.0889
-7.2026 0.2840 2.2413
-7.3771 -1.4756 2.2413
-6.5706 -3.0425 2.0889
-4.8883 -3.8691 1.7650
-4.5733 -5.8258 2.0889
-3.2727 -7.1409 2.2413
-1.4733 -7.5111 2.2413
0.3154 -7.3623 2.2413
1.4853 -5.1651 1.7132
2.8585 -5.0136 1.9387
4.3412 -4.5901 2.2413
5.0345 -3.2444 2.2413
5.3925 -1.8476 2.2413
5.4392 -0.4694 2.2413
5.2051 0.8371 2.2413
4.7221 2.0317 2.2413
4.0211 3.0828 2.2413
3.1309 3.9638 2.2413
2.0792 4.6499 2.2413
0.8945 5.1164 2.2413
-0.2008 2.7380 1.1498
-0.8936 2.7140 1.1510
-2.8912 4.5981 2.0889
-4.1144 3.9725 2.0889
-5.2167 3.0407 2.0889
-6.1090 1.8161 2.0889
-7.1818 0.3685 2.2413
-7.3799 -1.3856 2.2413
-6.5974 -2.9609 2.0889
-5.8356 -4.5080 2.0889
-4.6424 -5.7726 2.0889
-3.3598 -7.1085 2.2413
-1.5645 -7.5052 2.2413
0.2287 -7.3813 2.2413
1.4261 -5.1905 1.7116
2.7747 -5.0044 1.9171
4.2976 -4.6545 2.2413
5.0079 -3.3136 2.2413
5.3823 -1.9175 2.2413
5.4438 -0.5369 2.2413
5.2229 0.7742 2.2413
4.7517 1.9752 2.2413
4.0609 3.0341 2.2413
3.1795 3.9242 2.2413
2.1352 4.6206 2.2413
0.9564 5.0987 2.2413
-0.1668 2.7354 1.1498
-0.8585 2.7187 1.1509
-2.8283 4.6214 2.0889
-4.0555 4.0110 2.0889
-5.1658 3.0945 2.0889
-6.0709 1.8837 2.0889
-7.1599 0.4526 2.2413
-7.3815 -1.2957 2.2413
-6.6230 -2.8789 2.0889
-5.8846 -4.4361 2.0889
-4.7108 -5.7182 2.0889
-3.4465 -7.0747 2.2413
-1.6556 -7.4980 2.2413
0.1416 -7.3991 2.2413
1.3696 -5.2273 1.7139
2.6923 -4.9954 1.8961
4.2530 -4.7186 2.2413
4.9805 -3.3826 2.2413
5.3712 -1.9875 2.2413
5.4477 -0.6047 2.2413
5.2402 0.7109 2.2413
4.7807 1.9183 2.2413
4.1002 2.9849 2.2413
3.2276 3.8841 2.2413
2.1909 4.5908 2.2413
1.0181 5.0804 2.2413
-0.1330 2.7325 1.1497
-0.8234 2.7231 1.1509
-2.7653 4.6440 2.0889
-3.9962 4.0488 2.0889
-5.1144 3.1475 2.0889
-6.0320 1.9507 2.0889
-7.1369 0.5362 2.2413
-7.3818 -1.2059 2.2413
-6.6474 -2.7967 2.0889
-5.9325 -4.3635 2.0889
-4.7783 -5.6629 2.0889
-3.5327 -7.0397 2.2413
-1.7467 -7.4895 2.2413
0.0541 -7.4158 2.2413
1.3162 -5.2784 1.7212
2.6112 -4.9866 1.8757
4.2076 -4.7823 2.2413
4.9523 -3.4515 2.2413
5.3594 -2.0574 2.2413
5.4509 -0.6726 2.2413
5.2568 0.6474 2.2413
4.8092 1.8610 2.2413
4.1390 2.9354 2.2413
3.2754 3.8435 2.2413
2.2462 4.5604 2.2413
1.0795 5.0615 2.2413
-0.0992 2.7292 1.1497
-0.7884 2.7270 1.1508
-2.7021 4.6659 2.0889
-3.9367 4.0858 2.0889
-5.0625 3.1998 2.0889
-5.9924 2.0170 2.0889
-7.1129 0.6194 2.2413
-7.3808 -1.1163 2.2413
-6.6705 -2.7142 2.0889
-5.9793 -4.2902 2.0889
-4.8450 -5.6065 2.0889
-3.6184 -7.0033 2.2413
-1.8378 -7.4796 2.2413
-0.0337 -7.4313 2.2413
1.2672 -5.3516 1.7357
2.5315 -4.9779 1.8560
4.1613 -4.8456 2.2413
4.9232 -3.5202 2.2413
5.3467 -2.1274 2.2413
5.4534 -0.7407 2.2413
5.2728 0.5837 2.2413
4.8371 1.8034 2.2413
4.1773 2.8854 2.2413
3.3227 3.8024 2.2413
2.3011 4.5295 2.2413
1.1406 5.0419 2.2413
-0.0656 2.7256 1.1496
-0.7534 2.7306 1.1507
-2.6543 4.7142 2.1011
-3.8769 4.1221 2.0889
-5.0101 3.2513 2.0889
-5.9520 2.0828 2.0889
-7.0878 0.7020 2.2413
-7.3786 -1.0268 2.2413
-6.6924 -2.6315 2.0889
-6.0251 -4.2163 2.0889
-4.9109 -5.5492 2.0889
-3.7037 -6.9656 2.2413
-1.9288 -7.4684 2.2413
-0.1219 -7.4456 2.2413
1.2301 -5.4844 1.7696
2.4530 -4.9693 1.8368
4.1141 -4.9085 2.2413
4.8933 -3.5888 2.2413
5.3333 -2.1975 2.2413
5.4551 -0.8090 2.2413
5.2882 0.5196 2.2413
4.8645 1.7454 2.2413
4.2152 2.8350 2.2413
3.3697 3.7609 2.2413
2.3557 4.4980 2.2413
1.2015 5.0218 2.2413
-0.0320 2.7216 1.1495
-0.7185 2.7338 1.1507
-1.4204 2.5960 1.1520
-3.8168 4.1576 2.0889
-4.9572 3.3021 2.0889
-5.9109 2.1479 2.0889
-7.0617 0.7842 2.2413
-7.3752 -0.9375 2.2413
-7.2029 -2.7345 2.2413
-6.0696 -4.1417 2.0889
-4.9759 -5.4908 2.0889
-3.7884 -6.9266 2.2413
-2.0197 -7.4559 2.2413
-0.2104 -7.4587 2.2413
1.4790 -6.9812 2.2413
2.3757 -4.9609 1.8182
4.0661 -4.9710 2.2413
4.8625 -3.6572 2.2413
5.3191 -2.2675 2.2413
5.4561 -0.8774 2.2413
5.3029 0.4553 2.2413
4.8913 1.6871 2.2413
4.2525 2.7842 2.2413
3.4162 3.7188 2.2413
2.4100 4.4660 2.2413
1.2621 5.0011 2.2413
0.0015 2.7173 1.1495
-0.6836 2.7367 1.1506
-1.3854 2.6066 1.1519
-3.7565 4.1923 2.0889
-4.9038 3.3521 2.0889
-5.8691 2.2123 2.0889
-7.0345 0.8658 2.2413
-7.3705 -0.8484 2.2413
-7.2238 -2.6453 2.2413
-6.1130 -4.0665 2.0889
-5.0400 -5.4315 2.0889
-3.8726 -6.8864 2.2413
-2.1106 -7.4421 2.2413
-0.2992 -7.4705 2.2413
1.3995 -7.0152 2.2413
2.2996 -4.9526 1.8002
4.0172 -5.0331 2.2413
4.8308 -3.7254 2.2413
5.3041 -2.3375 2.2413
5.4565 -0.9460 2.2413
5.3169 0.3908 2.2413
4.9175 1.6285 2.2413
4.2894 2.7330 2.2413
3.4622 3.6764 2.2413
2.4639 4.4335 2.2413
1.3224 4.9798 2.2413
0.0348 2.7127 1.1494
-0.6487 2.7391 1.1506
-1.3503 2.6169 1.1519
-3.6959 4.2262 2.0889
-4.8500 3.4014 2.0889
-5.8266 2.2760 2.0889
-7.0064 0.9470 2.2413
-7.3647 -0.7596 2.2413
-7.2434 -2.5559 2.2413
-6.1553 -3.9908 2.0889
-5.1032 -5.3712 2.0889
-3.9561 -6.8449 2.2413
-2.2013 -7.4270 2.2413
-0.3883 -7.4812 2.2413
1.3192 -7.0482 2.2413
2.2246 -4.9445 1.7828
3.9675 -5.0948 2.2413
4.7983 -3.7934 2.2413
5.2882 -2.4076 2.2413
5.4560 -1.0146 2.2413
5.3304 0.3260 2.2413
4.9431 1.5695 2.2413
4.3258 2.6813 2.2413
3.5079 3.6334 2.2413
2.5175 4.4004 2.2413
1.3824 4.9578 2.2413
0.0681 2.7077 1.1494
-0.6139 2.7412 1.1505
-1.3152 2.6267 1.1518
-3.6351 4.2594 2.0889
-4.7957 3.4499 2.0889
-5.7835 2.3390 2.0889
-6.9773 1.0276 2.2413
-7.3576 -0.6709 2.2413
-7.2617 -2.4662 2.2413
-6.1964 -3.9145 2.0889
-5.1654 -5.3100 2.0889
-4.0392 -6.8021 2.2413
-2.2920 -7.4104 2.2413
-0.4776 -7.4906 2.2413
1.2385 -7.0802 2.2413
2.1506 -4.9364 1.7658
3.9169 -5.1559 2.2413
4.7650 -3.8611 2.2413
5.2716 -2.4776 2.2413
5.4549 -1.0835 2.2413
5.3431 0.2609 2.2413
4.9682 1.5102 2.2413
4.3616 2.6294 2.2413
3.5531 3.5900 2.2413
2.5707 4.3669 2.2413
1.4421 4.9353 2.2413
0.1013 2.7024 1.1493
-0.5791 2.7430 1.1504
-1.2801 2.6362 1.1517
-3.5742 4.2918 2.0889
-4.7411 3.4977 2.0889
-5.7396 2.4014 2.0889
-6.9471 1.1076 2.2413
-7.3493 -0.5826 2.2413
-7.2787 -2.3765 2.2413
-6.2364 -3.8375 2.0889
-5.2268 -5.2479 2.0889
-4.1215 -6.7581 2.2413
-2.3823 -7.3926 2.2413
-0.5673 -7.4988 2.2413
1.1572 -7.1112 2.2413
2.0778 -4.9285 1.7494
3.8655 -5.2167 2.2413
4.7308 -3.9287 2.2413
5.2542 -2.5476 2.2413
5.4530 -1.1524 2.2413
5.3552 0.1957 2.2413
4.9927 1.4506 2.2413
4.3970 2.5769 2.2413
3.5979 3.5462 2.2413
2.6235 4.3328 2.2413
1.5016 4.9122 2.2413
0.1344 2.6968 1.1493
-0.5444 2.7443 1.1504
-1.2450 2.6452 1.1516
-3.5129 4.3234 2.0889
-4.6860 3.5447 2.0889
-5.6952 2.4630 2.0889
-6.9161 1.1871 2.2413
-7.3399 -0.4944 2.2413
-7.2943 -2.2866 2.2413
-6.2751 -3.7601 2.0889
-5.2871 -5.1849 2.0889
-4.2033 -6.7128 2.2413
-2.4726 -7.3734 2.2413
-0.6571 -7.5058 2.2413
1.0753 -7.1411 2.2413
2.0058 -4.9206 1.7335
3.8132 -5.2770 2.2413
4.6957 -3.9960 2.2413
5.2359 -2.6175 2.2413
5.4503 -1.2215 2.2413
5.3667 0.1301 2.2413
5.0166 1.3907 2.2413
4.4319 2.5242 2.2413
3.6422 3.5018 2.2413
2.6760 4.2981 2.2413
1.5607 4.8886 2.2413
0.1673 2.6908 1.1492
-0.5097 2.7453 1.1503
-1.2098 2.6539 1.1516
-3.4516 4.3543 2.0889
-4.6305 3.5909 2.0889
-5.6500 2.5240 2.0889
-6.8840 1.2660 2.2413
-7.3292 -0.4066 2.2413
-7.3087 -2.1967 2.2413
-6.3127 -3.6821 2.0889
-5.3466 -5.1209 2.0889
-3.9930 -6.2131 2.0889
-2.5626 -7.3530 2.2413
-0.7473 -7.5115 2.2413
0.9928 -7.1700 2.2413
1.9348 -4.9129 1.7180
3.7601 -5.3368 2.2413
4.6598 -4.0632 2.2413
5.2168 -2.6875 2.2413
5.4469 -1.2907 2.2413
5.3774 0.0644 2.2413
5.0400 1.3303 2.2413
4.4662 2.4709 2.2413
3.6861 3.4571 2.2413
2.7280 4.2630 2.2413
1.6196 4.8643 2.2413
0.2001 2.6845 1.1492
-0.4752 2.7459 1.1503
-1.1747 2.6621 1.1515
-3.3899 4.3844 2.0889
-4.5746 3.6364 2.0889
-5.6043 2.5842 2.0889
-6.3852 1.2529 2.0889
-7.3174 -0.3190 2.2413
-7.3218 -2.1066 2.2413
-6.3491 -3.6038 2.0889
-5.4050 -5.0561 2.0889
-4.0680 -6.1685 2.0889
-2.6525 -7.3311 2.2413
-0.8375 -7.5159 2.2413
0.9099 -7.1978 2.2413
1.8646 -4.9053 1.7030
3.7060 -5.3961 2.2413
4.6230 -4.1300 2.2413
5.1970 -2.7573 2.2413
5.4428 -1.3600 2.2413
5.3876 -0.0016 2.2413
5.0627 1.2698 2.2413
4.5000 2.4174 2.2413
3.7296 3.4118 2.2413
2.7797 4.2274 2.2413
1.6781 4.8395 2.2413
0.2328 2.6779 1.1492
-0.4406 2.7462 1.1502
-1.1395 2.6700 1.1514
-3.3282 4.4138 2.0889
-4.5183 3.6810 2.0889
-5.5579 2.6439 2.0889
-6.3536 1.3253 2.0889
-7.3044 -0.2318 2.2413
-7.3335 -2.0166 2.2413
-6.3844 -3.5248 2.0889
-5.4624 -4.9904 2.0889
-4.1422 -6.1230 2.0889
-2.7419 -7.3079 2.2413
-0.9280 -7.5191 2.2413
0.8264 -7.2246 2.2413
1.7954 -4.8978 1.6885
3.6512 -5.4548 2.2413
4.5854 -4.1966 2.2413
5.1762 -2.8272 2.2413
5.4379 -1.4294 2.2413
5.3970 -0.0678 2.2413
5.0849 1.2089 2.2413
4.5334 2.3634 2.2413
3.7726 3.3662 2.2413
2.8310 4.1912 2.2413
1.7364 4.8141 2.2413
0.2655 2.6710 1.1491
-0.4061 2.7461 1.1501
-1.1044 2.6774 1.1514
-3.2662 4.4424 2.0889
-4.4616 3.7250 2.0889
-5.5108 2.7027 2.0889
-6.3211 1.3972 2.0889
-7.2903 -0.1449 2.2413
-7.3440 -1.9263 2.2413
-6.4185 -3.4454 2.0889
-5.5188 -4.9239 2.0889
-4.2159 -6.0762 2.0889
-2.8313 -7.2834 2.2413
-1.0186 -7.5210 2.2413
0.7425 -7.2503 2.2413
1.7269 -4.8903 1.6744
3.5955 -5.5131 2.2413
4.5468 -4.2630 2.2413
5.1547 -2.8969 2.2413
5.4323 -1.4989 2.2413
5.4057 -0.1342 2.2413
5.1064 1.1476 2.2413
4.5661 2.3091 2.2413
3.8152 3.3198 2.2413
2.8820 4.1546 2.2413
1.7943 4.7882 2.2413
0.2979 2.6637 1.1491
-0.3717 2.7456 1.1501
-1.0692 2.6845 1.1513
-3.2040 4.4702 2.0889
-4.4047 3.7681 2.0889
-5.4633 2.7609 2.0889
-6.2878 1.4685 2.0889
-7.2750 -0.0583 2.2413
-7.3532 -1.8362 2.2413
-6.4513 -3.3656 2.0889
-5.5743 -4.8565 2.0889
-4.2888 -6.0283 2.0889
-2.9202 -7.2576 2.2413
-1.1093 -7.5216 2.2413
0.6579 -7.2750 2.2413
1.6593 -4.8830 1.6607
3.2094 -5.0519 2.0325
4.5075 -4.3290 2.2413
5.1323 -2.9666 2.2413
5.4259 -1.5685 2.2413
5.4138 -0.2008 2.2413
5.1274 1.0862 2.2413
4.5984 2.2543 2.2413
3.8573 3.2734 2.2413
2.9325 4.1174 2.2413
1.8519 4.7617 2.2413
0.3303 2.6561 1.1490
-0.3374 2.7448 1.1500
-1.0341 2.6912 1.1513
-3.1418 4.4973 2.0889
-4.3473 3.8106 2.0889
-5.4151 2.8183 2.0889
-6.2537 1.5392 2.0889
-7.2586 0.0278 2.2413
-7.3611 -1.7460 2.2413
-6.4829 -3.2854 2.0889
-5.6286 -4.7884 2.0889
-4.3610 -5.9793 2.0889
-3.0089 -7.2304 2.2413
-1.2002 -7.5209 2.2413
0.5731 -7.2985 2.2413
1.5985 -4.8942 1.6537
3.1192 -5.0421 2.0080
4.4672 -4.3948 2.2413
5.1091 -3.0362 2.2413
5.4187 -1.6381 2.2413
5.4212 -0.2677 2.2413
5.1477 1.0243 2.2413
4.6301 2.1993 2.2413
3.8989 3.2265 2.2413
2.9827 4.0797 2.2413
1.9093 4.7345 2.2413
0.3625 2.6482 1.1490
-0.3031 2.7436 1.1500
-0.9989 2.6975 1.1512
-3.0793 4.5236 2.0889
-4.2896 3.8522 2.0889
-5.3664 2.8750 2.0889
-6.2187 1.6087 2.0889
-7.2410 0.1136 2.2413
-7.3677 -1.6559 2.2413
-6.5134 -3.2049 2.0889
-5.6820 -4.7194 2.0889
-4.4325 -5.9292 2.0889
-3.0971 -7.2019 2.2413
-1.2911 -7.5189 2.2413
0.4876 -7.3209 2.2413
1.5822 -5.0469 1.6945
3.0308 -5.0324 1.9842
4.4261 -4.4602 2.2413
5.0851 -3.1057 2.2413
5.4108 -1.7079 2.2413
5.4279 -0.3347 2.2413
5.1674 0.9623 2.2413
4.6613 2.1438 2.2413
3.9401 3.1790 2.2413
3.0325 4.0416 2.2413
1.9662 4.7069 2.2413
0.7699 5.1500 2.2413
-0.2689 2.7421 1.1499
-0.9638 2.7033 1.1511
-3.0168 4.5492 2.0889
-4.2315 3.8930 2.0889
-5.3170 2.9310 2.0889
-6.1829 1.6788 2.0889
-7.2224 0.1989 2.2413
-7.3731 -1.5657 2.2413
-6.5426 -3.1238 2.0889
-4.8640 -3.9441 1.7718
-4.5032 -5.8781 2.0889
-3.1851 -7.1721 2.2413
-1.3822 -7.5157 2.2413
0.4018 -7.3421 2.2413
1.5476 -5.1500 1.7185
2.9438 -5.0229 1.9611
4.3841 -4.5253 2.2413
5.0602 -3.1751 2.2413
5.4020 -1.7777 2.2413
5.4339 -0.4019 2.2413
5.1866 0.8998 2.2413
4.6920 2.0880 2.2413
3.9808 3.1312 2.2413
3.0819 4.0030 2.2413
2.0229 4.6787 2.2413
0.8322 5.1335 2.2413
-0.2349 2.7402 1.1499
-0.9287 2.7089 1.1511
-2.9541 4.5740 2.0889
-4.1732 3.9331 2.0889
-5.2672 2.9862 2.0889
-6.1463 1.7477 2.0889
-7.2026 0.2839 2.2413
-7.3771 -1.4757 2.2413
-6.5706 -3.0426 2.0889
-4.8883 -3.8691 1.7650
-4.5732 -5.8259 2.0889
-3.2725 -7.1410 2.2413
-1.4732 -7.5111 2.2413
0.3155 -7.3623 2.2413
1.4854 -5.1651 1.7132
2.8586 -5.0136 1.9388
4.3413 -4.5900 2.2413
5.0345 -3.2444 2.2413
5.3925 -1.8476 2.2413
5.4392 -0.4693 2.2413
5.2050 0.8372 2.2413
4.7221 2.0318 2.2413
4.0211 3.0828 2.2413
3.1308 3.9638 2.2413
2.0792 4.6500 2.2413
0.8945 5.1164 2.2413
-0.2008 2.7380 1.1498
-0.8936 2.7140 1.1510
-2.8913 4.5981 2.0889
-4.1145 3.9725 2.0889
-5.2168 3.0407 2.0889
-6.1090 1.8159 2.0889
-7.1818 0.3684 2.2413
-7.3799 -1.3856 2.2413
-6.5974 -2.9609 2.0889
-5.8355 -4.5081 2.0889
-4.6423 -5.7726 2.0889
-3.3597 -7.1085 2.2413
-1.5644 -7.5052 2.2413
0.2288 -7.3813 2.2413
1.4262 -5.1905 1.7116
2.7747 -5.0044 1.9171
4.2976 -4.6545 2.2413
5.0080 -3.3135 2.2413
5.3823 -1.9174 2.2413
5.4438 -0.5369 2.2413
5.2229 0.7742 2.2413
4.7516 1.9752 2.2413
4.0608 3.0341 2.2413
3.1794 3.9242 2.2413
2.1352 4.6207 2.2413
0.9563 5.0987 2.2413
-0.1669 2.7354 1.1498
-0.8585 2.7187 1.1509
-2.8283 4.6214 2.0889
-4.0555 4.0110 2.0889
-5.1659 3.0944 2.0889
-6.0709 1.8836 2.0889
-7.1599 0.4525 2.2413
-7.3815 -1.2958 2.2413
-6.6230 -2.8790 2.0889
-5.8846 -4.4362 2.0889
-4.7107 -5.7183 2.0889
-3.4463 -7.0748 2.2413
-1.6554 -7.4980 2.2413
0.1417 -7.3991 2.2413
1.3697 -5.2273 1.7139
2.6924 -4.9955 1.8961
4.2531 -4.7185 2.2413
4.9806 -3.3826 2.2413
5.3712 -1.9874 2.2413
5.4477 -0.6046 2.2413
5.2402 0.7110 2.2413
4.7807 1.9183 2.2413
4.1002 2.9850 2.2413
3.2276 3.8841 2.2413
2.1908 4.5908 2.2413
1.0180 5.0804 2.2413
-0.1330 2.7325 1.1497
-0.8235 2.7231 1.1509
-2.7654 4.6440 2.0889
-3.9962 4.0488 2.0889
-5.1144 3.1475 2.0889
-6.0320 1.9506 2.0889
-7.1369 0.5361 2.2413
-7.3818 -1.2060 2.2413
-6.6473 -2.7967 2.0889
-5.9325 -4.3636 2.0889
-4.7782 -5.6630 2.0889
-3.5326 -7.0397 2.2413
-1.7466 -7.4895 2.2413
0.0543 -7.4158 2.2413
1.3163 -5.2783 1.7212
2.6113 -4.9866 1.8757
4.2076 -4.7822 2.2413
4.9523 -3.4514 2.2413
5.3594 -2.0573 2.2413
5.4509 -0.6726 2.2413
5.2568 0.6475 2.2413
4.8091 1.8611 2.2413
4.1390 2.9354 2.2413
3.2753 3.8435 2.2413
2.2461 4.5604 2.2413
1.0794 5.0615 2.2413
-0.0993 2.7292 1.1497
-0.7884 2.7270 1.1508
-2.7022 4.6658 2.0889
-3.9368 4.0858 2.0889
-5.0625 3.1997 2.0889
-5.9924 2.0170 2.0889
-7.1129 0.6193 2.2413
-7.3808 -1.1164 2.2413
-6.6705 -2.7143 2.0889
-5.9793 -4.2903 2.0889
-4.8450 -5.6066 2.0889
-3.6183 -7.0033 2.2413
-1.8376 -7.4796 2.2413
-0.0336 -7.4313 2.2413
1.2672 -5.3515 1.7357
2.5316 -4.9779 1.8560
4.1613 -4.8455 2.2413
4.9232 -3.5202 2.2413
5.3468 -2.1274 2.2413
5.4534 -0.7406 2.2413
5.2728 0.5838 2.2413
4.8371 1.8034 2.2413
4.1773 2.8854 2.2413
3.3227 3.8024 2.2413
2.3010 4.5295 2.2413
1.1406 5.0420 2.2413
-0.0656 2.7256 1.1496
-0.7534 2.7306 1.1507
-2.6543 4.7142 2.1010
-3.8769 4.1220 2.0889
-5.0101 3.2513 2.0889
-5.9520 2.0828 2.0889
-7.0878 0.7019 2.2413
-7.3786 -1.0269 2.2413
-6.6924 -2.6315 2.0889
-6.0250 -4.2163 2.0889
-4.9108 -5.5493 2.0889
-3.7036 -6.9657 2.2413
-1.9287 -7.4684 2.2413
-0.1208 -6.8807 2.2413
1.2160 -5.4594 1.9001
2.4427 -4.9696 1.9745
3.8273 -4.5832 2.2413
4.5683 -3.3634 2.2413
4.9942 -2.0680 2.2413
5.1208 -0.7677 2.2413
4.9734 0.4822 2.2413
4.5808 1.6389 2.2413
3.9719 2.6686 2.2413
3.1749 3.5434 2.2413
2.2172 4.2381 2.2413
1.1270 4.7286 2.2413
-0.0333 2.5598 1.1497
-0.6786 2.5662 1.1508
-1.3354 2.4306 1.1520
-3.5756 3.8806 2.0889
-4.6276 3.0706 2.0889
-5.4984 1.9875 2.0889
-6.1011 0.6685 2.0889
-6.3521 -0.8150 2.0889
-6.1882 -2.3551 2.0889
-5.5865 -3.8155 2.0889
-4.5784 -5.0523 2.0889
-3.4901 -6.3751 2.2413
-1.8677 -6.8724 2.2413
-0.2025 -6.8918 2.2413
1.3610 -6.4709 2.2413
2.3656 -4.9612 1.9549
3.7819 -4.6407 2.2413
4.5388 -3.4269 2.2413
4.9802 -2.1334 2.2413
5.1212 -0.8319 2.2413
4.9869 0.4217 2.2413
4.6058 1.5838 2.2413
4.0071 2.6206 2.2413
3.2188 3.5037 2.2413
2.2685 4.2080 2.2413
1.1842 4.7093 2.2413
-0.0018 2.5559 1.1497
-0.6459 2.5692 1.1507
-1.3027 2.4409 1.1519
-3.5197 3.9137 2.0889
-4.5786 3.1178 2.0889
-5.4605 2.0477 2.0889
-6.0786 0.7391 2.0889
-6.3490 -0.7385 2.0889
-6.2069 -2.2788 2.0889
-5.6267 -3.7466 2.0889
-4.6373 -4.9979 2.0889
-3.5673 -6.3378 2.2413
-1.9511 -6.8590 2.2413
-0.2844 -6.9018 2.2413
1.2871 -6.5013 2.2413
2.2897 -4.9529 1.9359
3.7357 -4.6978 2.2413
4.5086 -3.4901 2.2413
4.9654 -2.1988 2.2413
5.1209 -0.8962 2.2413
4.9997 0.3608 2.2413
4.6303 1.5284 2.2413
4.0417 2.5722 2.2413
3.2623 3.4636 2.2413
2.3194 4.1774 2.2413
1.2411 4.6894 2.2413
0.0297 2.5518 1.1496
-0.6132 2.5718 1.1507
-1.2700 2.4509 1.1519
-3.4635 3.9460 2.0889
-4.5292 3.1642 2.0889
-5.4220 2.1073 2.0889
-6.0554 0.8093 2.0889
-6.3448 -0.6621 2.0889
-6.2243 -2.2023 2.0889
-5.6659 -3.6772 2.0889
-4.6954 -4.9425 2.0889
-3.6439 -6.2993 2.2413
-2.0344 -6.8443 2.2413
-0.3666 -6.9107 2.2413
1.2127 -6.5308 2.2413
2.2148 -4.9447 1.9175
3.6887 -4.7545 2.2413
4.4775 -3.5532 2.2413
4.9499 -2.2642 2.2413
5.1200 -0.9607 2.2413
5.0119 0.2998 2.2413
4.6542 1.4728 2.2413
4.0759 2.5234 2.2413
3.3054 3.4230 2.2413
2.3700 4.1463 2.2413
1.2978 4.6690 2.2413
0.0610 2.5473 1.1496
-0.5805 2.5740 1.1506
-1.2372 2.4605 1.1518
-3.4072 3.9777 2.0889
-4.4793 3.2100 2.0889
-5.3827 2.1663 2.0889
-6.0312 0.8790 2.0889
-6.3397 -0.5859 2.0889
-6.2407 -2.1256 2.0889
-5.7041 -3.6073 2.0889
-4.7526 -4.8864 2.0889
-3.7200 -6.2597 2.2413
-2.1176 -6.8285 2.2413
-0.4490 -6.9185 2.2413
1.1378 -6.5593 2.2413
2.1411 -4.9367 1.8996
3.6410 -4.8108 2.2413
4.4456 -3.6160 2.2413
4.9336 -2.3295 2.2413
5.1183 -1.0253 2.2413
5.0235 0.2385 2.2413
4.6776 1.4169 2.2413
4.1096 2.4742 2.2413
3.3481 3.3820 2.2413
2.4203 4.1147 2.2413
1.3542 4.6480 2.2413
0.0923 2.5425 1.1495
-0.5479 2.5759 1.1506
-1.2044 2.4696 1.1518
-3.3506 4.0086 2.0889
-4.4290 3.2551 2.0889
-5.3429 2.2247 2.0889
-6.0062 0.9483 2.0889
-6.3335 -0.5099 2.0889
-6.2560 -2.0488 2.0889
-5.7412 -3.5368 2.0889
-4.8090 -4.8293 2.0889
-3.7955 -6.2190 2.2413
-2.2006 -6.8114 2.2413
-0.5316 -6.9251 2.2413
1.0624 -6.5869 2.2413
2.0683 -4.9288 1.8822
3.5925 -4.8665 2.2413
4.4129 -3.6786 2.2413
4.9166 -2.3948 2.2413
5.1159 -1.0899 2.2413
5.0344 0.1770 2.2413
4.7004 1.3605 2.2413
4.1429 2.4247 2.2413
3.3903 3.3406 2.2413
2.4702 4.0826 2.2413
1.4103 4.6264 2.2413
0.1234 2.5374 1.1495
-0.5153 2.5775 1.1505
-1.1716 2.4785 1.1517
-3.2938 4.0388 2.0889
-4.3783 3.2995 2.0889
-5.3024 2.2824 2.0889
-5.9803 1.0171 2.0889
-6.3263 -0.4341 2.0889
-6.2702 -1.9719 2.0889
-5.7772 -3.4659 2.0889
-4.8646 -4.7715 2.0889
-3.7121 -5.9243 2.1496
-2.2834 -6.7932 2.2413
-0.6144 -6.9306 2.2413
0.9864 -6.6136 2.2413
1.9965 -4.9210 1.8654
3.5431 -4.9219 2.2413
4.3795 -3.7409 2.2413
4.8988 -2.4601 2.2413
5.1128 -1.1547 2.2413
5.0447 0.1153 2.2413
4.7226 1.3038 2.2413
4.1756 2.3748 2.2413
3.4321 3.2987 2.2413
2.5198 4.0500 2.2413
1.4662 4.6043 2.2413
0.1545 2.5320 1.1494
-0.4827 2.5787 1.1504
-1.1388 2.4869 1.1516
-3.2368 4.0683 2.0889
-4.3272 3.3432 2.0889
-5.2613 2.3395 2.0889
-5.9536 1.0854 2.0889
-6.3181 -0.3585 2.0889
-6.2833 -1.8949 2.0889
-5.8122 -3.3945 2.0889
-4.9192 -4.7128 2.0889
-3.6766 -5.7171 2.0889
-2.3660 -6.7737 2.2413
-0.6974 -6.9349 2.2413
0.9100 -6.6393 2.2413
1.9256 -4.9132 1.8491
3.4931 -4.9767 2.2413
4.3452 -3.8030 2.2413
4.8803 -2.5252 2.2413
5.1091 -1.2196 2.2413
5.0544 0.0534 2.2413
4.7443 1.2469 2.2413
4.2078 2.3245 2.2413
3.4736 3.2564 2.2413
2.5690 4.0170 2.2413
1.5218 4.5817 2.2413
0.1855 2.5262 1.1494
-0.4502 2.5795 1.1504
-1.1059 2.4950 1.1516
-3.1795 4.0971 2.0889
-4.2757 3.3862 2.0889
-5.2196 2.3960 2.0889
-5.9261 1.1533 2.0889
-6.3088 -0.2831 2.0889
-6.2953 -1.8178 2.0889
-5.8462 -3.3226 2.0889
-4.9730 -4.6534 2.0889
-3.7453 -5.6760 2.0889
-2.4484 -6.7530 2.2413
-0.7805 -6.9381 2.2413
0.8332 -6.6640 2.2413
1.8557 -4.9056 1.8333
3.4422 -5.0311 2.2413
4.3102 -3.8649 2.2413
4.8609 -2.5904 2.2413
5.1046 -1.2845 2.2413
5.0634 -0.0087 2.2413
4.7654 1.1898 2.2413
4.2396 2.2739 2.2413
3.5145 3.2137 2.2413
2.6178 3.9834 2.2413
1.5771 4.5585 2.2413
0.2163 2.5202 1.1493
-0.4177 2.5800 1.1503
-1.0731 2.5027 1.1515
-3.1221 4.1252 2.0889
-4.2239 3.4284 2.0889
-5.1774 2.4518 2.0889
-5.8978 1.2207 2.0889
-6.2986 -0.2080 2.0889
-6.3061 -1.7406 2.0889
-5.8790 -3.2503 2.0889
-5.0259 -4.5932 2.0889
-3.8134 -5.6339 2.0889
-2.5306 -6.7311 2.2413
-0.8638 -6.9402 2.2413
0.7558 -6.6877 2.2413
1.7866 -4.8981 1.8180
3.3906 -5.0849 2.2413
4.2743 -3.9265 2.2413
4.8408 -2.6554 2.2413
5.0994 -1.3495 2.2413
5.0718 -0.0710 2.2413
4.7860 1.1323 2.2413
4.2709 2.2228 2.2413
3.5551 3.1706 2.2413
2.6663 3.9493 2.2413
1.6321 4.5347 2.2413
0.2471 2.5138 1.1493
-0.3853 2.5802 1.1503
-1.0402 2.5100 1.1514
-3.0646 4.1526 2.0889
-4.1717 3.4700 2.0889
-5.1345 2.5070 2.0889
-5.8687 1.2875 2.0889
-6.2874 -0.1332 2.0889
-6.3159 -1.6633 2.0889
-5.9108 -3.1775 2.0889
-5.0778 -4.5322 2.0889
-3.8809 -5.5908 2.0889
-2.6125 -6.7080 2.2413
-0.9472 -6.9410 2.2413
0.6781 -6.7105 2.2413
1.7183 -4.8907 1.8032
3.3382 -5.1383 2.2413
4.2377 -3.9878 2.2413
4.8200 -2.7204 2.2413
5.0935 -1.4146 2.2413
5.0796 -0.1334 2.2413
4.8059 1.0745 2.2413
4.3016 2.1715 2.2413
3.5952 3.1270 2.2413
2.7144 3.9148 2.2413
1.6868 4.5104 2.2413
0.2777 2.5071 1.1492
-0.3530 2.5800 1.1502
-1.0073 2.5169 1.1514
-3.0068 4.1792 2.0889
-4.1191 3.5109 2.0889
-5.0911 2.5616 2.0889
-5.8388 1.3539 2.0889
-6.2752 -0.0587 2.0889
-6.3246 -1.5861 2.0889
-5.9415 -3.1044 2.0889
-5.1289 -4.4705 2.0889
-3.9478 -5.5466 2.0889
-2.6941 -6.6837 2.2413
-1.0307 -6.9407 2.2413
0.5999 -6.7322 2.2413
1.6508 -4.8833 1.7888
3.2850 -5.1911 2.2413
4.2002 -4.0488 2.2413
4.7983 -2.7852 2.2413
5.0868 -1.4798 2.2413
5.0867 -0.1961 2.2413
4.8253 1.0165 2.2413
4.3319 2.1198 2.2413
3.6349 3.0830 2.2413
2.7622 3.8798 2.2413
1.7413 4.4856 2.2413
0.3082 2.5002 1.1492
-0.3207 2.5795 1.1502
-0.9744 2.5235 1.1513
-2.9489 4.2052 2.0889
-4.0661 3.5510 2.0889
-5.0470 2.6155 2.0889
-5.8081 1.4197 2.0889
-6.2620 0.0156 2.0889
-6.3322 -1.5088 2.0889
-5.9711 -3.0309 2.0889
-5.1790 -4.4080 2.0889
-4.0141 -5.5015 2.0889
-2.7754 -6.6582 2.2413
-1.1143 -6.9393 2.2413
0.5213 -6.7529 2.2413
1.5963 -4.9139 1.7886
3.2311 -5.2434 2.2413
4.1620 -4.1096 2.2413
4.7759 -2.8500 2.2413
5.0795 -1.5450 2.2413
5.0932 -0.2590 2.2413
4.8442 0.9582 2.2413
4.3616 2.0677 2.2413
3.6742 3.0386 2.2413
2.8096 3.8443 2.2413
1.7954 4.4602 2.2413
0.3386 2.4929 1.1492
-0.2885 2.5786 1.1501
-0.9415 2.5297 1.1513
-2.8908 4.2305 2.0889
-4.0129 3.5905 2.0889
-5.0025 2.6687 2.0889
-5.7766 1.4850 2.0889
-6.2479 0.0895 2.0889
-6.3387 -1.4315 2.0889
-5.9996 -2.9570 2.0889
-5.2282 -4.3448 2.0889
-4.0796 -5.4554 2.0889
-2.8563 -6.6315 2.2413
-1.1980 -6.9366 2.2413
0.4423 -6.7726 2.2413
1.5799 -5.0674 1.8331
3.1764 -5.2952 2.2413
4.1229 -4.1700 2.2413
4.7527 -2.9146 2.2413
5.0714 -1.6103 2.2413
5.0989 -0.3220 2.2413
4.8624 0.8996 2.2413
4.3908 2.0153 2.2413
3.7130 2.9937 2.2413
2.8566 3.8083 2.2413
1.8492 4.4343 2.2413
0.7196 4.8474 2.2413
-0.2563 2.5774 1.1501
-0.9086 2.5355 1.1512
-2.8325 4.2552 2.0889
-3.9593 3.6292 2.0889
-4.9574 2.7213 2.0889
-5.7444 1.5498 2.0889
-6.2328 0.1631 2.0889
-6.3441 -1.3542 2.0889
-6.0270 -2.8828 2.0889
-4.8653 -3.9474 1.9261
-4.1445 -5.4083 2.0889
-2.9370 -6.6036 2.2413
-1.2817 -6.9328 2.2413
0.3629 -6.7912 2.2413
1.5294 -5.1185 1.8405
3.1210 -5.3464 2.2413
4.0831 -4.2301 2.2413
4.7287 -2.9792 2.2413
5.0626 -1.6756 2.2413
5.1041 -0.3852 2.2413
4.8801 0.8407 2.2413
4.4195 1.9625 2.2413
3.7513 2.9485 2.2413
2.9032 3.7718 2.2413
1.9027 4.4078 2.2413
0.7785 4.8322 2.2413
-0.2242 2.5759 1.1500
-0.8757 2.5410 1.1511
-2.7742 4.2789 2.0889
-3.9053 3.6673 2.0889
-4.9118 2.7732 2.0889
-5.7114 1.6140 2.0889
-6.2167 0.2364 2.0889
-6.3485 -1.2770 2.0889
-6.0534 -2.8082 2.0889
-4.8860 -3.8698 1.9172
-4.2087 -5.3603 2.0889
-3.0172 -6.5745 2.2413
-1.3655 -6.9277 2.2413
0.2831 -6.8088 2.2413
1.4677 -5.1334 1.8351
3.0648 -5.3970 2.2413
4.0424 -4.2898 2.2413
4.7040 -3.0436 2.2413
5.0530 -1.7409 2.2413
5.1086 -0.4485 2.2413
4.8971 0.7816 2.2413
4.4477 1.9094 2.2413
3.7892 2.9029 2.2413
2.9495 3.7349 2.2413
1.9559 4.3808 2.2413
0.8372 4.8164 2.2413
-0.1922 2.5741 1.1500
-0.8428 2.5461 1.1511
-2.7157 4.3020 2.0889
-3.8511 3.7046 2.0889
-4.8657 2.8245 2.0889
-5.6777 1.6777 2.0889
-6.1998 0.3094 2.0889
-6.3517 -1.1998 2.0889
-6.0786 -2.7334 2.0889
-5.3699 -4.1512 2.0889
-4.2722 -5.3112 2.0889
-3.0971 -6.5442 2.2413
-1.4492 -6.9215 2.2413
0.2030 -6.8253 2.2413
1.4090 -5.1587 1.8337
3.0079 -5.4470 2.2413
4.0010 -4.3492 2.2413
4.6784 -3.1078 2.2413
5.0427 -1.8063 2.2413
5.1123 -0.5120 2.2413
4.9136 0.7223 2.2413
4.4754 1.8560 2.2413
3.8267 2.8568 2.2413
2.9953 3.6975 2.2413
2.0088 4.3533 2.2413
0.8956 4.8000 2.2413
-0.1603 2.5719 1.1499
-0.8100 2.5509 1.1510
-2.6814 4.3640 2.1080
-3.7966 3.7412 2.0889
-4.8190 2.8750 2.0889
-5.6433 1.7408 2.0889
-6.1819 0.3819 2.0889
-6.3539 -1.1227 2.0889
-6.1027 -2.6582 2.0889
-5.4152 -4.0853 2.0889
-4.3349 -5.2613 2.0889
-3.1766 -6.5127 2.2413
-1.5330 -6.9141 2.2413
0.1226 -6.8408 2.2413
1.3529 -5.1954 1.8366
2.9502 -5.4965 2.2413
3.9588 -4.4083 2.2413
4.6521 -3.1720 2.2413
5.0317 -1.8717 2.2413
5.1155 -0.5757 2.2413
4.9294 0.6626 2.2413
4.5025 1.8022 2.2413
3.8637 2.8104 2.2413
3.0408 3.6597 2.2413
2.0614 4.3253 2.2413
0.9538 4.7830 2.2413
-0.1284 2.5693 1.1499
-0.7771 2.5552 1.1510
-1.4332 2.3973 1.1522
-3.7417 3.7771 2.0889
-4.7719 2.9249 2.0889
-5.6081 1.8033 2.0889
-6.1630 0.4542 2.0889
-6.3551 -1.0456 2.0889
-6.1258 -2.5828 2.0889
-5.4595 -4.0188 2.0889
-4.3969 -5.2104 2.0889
-3.2556 -6.4801 2.2413
-1.6167 -6.9055 2.2413
0.0418 -6.8552 2.2413
1.3000 -5.2464 1.8447
2.6006 -4.9868 2.0156
3.9158 -4.4669 2.2413
4.6250 -3.2359 2.2413
5.0200 -1.9371 2.2413
5.1179 -0.6395 2.2413
4.9447 0.6028 2.2413
4.5291 1.7481 2.2413
3.9002 2.7635 2.2413
3.0859 3.6214 2.2413
2.1136 4.2968 2.2413
1.0117 4.7655 2.2413
-0.0966 2.5665 1.1498
-0.7443 2.5593 1.1509
-1.4007 2.4088 1.1521
-3.6866 3.8123 2.0889
-4.7243 2.9742 2.0889
-5.5722 1.8653 2.0889
-6.1433 0.5260 2.0889
-6.3551 -0.9686 2.0889
-6.1477 -2.5072 2.0889
-5.5028 -3.9516 2.0889
-4.4582 -5.1587 2.0889
-3.3342 -6.4463 2.2413
-1.7004 -6.8957 2.2413
-0.0393 -6.8685 2.2413
