ply
format ascii 1.0
element vertex 2175
property float32 x
property float32 y
property float32 z
end_header
-7.0349 0.8654 2.2414
-7.3708 -0.8490 2.2414
-7.2239 -2.6459 2.2414
-6.1130 -4.0671 2.0890
-5.0397 -5.4321 2.0890
-3.8722 -6.8869 2.2414
-2.1101 -7.4424 2.2414
-0.2987 -7.4706 2.2414
1.2636 -6.3319 2.0231
2.8635 -6.1658 2.2414
4.0176 -5.0329 2.2414
4.8311 -3.7250 2.2414
5.3043 -2.3372 2.2414
5.4566 -0.9456 2.2414
5.3170 0.3912 2.2414
4.9174 1.6289 2.2414
4.2893 2.7334 2.2414
3.4620 3.6767 2.2414
2.4637 4.4338 2.2414
1.3221 4.9800 2.2414
0.0346 2.7127 1.1494
-0.6489 2.7391 1.1506
-1.3505 2.6168 1.1518
-3.6964 4.2262 2.0890
-4.8505 3.4012 2.0890
-5.8271 2.2757 2.0890
-7.0068 0.9465 2.2414
-7.3650 -0.7601 2.2414
-7.2435 -2.5565 2.2414
-6.1553 -3.9914 2.0890
-5.1029 -5.3718 2.0890
-3.9558 -6.8454 2.2414
-2.2009 -7.4272 2.2414
-0.3878 -7.4813 2.2414
1.1996 -6.4062 2.0372
2.7972 -6.2160 2.2414
3.9679 -5.0945 2.2414
4.7986 -3.7930 2.2414
5.2885 -2.4072 2.2414
5.4561 -1.0143 2.2414
5.3304 0.3264 2.2414
4.9431 1.5699 2.2414
4.3257 2.6818 2.2414
3.5077 3.6338 2.2414
2.5172 4.4008 2.2414
1.3821 4.9581 2.2414
0.0679 2.7078 1.1494
-0.6141 2.7412 1.1505
-1.3155 2.6267 1.1518
-3.6356 4.2593 2.0890
-4.7963 3.4497 2.0890
-5.7840 2.3387 2.0890
-6.9777 1.0271 2.2414
-7.3579 -0.6715 2.2414
-7.2618 -2.4669 2.2414
-6.1964 -3.9150 2.0890
-5.1652 -5.3106 2.0890
-4.0388 -6.8026 2.2414
-2.2914 -7.4107 2.2414
-0.4772 -7.4908 2.2414
1.2390 -7.0801 2.2414
2.7302 -6.2654 2.2414
3.9173 -5.1558 2.2414
4.7653 -3.8608 2.2414
5.2718 -2.4772 2.2414
5.4550 -1.0831 2.2414
5.3432 0.2613 2.2414
4.9682 1.5106 2.2414
4.3615 2.6298 2.2414
3.5529 3.5904 2.2414
2.5704 4.3672 2.2414
1.4418 4.9356 2.2414
0.1011 2.7025 1.1493
-0.5793 2.7430 1.1504
-1.2803 2.6361 1.1517
-3.5746 4.2917 2.0890
-4.7416 3.4975 2.0890
-5.7401 2.4011 2.0890
-6.9476 1.1072 2.2414
-7.3496 -0.5831 2.2414
-7.2788 -2.3771 2.2414
-6.2363 -3.8381 2.0890
-5.2266 -5.2484 2.0890
-4.1212 -6.7586 2.2414
-2.3819 -7.3929 2.2414
-0.5668 -7.4990 2.2414
1.1577 -7.1111 2.2414
2.6624 -6.3141 2.2414
3.8659 -5.2165 2.2414
4.7311 -3.9284 2.2414
5.2544 -2.5472 2.2414
5.4531 -1.1521 2.2414
5.3553 0.1960 2.2414
4.9927 1.4510 2.2414
4.3969 2.5773 2.2414
3.5977 3.5465 2.2414
2.6232 4.3331 2.2414
1.5013 4.9125 2.2414
0.1341 2.6968 1.1493
-0.5446 2.7443 1.1504
-1.2452 2.6452 1.1516
-3.5134 4.3234 2.0890
-4.6865 3.5445 2.0890
-5.6956 2.4628 2.0890
-6.9165 1.1867 2.2414
-7.3402 -0.4949 2.2414
-7.2945 -2.2873 2.2414
-6.2751 -3.7607 2.0890
-5.2870 -5.1854 2.0890
-4.2029 -6.7133 2.2414
-2.4721 -7.3738 2.2414
-0.6567 -7.5059 2.2414
1.0758 -7.1411 2.2414
2.5938 -6.3620 2.2414
3.8136 -5.2768 2.2414
4.6960 -3.9958 2.2414
5.2361 -2.6172 2.2414
5.4505 -1.2211 2.2414
5.3667 0.1305 2.2414
5.0166 1.3910 2.2414
4.4318 2.5245 2.2414
3.6421 3.5022 2.2414
2.6757 4.2985 2.2414
1.5604 4.8889 2.2414
0.1671 2.6909 1.1492
-0.5100 2.7453 1.1503
-1.2101 2.6538 1.1516
-3.4520 4.3543 2.0890
-4.6310 3.5907 2.0890
-5.6505 2.5238 2.0890
-6.8844 1.2656 2.2414
-7.3295 -0.4071 2.2414
-7.3089 -2.1973 2.2414
-6.3127 -3.6827 2.0890
-5.3464 -5.1214 2.0890
-3.9927 -6.2135 2.0890
-2.5622 -7.3533 2.2414
-0.7467 -7.5116 2.2414
0.9934 -7.1700 2.2414
2.5245 -6.4092 2.2414
3.7604 -5.3366 2.2414
4.6601 -4.0629 2.2414
5.2171 -2.6871 2.2414
5.4471 -1.2903 2.2414
5.3775 0.0648 2.2414
5.0399 1.3307 2.2414
4.4661 2.4713 2.2414
3.6860 3.4574 2.2414
2.7278 4.2634 2.2414
1.6193 4.8646 2.2414
0.1999 2.6846 1.1492
-0.4754 2.7459 1.1503
-1.1749 2.6621 1.1515
-3.3904 4.3844 2.0890
-4.5751 3.6362 2.0890
-5.6047 2.5840 2.0890
-6.3856 1.2525 2.0890
-7.3177 -0.3195 2.2414
-7.3219 -2.1072 2.2414
-6.3492 -3.6043 2.0890
-5.4048 -5.0566 2.0890
-4.0677 -6.1690 2.0890
-2.6520 -7.3314 2.2414
-0.8370 -7.5161 2.2414
0.9104 -7.1978 2.2414
2.4545 -6.4556 2.2414
3.7065 -5.3959 2.2414
4.6233 -4.1297 2.2414
5.1972 -2.7570 2.2414
5.4430 -1.3596 2.2414
5.3876 -0.0012 2.2414
5.0627 1.2702 2.2414
4.4999 2.4178 2.2414
3.7294 3.4122 2.2414
2.7795 4.2277 2.2414
1.6778 4.8398 2.2414
0.2326 2.6780 1.1491
-0.4408 2.7462 1.1502
-1.1398 2.6699 1.1514
-3.3286 4.4138 2.0890
-4.5188 3.6809 2.0890
-5.5584 2.6436 2.0890
-6.3540 1.3249 2.0890
-7.3047 -0.2323 2.2414
-7.3337 -2.0171 2.2414
-6.3844 -3.5254 2.0890
-5.4623 -4.9910 2.0890
-4.1419 -6.1234 2.0890
-2.7415 -7.3083 2.2414
-0.9275 -7.5192 2.2414
0.8269 -7.2246 2.2414
2.3837 -6.5011 2.2414
3.6516 -5.4546 2.2414
4.5857 -4.1963 2.2414
5.1765 -2.8268 2.2414
5.4381 -1.4290 2.2414
5.3970 -0.0674 2.2414
5.0848 1.2093 2.2414
4.5332 2.3638 2.2414
3.7724 3.3665 2.2414
2.8308 4.1916 2.2414
1.7361 4.8144 2.2414
0.2652 2.6710 1.1491
-0.4063 2.7461 1.1501
-1.1046 2.6774 1.1514
-3.2667 4.4424 2.0890
-4.4622 3.7248 2.0890
-5.5114 2.7025 2.0890
-6.3215 1.3968 2.0890
-7.2906 -0.1454 2.2414
-7.3442 -1.9270 2.2414
-6.4185 -3.4460 2.0890
-5.5187 -4.9244 2.0890
-4.2156 -6.0766 2.0890
-2.8308 -7.2838 2.2414
-1.0181 -7.5211 2.2414
0.7430 -7.2503 2.2414
2.3121 -6.5459 2.2414
3.5960 -5.5129 2.2414
4.5472 -4.2626 2.2414
5.1549 -2.8966 2.2414
5.4324 -1.4985 2.2414
5.4058 -0.1338 2.2414
5.1064 1.1481 2.2414
4.5660 2.3095 2.2414
3.8150 3.3203 2.2414
2.8818 4.1549 2.2414
1.7940 4.7885 2.2414
0.2977 2.6637 1.1491
-0.3719 2.7456 1.1501
-1.0694 2.6845 1.1513
-3.2045 4.4702 2.0890
-4.4051 3.7680 2.0890
-5.4638 2.7606 2.0890
-6.2882 1.4681 2.0890
-7.2753 -0.0589 2.2414
-7.3534 -1.8368 2.2414
-6.4513 -3.3662 2.0890
-5.5741 -4.8571 2.0890
-4.2885 -6.0288 2.0890
-2.9197 -7.2579 2.2414
-1.1088 -7.5218 2.2414
0.6585 -7.2750 2.2414
2.2399 -6.5899 2.2414
3.5394 -5.5706 2.2414
4.5078 -4.3287 2.2414
5.1326 -2.9663 2.2414
5.4260 -1.5681 2.2414
5.4139 -0.2004 2.2414
5.1273 1.0866 2.2414
4.5983 2.2547 2.2414
3.8571 3.2738 2.2414
2.9323 4.1178 2.2414
1.8516 4.7619 2.2414
0.3301 2.6561 1.1490
-0.3376 2.7448 1.1500
-1.0343 2.6911 1.1512
-3.1422 4.4973 2.0890
-4.3478 3.8104 2.0890
-5.4156 2.8180 2.0890
-6.2541 1.5388 2.0890
-7.2589 0.0273 2.2414
-7.3613 -1.7466 2.2414
-6.4830 -3.2860 2.0890
-5.6285 -4.7890 2.0890
-4.3607 -5.9798 2.0890
-3.0084 -7.2308 2.2414
-1.1997 -7.5211 2.2414
0.5735 -7.2985 2.2414
2.1669 -6.6330 2.2414
3.4821 -5.6278 2.2414
4.4675 -4.3944 2.2414
5.1094 -3.0358 2.2414
5.4189 -1.6378 2.2414
5.4213 -0.2673 2.2414
5.1477 1.0247 2.2414
4.6300 2.1997 2.2414
3.8988 3.2268 2.2414
2.9825 4.0801 2.2414
1.9089 4.7349 2.2414
0.3623 2.6482 1.1490
-0.3033 2.7436 1.1500
-0.9991 2.6974 1.1512
-3.0798 4.5236 2.0890
-4.2901 3.8521 2.0890
-5.3668 2.8748 2.0890
-6.2191 1.6089 2.0890
-7.2414 0.1131 2.2414
-7.3679 -1.6564 2.2414
-6.5134 -3.2054 2.0890
-5.6818 -4.7200 2.0890
-4.4322 -5.9297 2.0890
-3.0967 -7.2022 2.2414
-1.2906 -7.5191 2.2414
0.4881 -7.3209 2.2414
1.8891 -6.0245 2.0228
3.4239 -5.6843 2.2414
4.4264 -4.4599 2.2414
5.0853 -3.1053 2.2414
5.4109 -1.7075 2.2414
5.4280 -0.3343 2.2414
5.1674 0.9626 2.2414
4.6612 2.1442 2.2414
3.9400 3.1794 2.2414
3.0323 4.0420 2.2414
1.9659 4.7072 2.2414
0.7695 5.1503 2.2414
-0.2692 2.7421 1.1499
-0.9640 2.7033 1.1511
-3.0173 4.5492 2.0890
-4.2320 3.8929 2.0890
-5.3175 2.9307 2.0890
-6.1834 1.6784 2.0890
-7.2228 0.1984 2.2414
-7.3733 -1.5663 2.2414
-6.5426 -3.1245 2.0890
-4.8645 -3.9450 1.7721
-4.5029 -5.8786 2.0890
-3.1846 -7.1725 2.2414
-1.3817 -7.5159 2.2414
0.4023 -7.3422 2.2414
1.8085 -6.0169 2.0079
3.3649 -5.7403 2.2414
4.3845 -4.5250 2.2414
5.0605 -3.1747 2.2414
5.4022 -1.7773 2.2414
5.4340 -0.4015 2.2414
5.1866 0.9003 2.2414
4.6919 2.0884 2.2414
3.9807 3.1315 2.2414
3.0816 4.0033 2.2414
2.0226 4.6790 2.2414
0.8319 5.1338 2.2414
-0.2350 2.7402 1.1499
-0.9289 2.7088 1.1511
-2.9546 4.5740 2.0890
-4.1737 3.9330 2.0890
-5.2677 2.9860 2.0890
-6.1468 1.7473 2.0890
-7.2030 0.2834 2.2414
-7.3774 -1.4762 2.2414
-6.5707 -3.0432 2.0890
-4.8878 -3.8694 1.7649
-4.5729 -5.8264 2.0890
-3.2721 -7.1414 2.2414
-1.4727 -7.5113 2.2414
0.3160 -7.3623 2.2414
1.7287 -6.0095 1.9933
3.3051 -5.7958 2.2414
4.3416 -4.5898 2.2414
5.0348 -3.2440 2.2414
5.3927 -1.8472 2.2414
5.4393 -0.4689 2.2414
5.2051 0.8376 2.2414
4.7220 2.0322 2.2414
4.0209 3.0832 2.2414
3.1306 3.9642 2.2414
2.0789 4.6503 2.2414
0.8941 5.1167 2.2414
-0.2010 2.7380 1.1498
-0.8938 2.7139 1.1510
-2.8918 4.5981 2.0890
-4.1150 3.9723 2.0890
-5.2173 3.0405 2.0890
-6.1095 1.8156 2.0890
-7.1822 0.3679 2.2414
-7.3802 -1.3863 2.2414
-6.5975 -2.9615 2.0890
-5.8354 -4.5087 2.0890
-4.6421 -5.7731 2.0890
-3.3593 -7.1089 2.2414
-1.5639 -7.5054 2.2414
0.2293 -7.3813 2.2414
1.6496 -6.0021 1.9793
3.2444 -5.8506 2.2414
4.2979 -4.6542 2.2414
5.0082 -3.3132 2.2414
5.3825 -1.9171 2.2414
5.4439 -0.5365 2.2414
5.2229 0.7746 2.2414
4.7516 1.9756 2.2414
4.0607 3.0345 2.2414
3.1792 3.9246 2.2414
2.1349 4.6210 2.2414
0.9560 5.0990 2.2414
-0.1671 2.7354 1.1498
-0.8587 2.7187 1.1509
-2.8288 4.6214 2.0890
-4.0560 4.0109 2.0890
-5.1664 3.0942 2.0890
-6.0713 1.8833 2.0890
-7.1603 0.4520 2.2414
-7.3817 -1.2964 2.2414
-6.6231 -2.8796 2.0890
-5.8845 -4.4368 2.0890
-4.7105 -5.7188 2.0890
-3.4460 -7.0752 2.2414
-1.6550 -7.4982 2.2414
0.1422 -7.3992 2.2414
1.5713 -5.9948 1.9657
3.1830 -5.9047 2.2414
4.2534 -4.7182 2.2414
4.9808 -3.3822 2.2414
5.3714 -1.9870 2.2414
5.4478 -0.6042 2.2414
5.2402 0.7114 2.2414
4.7806 1.9187 2.2414
4.1000 2.9853 2.2414
3.2274 3.8845 2.2414
2.1905 4.5911 2.2414
1.0177 5.0807 2.2414
-0.1332 2.7325 1.1497
-0.8237 2.7230 1.1509
-2.7658 4.6440 2.0890
-3.9968 4.0487 2.0890
-5.1150 3.1473 2.0890
-6.0325 1.9503 2.0890
-7.1373 0.5357 2.2414
-7.3820 -1.2066 2.2414
-6.6474 -2.7974 2.0890
-5.9324 -4.3642 2.0890
-4.7780 -5.6635 2.0890
-3.5322 -7.0401 2.2414
-1.7461 -7.4897 2.2414
0.0548 -7.4159 2.2414
1.4936 -5.9876 1.9525
3.1207 -5.9583 2.2414
4.2080 -4.7820 2.2414
4.9526 -3.4511 2.2414
5.3596 -2.0570 2.2414
5.4510 -0.6722 2.2414
5.2568 0.6479 2.2414
4.8091 1.8614 2.2414
4.1388 2.9358 2.2414
3.2751 3.8439 2.2414
2.2458 4.5608 2.2414
1.0791 5.0618 2.2414
-0.0995 2.7292 1.1497
-0.7887 2.7270 1.1508
-2.7027 4.6659 2.0890
-3.9372 4.0857 2.0890
-5.0630 3.1996 2.0890
-5.9929 2.0167 2.0890
-7.1133 0.6188 2.2414
-7.3811 -1.1170 2.2414
-6.6706 -2.7149 2.0890
-5.9792 -4.2909 2.0890
-4.8447 -5.6071 2.0890
-3.6179 -7.0037 2.2414
-1.8372 -7.4799 2.2414
-0.0331 -7.4313 2.2414
1.4633 -6.1773 2.0036
3.0576 -6.0112 2.2414
4.1617 -4.8453 2.2414
4.9235 -3.5198 2.2414
5.3470 -2.1270 2.2414
5.4535 -0.7403 2.2414
5.2728 0.5841 2.2414
4.8370 1.8038 2.2414
4.1772 2.8858 2.2414
3.3225 3.8028 2.2414
2.3008 4.5298 2.2414
1.1402 5.0422 2.2414
-0.0658 2.7256 1.1496
-0.7537 2.7306 1.1507
-2.6544 4.7136 2.1008
-3.8774 4.1220 2.0890
-5.0106 3.2511 2.0890
-5.9525 2.0824 2.0890
-7.0882 0.7015 2.2414
-7.3789 -1.0274 2.2414
-6.6925 -2.6322 2.0890
-6.0250 -4.2169 2.0890
-4.9106 -5.5498 2.0890
-3.7032 -6.9661 2.2414
-1.9282 -7.4687 2.2414
-0.1213 -7.4457 2.2414
1.4063 -6.2677 2.0224
2.9937 -6.0634 2.2414
4.1145 -4.9082 2.2414
4.8936 -3.5884 2.2414
5.3335 -2.1970 2.2414
5.4552 -0.8086 2.2414
5.2882 0.5201 2.2414
4.8644 1.7458 2.2414
4.2150 2.8354 2.2414
3.3694 3.7612 2.2414
2.3554 4.4984 2.2414
1.2011 5.0221 2.2414
-0.0322 2.7217 1.1495
-0.7187 2.7338 1.1507
-1.4207 2.5959 1.1520
-3.8173 4.1575 2.0890
-4.9577 3.3019 2.0890
-5.9114 2.1475 2.0890
-7.0621 0.7836 2.2414
-7.3755 -0.9382 2.2414
-7.2030 -2.7352 2.2414
-6.0695 -4.1424 2.0890
-4.9756 -5.4914 2.0890
-3.7879 -6.9271 2.2414
-2.0192 -7.4562 2.2414
-0.2098 -7.4587 2.2414
1.3330 -6.2892 2.0192
2.9290 -6.1150 2.2414
4.0665 -4.9707 2.2414
4.8628 -3.6568 2.2414
5.3193 -2.2671 2.2414
5.4563 -0.8770 2.2414
5.3029 0.4558 2.2414
4.8912 1.6875 2.2414
4.2524 2.7846 2.2414
3.4159 3.7192 2.2414
2.4097 4.4664 2.2414
1.2617 5.0014 2.2414
0.0012 2.7174 1.1495
-0.6838 2.7367 1.1506
-1.3856 2.6066 1.1519
-3.7570 4.1922 2.0890
-4.9044 3.3519 2.0890
-5.8696 2.2119 2.0890
-7.0350 0.8653 2.2414
-7.3708 -0.8491 2.2414
-7.2239 -2.6460 2.2414
-6.1129 -4.0672 2.0890
-5.0397 -5.4321 2.0890
-3.8721 -6.8869 2.2414
-2.1100 -7.4424 2.2414
-0.2986 -7.4706 2.2414
1.2637 -6.3319 2.0231
2.8635 -6.1658 2.2414
4.0177 -5.0328 2.2414
4.8312 -3.7250 2.2414
5.3043 -2.3371 2.2414
5.4566 -0.9455 2.2414
5.3170 0.3913 2.2414
4.9174 1.6289 2.2414
4.2892 2.7334 2.2414
3.4620 3.6768 2.2414
2.4636 4.4339 2.2414
1.3220 4.9800 2.2414
0.0346 2.7127 1.1494
-0.6489 2.7391 1.1506
-1.3506 2.6168 1.1518
-3.6965 4.2261 2.0890
-4.8506 3.4012 2.0890
-5.8272 2.2756 2.0890
-7.0068 0.9464 2.2414
-7.3650 -0.7602 2.2414
-7.2435 -2.5566 2.2414
-6.1552 -3.9914 2.0890
-5.1029 -5.3718 2.0890
-3.9556 -6.8454 2.2414
-2.2007 -7.4273 2.2414
-0.3877 -7.4813 2.2414
1.1996 -6.4061 2.0372
2.7973 -6.2159 2.2414
3.9680 -5.0944 2.2414
4.7987 -3.7930 2.2414
5.2885 -2.4072 2.2414
5.4561 -1.0142 2.2414
5.3304 0.3265 2.2414
4.9431 1.5699 2.2414
4.3256 2.6818 2.2414
3.5076 3.6338 2.2414
2.5171 4.4008 2.2414
1.3820 4.9581 2.2414
0.0679 2.7078 1.1494
-0.6141 2.7412 1.1505
-1.3155 2.6267 1.1518
-3.6357 4.2593 2.0890
-4.7963 3.4497 2.0890
-5.7840 2.3386 2.0890
-6.9777 1.0270 2.2414
-7.3579 -0.6715 2.2414
-7.2618 -2.4669 2.2414
-6.1963 -3.9152 2.0890
-5.1651 -5.3106 2.0890
-4.0387 -6.8026 2.2414
-2.2914 -7.4108 2.2414
-0.4770 -7.4907 2.2414
1.2391 -7.0801 2.2414
2.7302 -6.2654 2.2414
3.9173 -5.1557 2.2414
4.7654 -3.8607 2.2414
5.2719 -2.4771 2.2414
5.4550 -1.0830 2.2414
5.3432 0.2614 2.2414
4.9681 1.5107 2.2414
4.3615 2.6298 2.2414
3.5529 3.5904 2.2414
2.5704 4.3672 2.2414
1.4417 4.9357 2.2414
0.1010 2.7025 1.1493
-0.5794 2.7430 1.1504
-1.2804 2.6361 1.1517
-3.5747 4.2917 2.0890
-4.7417 3.4974 2.0890
-5.7402 2.4010 2.0890
-6.9476 1.1071 2.2414
-7.3496 -0.5832 2.2414
-7.2788 -2.3772 2.2414
-6.2363 -3.8382 2.0890
-5.2265 -5.2485 2.0890
-4.1210 -6.7587 2.2414
-2.3818 -7.3929 2.2414
-0.5667 -7.4990 2.2414
1.1578 -7.1111 2.2414
2.6625 -6.3140 2.2414
3.8659 -5.2164 2.2414
4.7311 -3.9283 2.2414
5.2544 -2.5472 2.2414
5.4531 -1.1520 2.2414
5.3553 0.1961 2.2414
4.9927 1.4510 2.2414
4.3969 2.5774 2.2414
3.5976 3.5466 2.2414
2.6232 4.3331 2.2414
1.5012 4.9126 2.2414
0.1341 2.6968 1.1493
-0.5447 2.7443 1.1504
-1.2453 2.6452 1.1516
-3.5135 4.3234 2.0890
-4.6865 3.5445 2.0890
-5.6957 2.4627 2.0890
-6.9165 1.1865 2.2414
-7.3402 -0.4950 2.2414
-7.2945 -2.2873 2.2414
-6.2751 -3.7608 2.0890
-5.2869 -5.1855 2.0890
-4.2028 -6.7134 2.2414
-2.4721 -7.3738 2.2414
-0.6565 -7.5059 2.2414
1.0759 -7.1410 2.2414
2.5939 -6.3620 2.2414
3.8136 -5.2767 2.2414
4.6961 -3.9957 2.2414
5.2362 -2.6171 2.2414
5.4505 -1.2211 2.2414
5.3667 0.1306 2.2414
5.0166 1.3911 2.2414
4.4317 2.5246 2.2414
3.6420 3.5022 2.2414
2.6757 4.2985 2.2414
1.5603 4.8889 2.2414
0.1670 2.6909 1.1492
-0.5100 2.7453 1.1503
-1.2101 2.6538 1.1516
-3.4521 4.3542 2.0890
-4.6311 3.5907 2.0890
-5.6506 2.5237 2.0890
-6.8845 1.2655 2.2414
-7.3296 -0.4072 2.2414
-7.3088 -2.1974 2.2414
-6.3127 -3.6828 2.0890
-5.3463 -5.1215 2.0890
-3.9926 -6.2136 2.0890
-2.5620 -7.3533 2.2414
-0.7466 -7.5116 2.2414
0.9934 -7.1700 2.2414
2.5246 -6.4091 2.2414
3.7605 -5.3365 2.2414
4.6601 -4.0628 2.2414
5.2171 -2.6871 2.2414
5.4471 -1.2902 2.2414
5.3775 0.0649 2.2414
5.0399 1.3308 2.2414
4.4661 2.4714 2.2414
3.6859 3.4575 2.2414
2.7277 4.2634 2.2414
1.6192 4.8646 2.2414
0.1999 2.6846 1.1492
-0.4754 2.7459 1.1503
-1.1750 2.6621 1.1515
-3.3905 4.3844 2.0890
-4.5751 3.6362 2.0890
-5.6048 2.5839 2.0890
-6.3857 1.2524 2.0890
-7.3177 -0.3196 2.2414
-7.3219 -2.1073 2.2414
-6.3491 -3.6044 2.0890
-5.4047 -5.0567 2.0890
-4.0676 -6.1690 2.0890
-2.6519 -7.3315 2.2414
-0.8368 -7.5161 2.2414
0.9105 -7.1978 2.2414
2.4545 -6.4555 2.2414
3.7065 -5.3958 2.2414
4.6234 -4.1296 2.2414
5.1972 -2.7569 2.2414
5.4430 -1.3596 2.2414
5.3876 -0.0012 2.2414
5.0626 1.2703 2.2414
4.4999 2.4178 2.2414
3.7294 3.4122 2.2414
2.7794 4.2277 2.2414
1.6777 4.8398 2.2414
0.2326 2.6780 1.1491
-0.4409 2.7462 1.1502
-1.1398 2.6699 1.1514
-3.3287 4.4137 2.0890
-4.5189 3.6808 2.0890
-5.5584 2.6435 2.0890
-6.3540 1.3249 2.0890
-7.3048 -0.2325 2.2414
-7.3337 -2.0173 2.2414
-6.3844 -3.5255 2.0890
-5.4622 -4.9910 2.0890
-4.1418 -6.1235 2.0890
-2.7414 -7.3083 2.2414
-0.9274 -7.5192 2.2414
0.8270 -7.2246 2.2414
2.3838 -6.5011 2.2414
3.6517 -5.4546 2.2414
4.5857 -4.1963 2.2414
5.1765 -2.8268 2.2414
5.4381 -1.4289 2.2414
5.3970 -0.0673 2.2414
5.0848 1.2093 2.2414
4.5332 2.3638 2.2414
3.7724 3.3666 2.2414
2.8307 4.1916 2.2414
1.7360 4.8144 2.2414
0.2652 2.6710 1.1491
-0.4064 2.7461 1.1501
-1.1047 2.6774 1.1514
-3.2667 4.4423 2.0890
-4.4622 3.7248 2.0890
-5.5114 2.7024 2.0890
-6.3216 1.3967 2.0890
-7.2906 -0.1455 2.2414
-7.3442 -1.9270 2.2414
-6.4184 -3.4461 2.0890
-5.5186 -4.9245 2.0890
-4.2155 -6.0767 2.0890
-2.8307 -7.2838 2.2414
-1.0180 -7.5212 2.2414
0.7431 -7.2503 2.2414
2.3122 -6.5459 2.2414
3.5960 -5.5128 2.2414
4.5472 -4.2626 2.2414
5.1550 -2.8965 2.2414
5.4324 -1.4984 2.2414
5.4058 -0.1338 2.2414
5.1064 1.1481 2.2414
4.5660 2.3095 2.2414
3.8150 3.3205 2.2414
2.8817 4.1549 2.2414
1.7940 4.7885 2.2414
0.2977 2.6637 1.1491
-0.3720 2.7456 1.1501
-1.0695 2.6845 1.1513
-3.2046 4.4702 2.0890
-4.4052 3.7680 2.0890
-5.4638 2.7606 2.0890
-6.2883 1.4681 2.0890
-7.2753 -0.0589 2.2414
-7.3534 -1.8369 2.2414
-6.4513 -3.3663 2.0890
-5.5741 -4.8571 2.0890
-4.2885 -6.0288 2.0890
-2.9196 -7.2580 2.2414
-1.1087 -7.5218 2.2414
0.6586 -7.2750 2.2414
2.2399 -6.5899 2.2414
3.5395 -5.5705 2.2414
4.5078 -4.3286 2.2414
5.1326 -2.9662 2.2414
5.4260 -1.5681 2.2414
5.4139 -0.2003 2.2414
5.1273 1.0866 2.2414
4.5983 2.2548 2.2414
3.8571 3.2738 2.2414
2.9323 4.1178 2.2414
1.8516 4.7620 2.2414
0.3301 2.6562 1.1490
-0.3376 2.7448 1.1500
-1.0343 2.6911 1.1512
-3.1423 4.4973 2.0890
-4.3478 3.8104 2.0890
-5.4156 2.8180 2.0890
-6.2541 1.5387 2.0890
-7.2590 0.0272 2.2414
-7.3613 -1.7467 2.2414
-6.4829 -3.2861 2.0890
-5.6284 -4.7890 2.0890
-4.3606 -5.9798 2.0890
-3.0083 -7.2308 2.2414
-1.1996 -7.5211 2.2414
0.5737 -7.2985 2.2414
2.1670 -6.6329 2.2414
3.4821 -5.6277 2.2414
4.4676 -4.3944 2.2414
5.1094 -3.0357 2.2414
5.4189 -1.6377 2.2414
5.4213 -0.2672 2.2414
5.1477 1.0248 2.2414
4.6300 2.1997 2.2414
3.8987 3.2269 2.2414
2.9825 4.0801 2.2414
1.9089 4.7349 2.2414
0.3623 2.6482 1.1490
-0.3034 2.7436 1.1500
-0.9992 2.6974 1.1512
-3.0799 4.5236 2.0890
-4.2901 3.8520 2.0890
-5.3669 2.8747 2.0890
-6.2192 1.6084 2.0890
-7.2414 0.1130 2.2414
-7.3679 -1.6566 2.2414
-6.5134 -3.2055 2.0890
-5.6818 -4.7201 2.0890
-4.4322 -5.9298 2.0890
-3.0966 -7.2024 2.2414
-1.2905 -7.5191 2.2414
0.4882 -7.3209 2.2414
1.8892 -6.0245 2.0229
3.4240 -5.6843 2.2414
4.4265 -4.4598 2.2414
5.0854 -3.1053 2.2414
5.4109 -1.7075 2.2414
5.4280 -0.3342 2.2414
5.1674 0.9627 2.2414
4.6612 2.1442 2.2414
3.9399 3.1794 2.2414
3.0322 4.0420 2.2414
1.9658 4.7073 2.2414
0.7694 5.1503 2.2414
-0.2692 2.7421 1.1499
-0.9641 2.7033 1.1511
-3.0173 4.5492 2.0890
-4.2321 3.8929 2.0890
-5.3176 2.9307 2.0890
-6.1834 1.6783 2.0890
-7.2228 0.1983 2.2414
-7.3733 -1.5664 2.2414
-6.5426 -3.1245 2.0890
-4.8646 -3.9453 1.7722
-4.5028 -5.8787 2.0890
-3.1845 -7.1725 2.2414
-1.3816 -7.5159 2.2414
0.4024 -7.3422 2.2414
1.8086 -6.0170 2.0079
3.3650 -5.7403 2.2414
4.3845 -4.5249 2.2414
5.0605 -3.1746 2.2414
5.4022 -1.7772 2.2414
5.4340 -0.4014 2.2414
5.1865 0.9003 2.2414
4.6918 2.0884 2.2414
3.9806 3.1316 2.2414
3.0816 4.0033 2.2414
2.0225 4.6790 2.2414
0.8318 5.1338 2.2414
-0.2351 2.7402 1.1499
-0.9289 2.7088 1.1511
-2.9546 4.5740 2.0890
-4.1738 3.9330 2.0890
-5.2677 2.9859 2.0890
-6.1468 1.7473 2.0890
-7.2030 0.2833 2.2414
-7.3774 -1.4764 2.2414
-6.5706 -3.0433 2.0890
-4.8878 -3.8694 1.7649
-4.5729 -5.8264 2.0890
-3.2720 -7.1414 2.2414
-1.4726 -7.5113 2.2414
0.3161 -7.3623 2.2414
1.7287 -6.0095 1.9934
3.3052 -5.7957 2.2414
4.3417 -4.5897 2.2414
5.0348 -3.2440 2.2414
5.3927 -1.8471 2.2414
5.4393 -0.4688 2.2414
5.2050 0.8377 2.2414
4.7220 2.0322 2.2414
4.0209 3.0832 2.2414
3.1306 3.9642 2.2414
2.0788 4.6503 2.2414
0.8940 5.1167 2.2414
-0.2011 2.7380 1.1498
-0.8939 2.7139 1.1510
-2.8918 4.5981 2.0890
-4.1150 3.9723 2.0890
-5.2173 3.0404 2.0890
-6.1095 1.8155 2.0890
-7.1822 0.3678 2.2414
-7.3802 -1.3863 2.2414
-6.5975 -2.9616 2.0890
-5.8354 -4.5088 2.0890
-4.6420 -5.7732 2.0890
-3.3592 -7.1089 2.2414
-1.5638 -7.5054 2.2414
0.2294 -7.3813 2.2414
1.6497 -6.0021 1.9793
3.2445 -5.8505 2.2414
4.2980 -4.6541 2.2414
5.0083 -3.3131 2.2414
5.3825 -1.9170 2.2414
5.4439 -0.5364 2.2414
5.2229 0.7747 2.2414
4.7515 1.9757 2.2414
4.0606 3.0346 2.2414
3.1792 3.9246 2.2414
2.1348 4.6210 2.2414
0.9559 5.0990 2.2414
-0.1671 2.7354 1.1498
-0.8588 2.7187 1.1509
-2.8289 4.6214 2.0890
-4.0561 4.0108 2.0890
-5.1664 3.0942 2.0890
-6.0714 1.8832 2.0890
-7.1603 0.4520 2.2414
-7.3817 -1.2965 2.2414
-6.6230 -2.8797 2.0890
-5.8844 -4.4368 2.0890
-4.7104 -5.7189 2.0890
-3.4458 -7.0752 2.2414
-1.6548 -7.4982 2.2414
0.1423 -7.3992 2.2414
1.5713 -5.9948 1.9657
3.1830 -5.9047 2.2414
4.2535 -4.7182 2.2414
4.9809 -3.3821 2.2414
5.3714 -1.9870 2.2414
5.4478 -0.6041 2.2414
5.2402 0.7115 2.2414
4.7806 1.9188 2.2414
4.1000 2.9854 2.2414
3.2273 3.8845 2.2414
2.1904 4.5912 2.2414
1.0176 5.0807 2.2414
-0.1333 2.7325 1.1497
-0.8237 2.7230 1.1509
-2.7659 4.6440 2.0890
-3.9968 4.0487 2.0890
-5.1150 3.1472 2.0890
-6.0325 1.9502 2.0890
-7.1373 0.5355 2.2414
-7.3820 -1.2067 2.2414
-6.6474 -2.7974 2.0890
-5.9323 -4.3643 2.0890
-4.7779 -5.6635 2.0890
-3.5321 -7.0401 2.2414
-1.7460 -7.4897 2.2414
0.0549 -7.4158 2.2414
1.4937 -5.9876 1.9525
3.1207 -5.9582 2.2414
4.2080 -4.7819 2.2414
4.9527 -3.4510 2.2414
5.3596 -2.0569 2.2414
5.4510 -0.6721 2.2414
5.2568 0.6479 2.2414
4.8091 1.8615 2.2414
4.1388 2.9359 2.2414
3.2751 3.8439 2.2414
2.2458 4.5608 2.2414
1.0790 5.0618 2.2414
-0.0995 2.7292 1.1497
-0.7887 2.7270 1.1508
-2.7027 4.6658 2.0890
-3.9373 4.0857 2.0890
-5.0631 3.1995 2.0890
-5.9929 2.0166 2.0890
-7.1133 0.6188 2.2414
-7.3811 -1.1171 2.2414
-6.6706 -2.7150 2.0890
-5.9792 -4.2910 2.0890
-4.8447 -5.6072 2.0890
-3.6178 -7.0038 2.2414
-1.8370 -7.4799 2.2414
-0.0330 -7.4313 2.2414
1.4633 -6.1772 2.0036
3.0577 -6.0111 2.2414
4.1618 -4.8452 2.2414
4.9236 -3.5197 2.2414
5.3470 -2.1269 2.2414
5.4535 -0.7402 2.2414
5.2728 0.5842 2.2414
4.8370 1.8039 2.2414
4.1771 2.8859 2.2414
3.3225 3.8028 2.2414
2.3007 4.5299 2.2414
1.1402 5.0422 2.2414
-0.0658 2.7256 1.1496
-0.7537 2.7306 1.1507
-2.6544 4.7135 2.1007
-3.8775 4.1219 2.0890
-5.0107 3.2511 2.0890
-5.9525 2.0824 2.0890
-7.0882 0.7014 2.2414
-7.3789 -1.0276 2.2414
-6.6925 -2.6322 2.0890
-6.0249 -4.2170 2.0890
-4.9105 -5.5499 2.0890
-3.7031 -6.9661 2.2414
-1.9281 -7.4687 2.2414
-0.1202 -6.8808 2.2414
1.4349 -6.4395 2.2414
2.7732 -5.6409 2.2414
3.8277 -4.5829 2.2414
4.5686 -3.3631 2.2414
4.9944 -2.0676 2.2414
5.1209 -0.7672 2.2414
4.9734 0.4827 2.2414
4.5807 1.6393 2.2414
3.9718 2.6690 2.2414
3.1747 3.5437 2.2414
2.2169 4.2384 2.2414
1.1266 4.7288 2.2414
-0.0335 2.5598 1.1497
-0.6789 2.5662 1.1508
-1.3356 2.4305 1.1520
-3.5761 3.8805 2.0890
-4.6281 3.0704 2.0890
-5.4989 1.9872 2.0890
-6.1015 0.6680 2.0890
-6.3523 -0.8156 2.0890
-6.1883 -2.3557 2.0890
-5.5863 -3.8161 2.0890
-4.5782 -5.0529 2.0890
-3.4897 -6.3755 2.2414
-1.8671 -6.8727 2.2414
-0.2019 -6.8919 2.2414
1.3615 -6.4708 2.2414
2.7127 -5.6878 2.2414
3.7823 -4.6404 2.2414
4.5392 -3.4265 2.2414
4.9804 -2.1330 2.2414
5.1213 -0.8314 2.2414
4.9869 0.4221 2.2414
4.6057 1.5843 2.2414
4.0069 2.6210 2.2414
3.2186 3.5041 2.2414
2.2682 4.2084 2.2414
1.1838 4.7095 2.2414
-0.0020 2.5560 1.1497
-0.6461 2.5692 1.1507
-1.3029 2.4409 1.1519
-3.5202 3.9136 2.0890
-4.5791 3.1175 2.0890
-5.4610 2.0474 2.0890
-6.0790 0.7386 2.0890
-6.3492 -0.7390 2.0890
-6.2069 -2.2794 2.0890
-5.6266 -3.7472 2.0890
-4.6370 -4.9984 2.0890
-3.5669 -6.3382 2.2414
-1.9506 -6.8593 2.2414
-0.2838 -6.9019 2.2414
1.2877 -6.5012 2.2414
2.6514 -5.7341 2.2414
3.7361 -4.6975 2.2414
4.5089 -3.4897 2.2414
4.9656 -2.1984 2.2414
5.1210 -0.8958 2.2414
4.9997 0.3613 2.2414
4.6302 1.5289 2.2414
4.0416 2.5726 2.2414
3.2621 3.4640 2.2414
2.3191 4.1778 2.2414
1.2407 4.6897 2.2414
0.0295 2.5518 1.1496
-0.6134 2.5718 1.1507
-1.2702 2.4508 1.1519
-3.4641 3.9459 2.0890
-4.5297 3.1640 2.0890
-5.4224 2.1070 2.0890
-6.0557 0.8088 2.0890
-6.3451 -0.6626 2.0890
-6.2244 -2.2029 2.0890
-5.6658 -3.6778 2.0890
-4.6951 -4.9431 2.0890
-3.6435 -6.2998 2.2414
-2.0339 -6.8446 2.2414
-0.3660 -6.9108 2.2414
1.2133 -6.5307 2.2414
2.5894 -5.7797 2.2414
3.6892 -4.7542 2.2414
4.4778 -3.5528 2.2414
4.9501 -2.2638 2.2414
5.1201 -0.9603 2.2414
5.0119 0.3002 2.2414
4.6541 1.4732 2.2414
4.0758 2.5238 2.2414
3.3052 3.4234 2.2414
2.3697 4.1467 2.2414
1.2974 4.6693 2.2414
0.0608 2.5474 1.1496
-0.5807 2.5740 1.1506
-1.2375 2.4604 1.1518
-3.4077 3.9776 2.0890
-4.4798 3.2098 2.0890
-5.3832 2.1660 2.0890
-6.0316 0.8785 2.0890
-6.3399 -0.5864 2.0890
-6.2408 -2.1262 2.0890
-5.7040 -3.6079 2.0890
-4.7524 -4.8869 2.0890
-3.7196 -6.2602 2.2414
-2.1170 -6.8288 2.2414
-0.4484 -6.9186 2.2414
1.1383 -6.5593 2.2414
2.5267 -5.8246 2.2414
3.6414 -4.8105 2.2414
4.4459 -3.6156 2.2414
4.9339 -2.3291 2.2414
5.1184 -1.0248 2.2414
5.0235 0.2390 2.2414
4.6775 1.4173 2.2414
4.1095 2.4746 2.2414
3.3478 3.3824 2.2414
2.4200 4.1151 2.2414
1.3538 4.6483 2.2414
0.0921 2.5426 1.1495
-0.5481 2.5759 1.1505
-1.2047 2.4696 1.1517
-3.3511 4.0085 2.0890
-4.4296 3.2549 2.0890
-5.3434 2.2243 2.0890
-6.0066 0.9478 2.0890
-6.3338 -0.5104 2.0890
-6.2561 -2.0494 2.0890
-5.7411 -3.5374 2.0890
-4.8088 -4.8299 2.0890
-3.7951 -6.2195 2.2414
-2.2001 -6.8117 2.2414
-0.5310 -6.9252 2.2414
1.0629 -6.5869 2.2414
2.4633 -5.8688 2.2414
3.5929 -4.8662 2.2414
4.4133 -3.6782 2.2414
4.9168 -2.3944 2.2414
5.1160 -1.0895 2.2414
5.0344 0.1775 2.2414
4.7003 1.3609 2.2414
4.1427 2.4251 2.2414
3.3901 3.3410 2.2414
2.4699 4.0830 2.2414
1.4100 4.6267 2.2414
0.1232 2.5374 1.1495
-0.5155 2.5775 1.1505
-1.1719 2.4784 1.1517
-3.2943 4.0387 2.0890
-4.3789 3.2993 2.0890
-5.3029 2.2821 2.0890
-5.9807 1.0167 2.0890
-6.3266 -0.4346 2.0890
-6.2703 -1.9725 2.0890
-5.7772 -3.4665 2.0890
-4.8643 -4.7720 2.0890
-3.7147 -5.9296 2.1514
-2.2829 -6.7935 2.2414
-0.6138 -6.9307 2.2414
0.9870 -6.6136 2.2414
2.3993 -5.9123 2.2414
3.5436 -4.9216 2.2414
4.3798 -3.7406 2.2414
4.8991 -2.4596 2.2414
5.1130 -1.1543 2.2414
5.0448 0.1158 2.2414
4.7226 1.3043 2.2414
4.1755 2.3752 2.2414
3.4319 3.2991 2.2414
2.5195 4.0504 2.2414
1.4658 4.6046 2.2414
0.1543 2.5320 1.1494
-0.4829 2.5787 1.1504
-1.1390 2.4868 1.1516
-3.2373 4.0682 2.0890
-4.3278 3.3430 2.0890
-5.2618 2.3392 2.0890
-5.9540 1.0850 2.0890
-6.3183 -0.3590 2.0890
-6.2834 -1.8955 2.0890
-5.8122 -3.3951 2.0890
-4.9190 -4.7134 2.0890
-3.6762 -5.7175 2.0890
-2.3655 -6.7740 2.2414
-0.6968 -6.9351 2.2414
0.9106 -6.6393 2.2414
2.3345 -5.9551 2.2414
3.4935 -4.9764 2.2414
4.3456 -3.8027 2.2414
4.8805 -2.5248 2.2414
5.1092 -1.2191 2.2414
5.0545 0.0539 2.2414
4.7442 1.2474 2.2414
4.2077 2.3249 2.2414
3.4733 3.2568 2.2414
2.5687 4.0173 2.2414
1.5214 4.5820 2.2414
0.1852 2.5263 1.1494
-0.4504 2.5795 1.1504
-1.1062 2.4949 1.1516
-3.1801 4.0970 2.0890
-4.2763 3.3860 2.0890
-5.2201 2.3957 2.0890
-5.9265 1.1529 2.0890
-6.3091 -0.2837 2.0890
-6.2954 -1.8184 2.0890
-5.8461 -3.3232 2.0890
-4.9728 -4.6540 2.0890
-3.7450 -5.6764 2.0890
-2.4479 -6.7533 2.2414
-0.7799 -6.9383 2.2414
0.8337 -6.6640 2.2414
2.2691 -5.9971 2.2414
3.4426 -5.0308 2.2414
4.3105 -3.8645 2.2414
4.8612 -2.5899 2.2414
5.1047 -1.2841 2.2414
5.0635 -0.0082 2.2414
4.7654 1.1902 2.2414
4.2395 2.2743 2.2414
3.5143 3.2141 2.2414
2.6175 3.9837 2.2414
1.5767 4.5588 2.2414
0.2161 2.5202 1.1493
-0.4180 2.5800 1.1503
-1.0733 2.5026 1.1515
-3.1227 4.1251 2.0890
-4.2244 3.4283 2.0890
-5.1778 2.4515 2.0890
-5.8982 1.2202 2.0890
-6.2989 -0.2086 2.0890
-6.3063 -1.7412 2.0890
-5.8790 -3.2509 2.0890
-5.0257 -4.5938 2.0890
-3.8131 -5.6343 2.0890
-2.5301 -6.7314 2.2414
-0.8632 -6.9403 2.2414
0.7564 -6.6877 2.2414
2.2031 -6.0384 2.2414
3.3910 -5.0847 2.2414
4.2747 -3.9261 2.2414
4.8411 -2.6550 2.2414
5.0995 -1.3491 2.2414
5.0719 -0.0705 2.2414
4.7859 1.1327 2.2414
4.2707 2.2233 2.2414
3.5549 3.1710 2.2414
2.6660 3.9497 2.2414
1.6317 4.5350 2.2414
0.2468 2.5139 1.1493
-0.3856 2.5802 1.1503
-1.0404 2.5099 1.1514
-3.0651 4.1525 2.0890
-4.1722 3.4698 2.0890
-5.1350 2.5067 2.0890
-5.8691 1.2871 2.0890
-6.2877 -0.1338 2.0890
-6.3161 -1.6639 2.0890
-5.9108 -3.1782 2.0890
-5.0776 -4.5328 2.0890
-3.8806 -5.5912 2.0890
-2.6119 -6.7084 2.2414
-0.9466 -6.9412 2.2414
0.6786 -6.7105 2.2414
2.1363 -6.0789 2.2414
3.3386 -5.1380 2.2414
4.2380 -3.9874 2.2414
4.8202 -2.7199 2.2414
5.0936 -1.4142 2.2414
5.0797 -0.1330 2.2414
4.8059 1.0750 2.2414
4.3015 2.1719 2.2414
3.5950 3.1274 2.2414
2.7142 3.9151 2.2414
1.6865 4.5107 2.2414
0.2775 2.5072 1.1492
-0.3532 2.5800 1.1502
-1.0075 2.5169 1.1514
-3.0073 4.1792 2.0890
-4.1196 3.5107 2.0890
-5.0915 2.5613 2.0890
-5.8392 1.3535 2.0890
-6.2755 -0.0592 2.0890
-6.3248 -1.5867 2.0890
-5.9415 -3.1050 2.0890
-5.1287 -4.4710 2.0890
-3.9475 -5.5471 2.0890
-2.6936 -6.6841 2.2414
-1.0301 -6.9409 2.2414
0.6005 -6.7322 2.2414
2.0690 -6.1186 2.2414
3.2854 -5.1909 2.2414
4.2006 -4.0485 2.2414
4.7986 -2.7848 2.2414
5.0870 -1.4794 2.2414
5.0868 -0.1957 2.2414
4.8253 1.0169 2.2414
4.3317 2.1202 2.2414
3.6347 3.0834 2.2414
2.7619 3.8801 2.2414
1.7409 4.4859 2.2414
0.3080 2.5002 1.1492
-0.3209 2.5795 1.1502
-0.9746 2.5234 1.1513
-2.9494 4.2052 2.0890
-4.0667 3.5509 2.0890
-5.0475 2.6152 2.0890
-5.8085 1.4193 2.0890
-6.2623 0.0151 2.0890
-6.3324 -1.5094 2.0890
-5.9711 -3.0315 2.0890
-5.1788 -4.4086 2.0890
-4.0137 -5.5020 2.0890
-2.7749 -6.6586 2.2414
-1.1138 -6.9394 2.2414
0.5219 -6.7529 2.2414
2.0009 -6.1576 2.2414
3.2315 -5.2432 2.2414
4.1623 -4.1092 2.2414
4.7762 -2.8496 2.2414
5.0796 -1.5446 2.2414
5.0932 -0.2585 2.2414
4.8441 0.9586 2.2414
4.3615 2.0681 2.2414
3.6740 3.0390 2.2414
2.8093 3.8446 2.2414
1.7950 4.4605 2.2414
0.3384 2.4929 1.1492
-0.2887 2.5787 1.1501
-0.9417 2.5296 1.1513
-2.8913 4.2304 2.0890
-4.0134 3.5903 2.0890
-5.0030 2.6685 2.0890
-5.7770 1.4846 2.0890
-6.2482 0.0890 2.0890
-6.3389 -1.4321 2.0890
-5.9996 -2.9576 2.0890
-5.2280 -4.3454 2.0890
-4.0793 -5.4559 2.0890
-2.8558 -6.6319 2.2414
-1.1974 -6.9368 2.2414
0.4429 -6.7726 2.2414
1.9323 -6.1958 2.2414
3.1768 -5.2949 2.2414
4.1233 -4.1696 2.2414
4.7530 -2.9142 2.2414
5.0715 -1.6099 2.2414
5.0990 -0.3216 2.2414
4.8624 0.9000 2.2414
4.3907 2.0157 2.2414
3.7128 2.9941 2.2414
2.8563 3.8086 2.2414
1.8489 4.4346 2.2414
0.7192 4.8477 2.2414
-0.2566 2.5775 1.1501
-0.9088 2.5355 1.1512
-2.8331 4.2551 2.0890
-3.9598 3.6291 2.0890
-4.9579 2.7210 2.0890
-5.7448 1.5494 2.0890
-6.2331 0.1627 2.0890
-6.3443 -1.3548 2.0890
-6.0271 -2.8834 2.0890
-4.8659 -3.9485 1.9264
-4.1442 -5.4088 2.0890
-2.9365 -6.6040 2.2414
-1.2812 -6.9330 2.2414
0.3635 -6.7912 2.2414
1.8630 -6.2331 2.2414
3.1214 -5.3461 2.2414
4.0834 -4.2297 2.2414
4.7290 -2.9788 2.2414
5.0627 -1.6752 2.2414
5.1042 -0.3847 2.2414
4.8800 0.8412 2.2414
4.4194 1.9630 2.2414
3.7511 2.9489 2.2414
2.9030 3.7722 2.2414
1.9024 4.4081 2.2414
0.7781 4.8325 2.2414
-0.2245 2.5759 1.1500
-0.8759 2.5410 1.1511
-2.7747 4.2789 2.0890
-3.9059 3.6671 2.0890
-4.9123 2.7730 2.0890
-5.7118 1.6136 2.0890
-6.2171 0.2359 2.0890
-6.3487 -1.2776 2.0890
-6.0534 -2.8089 2.0890
-4.8855 -3.8700 1.9171
-4.2084 -5.3608 2.0890
-3.0167 -6.5749 2.2414
-1.3649 -6.9280 2.2414
0.2837 -6.8088 2.2414
1.7932 -6.2696 2.2414
3.0652 -5.3968 2.2414
4.0428 -4.2895 2.2414
4.7043 -3.0432 2.2414
5.0532 -1.7405 2.2414
5.1086 -0.4481 2.2414
4.8971 0.7821 2.2414
4.4476 1.9099 2.2414
3.7890 2.9033 2.2414
2.9492 3.7353 2.2414
1.9556 4.3812 2.2414
0.8368 4.8166 2.2414
-0.1925 2.5741 1.1500
-0.8431 2.5461 1.1511
-2.7162 4.3020 2.0890
-3.8516 3.7045 2.0890
-4.8662 2.8242 2.0890
-5.6781 1.6773 2.0890
-6.2001 0.3088 2.0890
-6.3519 -1.2004 2.0890
-6.0786 -2.7340 2.0890
-5.3698 -4.1518 2.0890
-4.2719 -5.3118 2.0890
-3.0966 -6.5446 2.2414
-1.4487 -6.9218 2.2414
0.2036 -6.8254 2.2414
1.7227 -6.3053 2.2414
3.0083 -5.4468 2.2414
4.0014 -4.3489 2.2414
4.6787 -3.1074 2.2414
5.0429 -1.8059 2.2414
5.1124 -0.5116 2.2414
4.9136 0.7227 2.2414
4.4753 1.8564 2.2414
3.8265 2.8572 2.2414
2.9951 3.6979 2.2414
2.0085 4.3537 2.2414
0.8952 4.8003 2.2414
-0.1605 2.5719 1.1499
-0.8102 2.5508 1.1510
-2.6815 4.3635 2.1078
-3.7971 3.7411 2.0890
-4.8196 2.8748 2.0890
-5.6437 1.7404 2.0890
-6.1822 0.3814 2.0890
-6.3541 -1.1232 2.0890
-6.1028 -2.6589 2.0890
-5.4151 -4.0859 2.0890
-4.3346 -5.2618 2.0890
-3.1761 -6.5131 2.2414
-1.5324 -6.9143 2.2414
0.1231 -6.8409 2.2414
1.6516 -6.3402 2.2414
2.9507 -5.4962 2.2414
3.9592 -4.4079 2.2414
4.6524 -3.1716 2.2414
5.0319 -1.8713 2.2414
5.1156 -0.5753 2.2414
4.9294 0.6631 2.2414
4.5024 1.8027 2.2414
3.8635 2.8108 2.2414
3.0406 3.6601 2.2414
2.0611 4.3256 2.2414
0.9534 4.7833 2.2414
-0.1287 2.5694 1.1499
-0.7773 2.5552 1.1510
-1.4334 2.3972 1.1522
-3.7423 3.7770 2.0890
-4.7724 2.9247 2.0890
-5.6086 1.8030 2.0890
-6.1634 0.4537 2.0890
-6.3553 -1.0462 2.0890
-6.1258 -2.5835 2.0890
-5.4594 -4.0194 2.0890
-4.3967 -5.2110 2.0890
-3.2552 -6.4805 2.2414
-1.6162 -6.9057 2.2414
0.0424 -6.8553 2.2414
1.5800 -6.3741 2.2414
2.8923 -5.5451 2.2414
3.9161 -4.4666 2.2414
4.6253 -3.2355 2.2414
5.0201 -1.9367 2.2414
5.1180 -0.6391 2.2414
4.9447 0.6032 2.2414
4.5291 1.7486 2.2414
3.9001 2.7639 2.2414
3.0856 3.6218 2.2414
2.1133 4.2971 2.2414
1.0113 4.7657 2.2414
-0.0969 2.5665 1.1498
-0.7445 2.5592 1.1509
-1.4009 2.4087 1.1521
-3.6872 3.8122 2.0890
-4.7248 2.9739 2.0890
-5.5727 1.8649 2.0890
-6.1437 0.5255 2.0890
-6.3553 -0.9692 2.0890
-6.1478 -2.5078 2.0890
-5.5027 -3.9522 2.0890
-4.4579 -5.1592 2.0890
-3.3338 -6.4467 2.2414
-1.6999 -6.8959 2.2414
-0.0387 -6.8686 2.2414
1.5078 -6.4072 2.2414
2.8332 -5.5933 2.2414
3.8723 -4.5249 2.2414
4.5974 -3.2993 2.2414
5.0076 -2.0021 2.2414
5.1198 -0.7030 2.2414
4.9594 0.5431 2.2414
4.5551 1.6941 2.2414
3.9361 2.7167 2.2414
3.1303 3.5830 2.2414
2.1653 4.2680 2.2414
1.0691 4.7476 2.2414
-0.0652 2.5633 1.1498
-0.7117 2.5629 1.1508
-1.3683 2.4198 1.1521
-3.6318 3.8467 2.0890
-4.6767 3.0225 2.0890
-5.5361 1.9264 2.0890
-6.1230 0.5969 2.0890
-6.3544 -0.8924 2.0890
-6.1686 -2.4319 2.0890
-5.5450 -3.8845 2.0890
-4.5184 -5.1065 2.0890
-3.4120 -6.4117 2.2414
-1.7835 -6.8849 2.2414
-0.1202 -6.8808 2.2414
1.4350 -6.4395 2.2414
2.7733 -5.6409 2.2414
3.8277 -4.5829 2.2414
4.5687 -3.3630 2.2414
4.9944 -2.0675 2.2414
5.1209 -0.7672 2.2414
4.9734 0.4827 2.2414
4.5807 1.6394 2.2414
3.9717 2.6691 2.2414
3.1747 3.5438 2.2414
2.2169 4.2385 2.2414
1.1265 4.7288 2.2414
-0.0336 2.5598 1.1497
-0.6789 2.5662 1.1508
-1.3357 2.4305 1.1520
-3.5761 3.8805 2.0890
-4.6282 3.0703 2.0890
-5.4989 1.9871 2.0890
-6.1015 0.6679 2.0890
-6.3523 -0.8156 2.0890
-6.1883 -2.3558 2.0890
-5.5863 -3.8162 2.0890
-4.5781 -5.0529 2.0890
-3.4896 -6.3755 2.2414
-1.8670 -6.8727 2.2414
-0.2018 -6.8919 2.2414
1.3616 -6.4708 2.2414
2.7127 -5.6878 2.2414
3.7824 -4.6404 2.2414
4.5392 -3.4264 2.2414
4.9804 -2.1329 2.2414
5.1213 -0.8314 2.2414
4.9869 0.4222 2.2414
4.6057 1.5843 2.2414
4.0069 2.6210 2.2414
3.2186 3.5041 2.2414
2.2681 4.2084 2.2414
1.1837 4.7095 2.2414
-0.0020 2.5560 1.1497
-0.6462 2.5692 1.1507
-1.3030 2.4409 1.1519
-3.5202 3.9136 2.0890
-4.5792 3.1175 2.0890
-5.4610 2.0473 2.0890
-6.0791 0.7385 2.0890
-6.3492 -0.7391 2.0890
-6.2069 -2.2795 2.0890
-5.6266 -3.7473 2.0890
-4.6370 -4.9985 2.0890
-3.5668 -6.3382 2.2414
-1.9505 -6.8593 2.2414
-0.2838 -6.9019 2.2414
1.2878 -6.5012 2.2414
2.6514 -5.7341 2.2414
3.7362 -4.6975 2.2414
4.5089 -3.4897 2.2414
4.9657 -2.1983 2.2414
5.1210 -0.8957 2.2414
4.9997 0.3613 2.2414
4.6302 1.5289 2.2414
4.0416 2.5726 2.2414
3.2621 3.4640 2.2414
2.3191 4.1778 2.2414
1.2407 4.6897 2.2414
0.0294 2.5518 1.1496
-0.6134 2.5718 1.1507
-1.2703 2.4508 1.1519
-3.4641 3.9459 2.0890
-4.5298 3.1640 2.0890
-5.4225 2.1069 2.0890
-6.0558 0.8087 2.0890
-6.3451 -0.6628 2.0890
-6.2244 -2.2030 2.0890
-5.6658 -3.6779 2.0890
-4.6951 -4.9431 2.0890
-3.6434 -6.2998 2.2414
-2.0338 -6.8447 2.2414
-0.3659 -6.9108 2.2414
1.2133 -6.5307 2.2414
2.5895 -5.7796 2.2414
3.6892 -4.7542 2.2414
4.4778 -3.5527 2.2414
4.9501 -2.2637 2.2414
5.1201 -0.9602 2.2414
5.0119 0.3003 2.2414
4.6541 1.4732 2.2414
4.0758 2.5238 2.2414
3.3051 3.4235 2.2414
2.3697 4.1467 2.2414
1.2974 4.6693 2.2414
0.0608 2.5474 1.1496
-0.5808 2.5740 1.1506
-1.2375 2.4604 1.1518
-3.4077 3.9776 2.0890
-4.4799 3.2098 2.0890
-5.3833 2.1659 2.0890
-6.0316 0.8785 2.0890
-6.3399 -0.5865 2.0890
-6.2408 -2.1263 2.0890
-5.7039 -3.6080 2.0890
-4.7523 -4.8870 2.0890
-3.7195 -6.2602 2.2414
-2.1170 -6.8288 2.2414
-0.4483 -6.9186 2.2414
1.1384 -6.5592 2.2414
2.5268 -5.8246 2.2414
3.6414 -4.8104 2.2414
4.4460 -3.6155 2.2414
4.9339 -2.3290 2.2414
5.1184 -1.0248 2.2414
5.0235 0.2390 2.2414
4.6775 1.4173 2.2414
4.1095 2.4747 2.2414
3.3478 3.3825 2.2414
2.4200 4.1151 2.2414
1.3537 4.6483 2.2414
0.0920 2.5426 1.1495
-0.5481 2.5759 1.1505
-1.2047 2.4696 1.1517
-3.3512 4.0085 2.0890
-4.4296 3.2548 2.0890
-5.3434 2.2243 2.0890
-6.0066 0.9478 2.0890
-6.3338 -0.5105 2.0890
-6.2561 -2.0495 2.0890
-5.7411 -3.5375 2.0890
-4.8087 -4.8299 2.0890
-3.7950 -6.2195 2.2414
-2.1999 -6.8118 2.2414
-0.5309 -6.9252 2.2414
1.0630 -6.5869 2.2414
2.4634 -5.8687 2.2414
3.5929 -4.8662 2.2414
4.4133 -3.6782 2.2414
4.9169 -2.3944 2.2414
5.1160 -1.0894 2.2414
5.0344 0.1775 2.2414
4.7003 1.3609 2.2414
4.1427 2.4251 2.2414
3.3900 3.3411 2.2414
2.4699 4.0830 2.2414
1.4099 4.6267 2.2414
0.1232 2.5374 1.1495
-0.5155 2.5775 1.1505
-1.1719 2.4784 1.1517
-3.2944 4.0387 2.0890
-4.3789 3.2993 2.0890
-5.3030 2.2820 2.0890
-5.9808 1.0166 2.0890
-6.3266 -0.4347 2.0890
-6.2703 -1.9726 2.0890
-5.7771 -3.4666 2.0890
-4.8642 -4.7721 2.0890
-3.7151 -5.9304 2.1517
-2.2828 -6.7935 2.2414
-0.6137 -6.9307 2.2414
0.9871 -6.6135 2.2414
2.3993 -5.9122 2.2414
3.5436 -4.9215 2.2414
4.3799 -3.7405 2.2414
4.8991 -2.4596 2.2414
5.1130 -1.1542 2.2414
5.0448 0.1158 2.2414
4.7225 1.3044 2.2414
4.1754 2.3753 2.2414
3.4319 3.2992 2.2414
2.5194 4.0504 2.2414
1.4657 4.6047 2.2414
0.1542 2.5320 1.1494
-0.4830 2.5787 1.1504
-1.1390 2.4868 1.1516
-3.2374 4.0682 2.0890
-4.3278 3.3429 2.0890
-5.2619 2.3391 2.0890
-5.9541 1.0850 2.0890
-6.3184 -0.3592 2.0890
-6.2834 -1.8956 2.0890
-5.8121 -3.3951 2.0890
-4.9190 -4.7134 2.0890
-3.6761 -5.7176 2.0890
-2.3654 -6.7740 2.2414
-0.6967 -6.9351 2.2414
0.9106 -6.6392 2.2414
2.3347 -5.9550 2.2414
3.4936 -4.9764 2.2414
4.3456 -3.8026 2.2414
4.8805 -2.5248 2.2414
5.1092 -1.2190 2.2414
5.0544 0.0540 2.2414
4.7442 1.2474 2.2414
4.2077 2.3249 2.2414
3.4733 3.2569 2.2414
2.5686 4.0174 2.2414
1.5214 4.5820 2.2414
0.1852 2.5263 1.1494
-0.4505 2.5795 1.1504
-1.1062 2.4949 1.1516
-3.1801 4.0970 2.0890
-4.2763 3.3859 2.0890
-5.2202 2.3956 2.0890
-5.9266 1.1528 2.0890
-6.3091 -0.2838 2.0890
-6.2954 -1.8184 2.0890
-5.8461 -3.3233 2.0890
-4.9727 -4.6540 2.0890
-3.7449 -5.6765 2.0890
-2.4478 -6.7533 2.2414
-0.7798 -6.9383 2.2414
0.8338 -6.6639 2.2414
2.2692 -5.9971 2.2414
3.4427 -5.0308 2.2414
4.3106 -3.8644 2.2414
4.8612 -2.5899 2.2414
5.1047 -1.2840 2.2414
5.0635 -0.0082 2.2414
4.7653 1.1903 2.2414
4.2394 2.2743 2.2414
3.5143 3.2141 2.2414
2.6175 3.9838 2.2414
1.5766 4.5588 2.2414
0.2160 2.5202 1.1493
-0.4180 2.5800 1.1503
-1.0733 2.5026 1.1515
-3.1228 4.1251 2.0890
-4.2245 3.4282 2.0890
-5.1779 2.4515 2.0890
-5.8982 1.2202 2.0890
-6.2989 -0.2087 2.0890
-6.3063 -1.7413 2.0890
-5.8789 -3.2510 2.0890
-5.0256 -4.5938 2.0890
-3.8130 -5.6344 2.0890
-2.5299 -6.7315 2.2414
-0.8631 -6.9403 2.2414
0.7565 -6.6877 2.2414
2.2032 -6.0383 2.2414
3.3911 -5.0846 2.2414
4.2747 -3.9261 2.2414
4.8411 -2.6549 2.2414
5.0995 -1.3490 2.2414
5.0719 -0.0704 2.2414
4.7859 1.1328 2.2414
4.2707 2.2233 2.2414
3.5548 3.1710 2.2414
2.6660 3.9497 2.2414
1.6317 4.5350 2.2414
0.2468 2.5139 1.1493
-0.3856 2.5802 1.1503
-1.0405 2.5099 1.1514
-3.0651 4.1525 2.0890
-4.1722 3.4698 2.0890
-5.1350 2.5067 2.0890
-5.8691 1.2870 2.0890
-6.2877 -0.1339 2.0890
-6.3161 -1.6640 2.0890
-5.9108 -3.1782 2.0890
-5.0776 -4.5329 2.0890
-3.8805 -5.5913 2.0890
-2.6119 -6.7084 2.2414
-0.9466 -6.9412 2.2414
0.6788 -6.7104 2.2414
2.1364 -6.0788 2.2414
3.3386 -5.1380 2.2414
4.2380 -3.9874 2.2414
4.8203 -2.7199 2.2414
5.0936 -1.4141 2.2414
5.0797 -0.1330 2.2414
4.8059 1.0750 2.2414
4.3014 2.1720 2.2414
3.5950 3.1274 2.2414
2.7141 3.9152 2.2414
1.6864 4.5107 2.2414
0.2774 2.5072 1.1492
-0.3533 2.5800 1.1502
-1.0075 2.5169 1.1514
-3.0073 4.1792 2.0890
-4.1197 3.5107 2.0890
-5.0916 2.5612 2.0890
-5.8392 1.3534 2.0890
-6.2755 -0.0592 2.0890
-6.3248 -1.5868 2.0890
-5.9414 -3.1051 2.0890
-5.1287 -4.4711 2.0890
-3.9474 -5.5471 2.0890
-2.6934 -6.6841 2.2414
-1.0301 -6.9409 2.2414
0.6005 -6.7322 2.2414
2.0690 -6.1186 2.2414
3.2855 -5.1908 2.2414
4.2006 -4.0484 2.2414
4.7986 -2.7848 2.2414
5.0870 -1.4793 2.2414
5.0868 -0.1956 2.2414
4.8253 1.0170 2.2414
4.3317 2.1202 2.2414
3.6347 3.0834 2.2414
2.7618 3.8802 2.2414
1.7408 4.4859 2.2414
0.3080 2.5002 1.1492
-0.3210 2.5795 1.1502
-0.9747 2.5234 1.1513
-2.9495 4.2051 2.0890
-4.0667 3.5509 2.0890
-5.0476 2.6152 2.0890
-5.8085 1.4192 2.0890
-6.2624 0.0150 2.0890
-6.3324 -1.5094 2.0890
-5.9711 -3.0315 2.0890
-5.1788 -4.4087 2.0890
-4.0136 -5.5020 2.0890
-2.7748 -6.6586 2.2414
-1.1137 -6.9394 2.2414
0.5220 -6.7529 2.2414
2.0010 -6.1576 2.2414
3.2316 -5.2431 2.2414
4.1623 -4.1092 2.2414
4.7762 -2.8495 2.2414
5.0796 -1.5445 2.2414
5.0932 -0.2585 2.2414
4.8441 0.9586 2.2414
4.3614 2.0682 2.2414
3.6739 3.0390 2.2414
2.8093 3.8446 2.2414
1.7950 4.4605 2.2414
0.3384 2.4929 1.1492
-0.2888 2.5787 1.1501
-0.9417 2.5296 1.1513
-2.8913 4.2304 2.0890
-4.0135 3.5903 2.0890
-5.0031 2.6684 2.0890
-5.7770 1.4846 2.0890
-6.2482 0.0889 2.0890
-6.3389 -1.4322 2.0890
-5.9996 -2.9577 2.0890
-5.2280 -4.3455 2.0890
-4.0793 -5.4559 2.0890
-2.8557 -6.6319 2.2414
-1.1973 -6.9368 2.2414
0.4429 -6.7726 2.2414
1.9323 -6.1957 2.2414
3.1769 -5.2949 2.2414
4.1233 -4.1695 2.2414
4.7530 -2.9142 2.2414
5.0715 -1.6098 2.2414
5.0990 -0.3215 2.2414
4.8624 0.9001 2.2414
4.3907 2.0158 2.2414
3.7127 2.9942 2.2414
2.8562 3.8087 2.2414
1.8488 4.4346 2.2414
0.7192 4.8477 2.2414
-0.2566 2.5775 1.1501
-0.9089 2.5355 1.1512
-2.8332 4.2549 2.0890
-3.9598 3.6291 2.0890
-4.9579 2.7210 2.0890
-5.7449 1.5493 2.0890
-6.2331 0.1625 2.0890
-6.3443 -1.3549 2.0890
-6.0270 -2.8835 2.0890
-4.8660 -3.9488 1.9265
-4.1441 -5.4089 2.0890
-2.9364 -6.6040 2.2414
-1.2811 -6.9330 2.2414
0.3636 -6.7912 2.2414
1.8631 -6.2331 2.2414
3.1215 -5.3461 2.2414
4.0835 -4.2297 2.2414
4.7290 -2.9787 2.2414
5.0627 -1.6751 2.2414
5.1042 -0.3847 2.2414
4.8800 0.8412 2.2414
4.4194 1.9630 2.2414
3.7511 2.9490 2.2414
2.9029 3.7722 2.2414
1.9023 4.4081 2.2414
0.7780 4.8325 2.2414
-0.2245 2.5759 1.1500
-0.8760 2.5410 1.1511
-2.7747 4.2788 2.0890
-3.9059 3.6671 2.0890
-4.9124 2.7729 2.0890
-5.7119 1.6136 2.0890
-6.2171 0.2359 2.0890
-6.3487 -1.2777 2.0890
-6.0534 -2.8090 2.0890
-4.8855 -3.8701 1.9171
-4.2083 -5.3608 2.0890
-3.0166 -6.5749 2.2414
-1.3648 -6.9280 2.2414
0.2838 -6.8088 2.2414
1.7932 -6.2696 2.2414
3.0653 -5.3967 2.2414
4.0429 -4.2894 2.2414
4.7043 -3.0431 2.2414
5.0532 -1.7405 2.2414
5.1086 -0.4480 2.2414
4.8971 0.7821 2.2414
4.4476 1.9099 2.2414
3.7890 2.9033 2.2414
2.9491 3.7353 2.2414
1.9555 4.3812 2.2414
0.8367 4.8167 2.2414
-0.1925 2.5741 1.1500
-0.8431 2.5461 1.1511
-2.7163 4.3020 2.0890
-3.8517 3.7045 2.0890
-4.8662 2.8242 2.0890
-5.6782 1.6772 2.0890
-6.2001 0.3088 2.0890
-6.3519 -1.2004 2.0890
-6.0786 -2.7341 2.0890
-5.3697 -4.1518 2.0890
-4.2718 -5.3118 2.0890
-3.0966 -6.5446 2.2414
-1.4486 -6.9217 2.2414
0.2037 -6.8254 2.2414
1.7228 -6.3053 2.2414
3.0084 -5.4468 2.2414
4.0014 -4.3488 2.2414
4.6788 -3.1074 2.2414
5.0429 -1.8058 2.2414
5.1124 -0.5116 2.2414
4.9136 0.7227 2.2414
4.4753 1.8565 2.2414
3.8265 2.8572 2.2414
2.9950 3.6979 2.2414
2.0085 4.3537 2.2414
0.8951 4.8003 2.2414
-0.1606 2.5719 1.1499
-0.8102 2.5508 1.1510
-2.6815 4.3633 2.1077
-3.7972 3.7410 2.0890
-4.8196 2.8747 2.0890
-5.6437 1.7404 2.0890
-6.1822 0.3814 2.0890
-6.3541 -1.1233 2.0890
-6.1028 -2.6590 2.0890
-5.4151 -4.0859 2.0890
-4.3346 -5.2619 2.0890
-3.1760 -6.5132 2.2414
-1.5323 -6.9143 2.2414
0.1232 -6.8408 2.2414
1.6517 -6.3401 2.2414
2.9507 -5.4962 2.2414
3.9592 -4.4078 2.2414
4.6524 -3.1715 2.2414
5.0319 -1.8712 2.2414
5.1156 -0.5752 2.2414
4.9294 0.6632 2.2414
4.5024 1.8027 2.2414
3.8635 2.8108 2.2414
3.0405 3.6601 2.2414
2.0610 4.3257 2.2414
0.9533 4.7833 2.2414
-0.1287 2.5694 1.1499
-0.7774 2.5552 1.1510
-1.4335 2.3972 1.1522
-3.7423 3.7770 2.0890
-4.7725 2.9247 2.0890
-5.6086 1.8029 2.0890
-6.1634 0.4536 2.0890
-6.3553 -1.0462 2.0890
-6.1258 -2.5835 2.0890
-5.4593 -4.0195 2.0890
-4.3966 -5.2110 2.0890
-3.2551 -6.4805 2.2414
-1.6161 -6.9057 2.2414
0.0425 -6.8552 2.2414
1.5801 -6.3741 2.2414
2.8923 -5.5450 2.2414
3.9162 -4.4666 2.2414
4.6253 -3.2355 2.2414
5.0202 -1.9366 2.2414
5.1180 -0.6390 2.2414
4.9447 0.6033 2.2414
4.5290 1.7486 2.2414
3.9000 2.7640 2.2414
3.0856 3.6218 2.2414
2.1133 4.2971 2.2414
1.0113 4.7657 2.2414
-0.0969 2.5665 1.1498
-0.7445 2.5592 1.1509
-1.4009 2.4087 1.1521
-3.6872 3.8122 2.0890
-4.7249 2.9739 2.0890
-5.5727 1.8649 2.0890
-6.1437 0.5255 2.0890
-6.3553 -0.9693 2.0890
-6.1477 -2.5079 2.0890
-5.5027 -3.9523 2.0890
-4.4579 -5.1592 2.0890
-3.3337 -6.4467 2.2414
-1.6997 -6.8959 2.2414
-0.0387 -6.8686 2.2414
1.5078 -6.4072 2.2414
2.8332 -5.5932 2.2414
3.8724 -4.5249 2.2414
4.5974 -3.2993 2.2414
5.0077 -2.0021 2.2414
5.1198 -0.7030 2.2414
4.9594 0.5432 2.2414
4.5551 1.6942 2.2414
3.9361 2.7167 2.2414
3.1303 3.5830 2.2414
2.1652 4.2681 2.2414
1.0690 4.7476 2.2414
-0.0652 2.5633 1.1498
-0.7117 2.5629 1.1508
-1.3683 2.4198 1.1521
-3.6318 3.8467 2.0890
-4.6768 3.0224 2.0890
-5.5362 1.9263 2.0890
-6.1230 0.5968 2.0890
-6.3544 -0.8925 2.0890
-6.1686 -2.4319 2.0890
-5.5450 -3.8845 2.0890
-4.5183 -5.1066 2.0890
-3.4119 -6.4117 2.2414
-1.7834 -6.8849 2.2414
-0.1192 -6.3890 2.2414
1.3266 -5.9957 2.2414
2.5789 -5.2685 2.2414
3.5733 -4.2943 2.2414
4.2787 -3.1619 2.2414
4.6901 -1.9514 2.2414
4.8196 -0.7299 2.2414
4.6888 0.4489 2.2414
4.3235 1.5428 2.2414
3.7508 2.5179 2.2414
2.9977 3.3461 2.2414
2.0911 4.0024 2.2414
1.0590 4.4629 2.2414
-0.0347 2.4133 1.1499
-0.6430 2.4151 1.1509
-1.2594 2.2821 1.1520
-3.3608 3.6333 2.0890
-4.3357 2.8649 2.0890
-5.1352 1.8458 2.0890
-5.6805 0.6133 2.0890
-5.8980 -0.7645 2.0890
-5.7333 -2.1880 2.0890
-5.1688 -3.5343 2.0890
-4.2351 -4.6744 2.0890
-3.2320 -5.8990 2.2414
-1.7353 -6.3671 2.2414
-0.1949 -6.3985 2.2414
1.2583 -6.0240 2.2414
2.5221 -5.3114 2.2414
3.5303 -4.3475 2.2414
4.2504 -3.2210 2.2414
4.6764 -2.0127 2.2414
4.8195 -0.7904 2.2414
4.7011 0.3917 2.2414
4.3469 1.4906 2.2414
3.7840 2.4724 2.2414
3.0392 3.3086 2.2414
2.1396 3.9740 2.2414
1.1131 4.4449 2.2414
-0.0049 2.4099 1.1498
-0.6122 2.4182 1.1508
-1.2288 2.2921 1.1520
-3.3088 3.6648 2.0890
-4.2905 2.9095 2.0890
-5.1006 1.9023 2.0890
-5.6605 0.6791 2.0890
-5.8958 -0.6935 2.0890
-5.7511 -2.1176 2.0890
-5.2063 -3.4708 2.0890
-4.2895 -4.6241 2.0890
-3.3031 -5.8643 2.2414
-1.8123 -6.3541 2.2414
-0.2709 -6.4070 2.2414
1.1894 -6.0514 2.2414
2.4645 -5.3538 2.2414
3.4866 -4.4003 2.2414
4.2214 -3.2799 2.2414
4.6619 -2.0740 2.2414
4.8188 -0.8509 2.2414
4.7128 0.3342 2.2414
4.3698 1.4382 2.2414
3.8166 2.4265 2.2414
3.0804 3.2706 2.2414
2.1879 3.9452 2.2414
1.1670 4.4263 2.2414
0.0248 2.4062 1.1498
-0.5814 2.4208 1.1508
-1.1981 2.3018 1.1519
-3.2565 3.6957 2.0890
-4.2449 2.9534 2.0890
-5.0654 1.9582 2.0890
-5.6397 0.7445 2.0890
-5.8927 -0.6228 2.0890
-5.7678 -2.0470 2.0890
-5.2428 -3.4069 2.0890
-4.3432 -4.5731 2.0890
-3.3738 -5.8285 2.2414
-1.8892 -6.3400 2.2414
-0.3470 -6.4145 2.2414
1.1200 -6.0779 2.2414
2.4064 -5.3955 2.2414
3.4421 -4.4526 2.2414
4.1917 -3.3386 2.2414
4.6468 -2.1352 2.2414
4.8174 -0.9116 2.2414
4.7240 0.2766 2.2414
4.3922 1.3855 2.2414
3.8489 2.3804 2.2414
3.1211 3.2323 2.2414
2.2358 3.9158 2.2414
1.2206 4.4072 2.2414
0.0544 2.4021 1.1497
-0.5506 2.4232 1.1507
-1.1674 2.3110 1.1518
-3.2041 3.7259 2.0890
-4.1988 2.9967 2.0890
-5.0296 2.0135 2.0890
-5.6180 0.8095 2.0890
-5.8887 -0.5521 2.0890
-5.7836 -1.9763 2.0890
-5.2784 -3.3424 2.0890
-4.3961 -4.5213 2.0890
-3.4439 -5.7917 2.2414
-1.9660 -6.3248 2.2414
-0.4234 -6.4209 2.2414
1.0503 -6.1036 2.2414
2.3476 -5.4365 2.2414
3.3970 -4.5045 2.2414
4.1613 -3.3970 2.2414
4.6309 -2.1963 2.2414
4.8153 -0.9723 2.2414
4.7345 0.2187 2.2414
4.4140 1.3325 2.2414
3.8806 2.3338 2.2414
3.1615 3.1935 2.2414
2.2834 3.8860 2.2414
1.2740 4.3876 2.2414
0.0839 2.3978 1.1497
-0.5199 2.4252 1.1507
-1.1367 2.3200 1.1518
-3.1514 3.7554 2.0890
-4.1523 3.0394 2.0890
-4.9931 2.0683 2.0890
-5.5955 0.8741 2.0890
-5.8837 -0.4816 2.0890
-5.7983 -1.9053 2.0890
-5.3130 -3.2775 2.0890
-4.4482 -4.4687 2.0890
-3.5136 -5.7539 2.2414
-2.0426 -6.3085 2.2414
-0.4999 -6.4263 2.2414
0.9800 -6.1285 2.2414
2.2882 -5.4769 2.2414
3.3511 -4.5560 2.2414
4.1301 -3.4552 2.2414
4.6144 -2.2574 2.2414
