ply
format ascii 1.0
element vertex 2067
property float32 x
property float32 y
property float32 z
end_header
-25.3618 5.1901 -0.1238
-25.1497 -0.9780 -0.4662
-36.1153 -10.3761 -1.1052
-26.1930 -15.0272 -1.1116
-26.9900 -25.7606 -1.5032
10.9130 -14.7535 0.2982
11.0449 -9.1787 0.4794
11.8905 -5.7833 0.6663
22.9216 -4.9265 1.5548
9.2705 0.2747 0.7441
21.4925 5.9792 2.0370
18.4536 10.4045 2.0950
14.4611 13.6262 2.0370
11.1233 17.2485 2.0927
7.4792 21.7967 2.2414
0.8800 9.9092 0.8825
-4.1465 26.8780 2.0890
-13.8237 33.2236 2.2414
-21.5432 29.2280 1.6697
-24.4673 20.3995 0.9189
-25.3386 5.5035 -0.1046
-25.1272 -0.6741 -0.4499
-37.4632 -10.2760 -1.1244
-26.1607 -14.5926 -1.0943
-26.9410 -25.1003 -1.4807
-3.6829 -37.7654 -1.0193
10.8739 -15.0768 0.2864
11.0290 -9.3920 0.4711
11.4739 -5.7523 0.6361
15.8324 -3.6032 1.0645
9.2655 0.1625 0.7376
21.6760 5.7490 2.0370
17.4130 9.5420 1.9579
10.8042 9.9359 1.5036
11.3175 17.0911 2.0927
7.7161 21.6313 2.2414
2.5243 24.9947 2.2414
-3.0208 21.2846 1.6656
-13.2567 32.9768 2.2414
-21.3604 29.7221 1.7139
-35.0532 29.9467 1.3695
-25.3152 5.8184 -0.0852
-25.1047 -0.3713 -0.4335
-38.9034 -10.1690 -1.1448
-26.1289 -14.1642 -1.0772
-26.8931 -24.4560 -1.4586
-4.1436 -37.7701 -1.0398
10.8478 -15.4281 0.2748
11.0129 -9.6093 0.4627
11.2933 -5.8331 0.6193
9.1337 -2.1947 0.6087
9.2606 0.0507 0.7312
21.8606 5.5157 2.0370
17.3991 9.2620 1.9377
11.0499 9.9177 1.5195
11.5105 16.9335 2.0927
7.9515 21.4658 2.2414
2.8106 24.8221 2.2414
-3.4368 26.5142 2.0890
-12.7033 32.7339 2.2414
-21.2825 30.3792 1.7681
-34.1337 29.8793 1.3867
-25.2917 6.1340 -0.0657
-25.0822 -0.0688 -0.4170
-26.0976 -13.7425 -1.0601
-26.8466 -23.8289 -1.4369
-4.6056 -37.7748 -1.0602
10.8209 -15.7903 0.2629
10.9965 -9.8306 0.4542
11.2809 -5.9997 0.6119
8.7988 -2.2268 0.5812
9.2332 -0.0610 0.7230
22.0461 5.2796 2.0370
18.9928 9.8174 2.0952
11.3017 9.8990 1.5360
11.7028 16.7753 2.0927
8.1850 21.3003 2.2414
3.0933 24.6503 2.2414
-3.0910 26.3347 2.0890
-12.1614 32.4942 2.2414
-21.2298 31.0944 1.8263
-33.2444 29.8142 1.4035
-25.2682 6.4513 -0.0459
-25.0598 0.2331 -0.4005
-26.0668 -13.3276 -1.0432
-26.8011 -23.2162 -1.4155
-5.0685 -37.7796 -1.0804
10.7932 -16.1630 0.2507
10.9798 -10.0557 0.4456
11.2684 -6.1683 0.6044
8.0528 -2.1417 0.5272
9.2507 -0.1727 0.7184
22.2323 5.0410 2.0370
19.1732 9.6181 2.0953
15.1627 12.9593 2.0370
11.8939 16.6168 2.0927
8.4164 21.1351 2.2414
3.3731 24.4790 2.2414
-2.7501 26.1563 2.0890
-11.6320 32.2582 2.2414
-21.1755 31.8305 1.8864
-32.3812 29.7509 1.4200
-25.2446 6.7695 -0.0259
-25.0374 0.5341 -0.3839
-26.0364 -12.9182 -1.0264
-26.7567 -22.6190 -1.3945
-5.5481 -37.8827 -1.1035
10.7646 -16.5480 0.2382
10.9627 -10.2854 0.4370
11.2558 -6.3385 0.5969
7.8394 -2.1864 0.5086
9.2457 -0.2844 0.7121
22.4197 4.7990 2.0370
19.3537 9.4174 2.0953
15.3372 12.7904 2.0370
12.0845 16.4577 2.0928
8.6463 20.9697 2.2414
3.6495 24.3084 2.2414
-2.4150 25.9796 2.0890
-11.1132 32.0250 2.2414
-21.0554 32.4922 1.9427
-31.5449 29.6896 1.4362
-25.2208 7.0896 -0.0057
-25.0151 0.8352 -0.3671
-26.0064 -12.5152 -1.0098
-26.7134 -22.0351 -1.3739
-6.0350 -38.0100 -1.1272
10.7352 -16.9447 0.2254
10.9453 -10.5192 0.4282
11.2430 -6.5109 0.5893
12.5587 -3.6664 0.8074
9.2408 -0.3958 0.7059
22.6079 4.5544 2.0370
15.7015 7.4064 1.6842
10.6516 8.6661 1.3987
12.2739 16.2983 2.0928
8.8742 20.8045 2.2414
3.9232 24.1383 2.2414
-2.0845 25.8039 2.0890
-10.6060 31.7952 2.2414
-20.5586 32.5778 1.9649
-30.7318 29.6301 1.4521
-25.1969 7.4108 0.0146
-24.9928 1.1355 -0.3503
-25.9769 -12.1172 -0.9932
-4.8636 -3.9143 -0.2468
-6.5279 -38.1388 -1.1511
10.7047 -17.3551 0.2123
10.9276 -10.7582 0.4194
11.2300 -6.6850 0.5818
11.8451 -3.6134 0.7545
9.2358 -0.5074 0.6997
22.7974 4.3063 2.0370
19.7158 9.0100 2.0955
10.7616 8.5412 1.3975
12.4628 16.1382 2.0928
9.1008 20.6390 2.2414
4.1936 23.9688 2.2414
-1.7594 25.6298 2.0890
-10.1087 31.5681 2.2414
-20.5096 33.3847 2.0310
-29.9430 29.5723 1.4677
-35.1004 20.9743 0.7245
-25.1729 7.7341 0.0353
-24.9705 1.4360 -0.3334
-25.4273 -4.7161 -0.6580
-25.9478 -11.7252 -0.9767
-4.9214 -3.8639 -0.2464
-7.0491 -38.3976 -1.1790
10.6732 -17.7788 0.1988
10.9095 -11.0017 0.4104
11.2169 -6.8615 0.5742
11.6304 -3.7017 0.7340
9.2309 -0.6189 0.6935
22.9877 4.0553 2.0370
19.8976 8.8033 2.0956
11.0099 8.5228 1.4141
12.6507 15.9778 2.0928
9.0835 19.9426 2.1832
4.4616 23.7995 2.2414
-1.4386 25.4565 2.0890
-9.6221 31.3441 2.2414
-19.8818 33.2535 2.0402
-29.1750 29.5160 1.4832
-34.7739 21.3512 0.7576
-25.1488 8.0587 0.0561
-24.9482 1.7360 -0.3164
-25.4035 -4.3957 -0.6422
-25.9190 -11.3377 -0.9603
-26.5891 -20.3625 -1.3138
-7.5877 -38.6980 -1.2084
10.6406 -18.2177 0.1850
10.8910 -11.2507 0.4013
11.2037 -7.0400 0.5665
11.6380 -3.8591 0.7277
9.2259 -0.7306 0.6874
23.8651 3.9131 2.0972
20.0795 8.5950 2.0956
16.0957 12.1510 2.0449
12.8381 15.8166 2.0928
9.0367 19.2189 2.1212
4.7263 23.6310 2.2414
-1.1229 25.2847 2.0890
-9.1446 31.1225 2.2414
-19.2656 33.1224 2.0493
-4.2860 4.4417 0.2259
-25.1245 8.3857 0.0772
-24.9259 2.0364 -0.2992
-25.3799 -4.0776 -0.6264
-26.2491 -11.1073 -0.9571
-26.5495 -19.8283 -1.2943
-8.1568 -39.1003 -1.2412
10.6069 -18.6717 0.1707
10.8722 -11.5047 0.3921
11.1903 -7.2209 0.5589
11.6267 -4.0115 0.7201
9.2210 -0.8422 0.6813
24.0645 3.6479 2.0973
20.2622 8.3843 2.0957
16.4670 12.1207 2.0696
13.0247 15.6553 2.0928
9.1060 18.7725 2.0890
4.9888 23.4626 2.2414
-0.8624 26.6935 2.2204
-3.6191 12.8894 0.9349
-18.6620 32.9921 2.0582
-4.2333 4.4940 0.2312
-25.1002 8.7142 0.0985
-24.9036 2.3363 -0.2820
-25.3564 -3.7609 -0.6106
-27.0177 -11.0503 -0.9692
-26.5107 -19.3060 -1.2751
-8.7845 -39.7078 -1.2810
10.5719 -19.1429 0.1561
10.8528 -11.7647 0.3827
11.1767 -7.4040 0.5511
11.9640 -4.2898 0.7340
9.2160 -0.9541 0.6752
24.2655 3.3787 2.0974
20.4451 8.1718 2.0958
16.8421 12.0852 2.0943
13.2111 15.4933 2.0929
9.3115 18.6185 2.0890
5.2483 23.2949 2.2414
-0.5413 26.7639 2.2414
-8.2182 30.6873 2.2414
-18.0691 32.8619 2.0670
-26.9904 29.3521 1.5278
-25.0756 9.0452 0.1201
-24.8813 2.6369 -0.2646
-25.3330 -3.4464 -0.5947
-27.8233 -10.9904 -0.9818
-26.4727 -18.7936 -1.2561
-9.5488 -40.8247 -1.3380
10.5357 -19.6310 0.1410
10.8331 -12.0302 0.3732
11.1629 -7.5898 0.5434
12.0797 -4.4963 0.7340
9.2110 -1.0659 0.6692
8.4266 1.0698 0.7224
20.6288 7.9569 2.0959
17.0212 11.9038 2.0944
13.3969 15.3308 2.0930
9.5155 18.4643 2.0891
5.5056 23.1273 2.2414
-0.2162 26.5827 2.2414
-7.7679 30.4734 2.2414
-17.4882 32.7323 2.0755
-26.2986 29.3001 1.5423
-25.0508 9.3785 0.1420
-25.1141 2.9673 -0.2496
-25.3098 -3.1331 -0.5788
-28.6712 -10.9275 -0.9949
-26.4354 -18.2914 -1.2373
-11.1607 -45.2485 -1.5062
-0.0762 -39.3206 -0.0019
10.4931 -20.2047 0.6374
10.8102 -12.3394 0.7331
9.0213 -6.3156 0.6819
9.2501 -3.5868 0.7809
9.1832 -1.1879 0.8713
9.1133 1.0350 0.9829
16.3023 6.0479 2.0370
14.0216 9.5467 2.0937
10.9200 12.1943 2.0562
8.4973 16.0230 2.2414
4.6304 18.5135 2.2414
0.0233 8.0434 0.8655
-5.6037 23.0143 2.2414
-13.0531 25.0650 2.2414
-21.4068 24.3577 2.0285
-29.2296 20.3943 1.6153
-25.0290 9.6722 0.7672
-25.5029 3.2911 0.3426
-26.9052 -3.0307 0.0102
-29.5071 -10.8654 -0.2988
-26.4000 -17.8146 -0.5015
-11.6829 -44.8855 -0.4730
-0.5438 -38.9285 -0.0239
14.8384 -29.4313 0.8963
10.7894 -12.6187 0.7277
9.0098 -6.4705 0.6773
9.2408 -3.7119 0.7757
22.2397 -3.1503 2.0973
9.3001 0.9424 0.9963
16.4326 5.8708 2.0370
14.1619 9.3928 2.0937
11.2660 12.2776 2.0930
8.6769 15.8928 2.2414
4.8380 18.3936 2.2414
0.1200 7.9966 0.8651
-5.2857 22.9081 2.2414
-12.6214 24.9662 2.2414
-20.9016 24.3683 2.0358
-30.7326 21.9971 1.7453
-25.0040 10.0096 0.7919
-25.4799 3.6001 0.3612
-26.8807 -2.7009 0.0259
-30.4434 -10.7959 -0.2936
-26.3641 -17.3322 -0.4899
-12.2441 -44.8212 -0.4918
-1.0052 -38.6563 -0.0454
13.9335 -28.4830 0.8369
10.7682 -12.9048 0.7223
8.9981 -6.6277 0.6728
9.2314 -3.8380 0.7706
22.3747 -3.4454 2.0974
9.2951 0.8284 0.9891
16.5627 5.6919 2.0370
14.3018 9.2378 2.0938
11.4160 12.1419 2.0930
8.7229 15.5260 2.2078
5.0439 18.2732 2.2414
0.2155 7.9498 0.8647
-4.6338 21.2512 2.0890
-12.1972 24.8670 2.2414
-20.4043 24.3761 2.0430
-29.9096 21.9567 1.7453
-24.9787 10.3495 0.8170
-25.4569 3.9095 0.3801
-26.8564 -2.3726 0.0416
-31.4321 -10.7224 -0.2880
-26.3290 -16.8585 -0.4782
-31.4045 -33.0153 -0.8180
-12.8075 -44.7573 -0.5103
-1.4620 -38.4279 -0.0663
13.1143 -27.6454 0.7833
10.7464 -13.1981 0.7169
8.9863 -6.7873 0.6682
9.2548 -3.9792 0.7682
22.5099 -3.7450 2.0974
9.2900 0.7148 0.9819
16.6927 5.5114 2.0370
14.4413 9.0816 2.0939
11.5654 12.0054 2.0931
8.6934 15.0432 2.1571
5.2481 18.1523 2.2414
0.3100 7.9028 0.8644
-4.3452 21.1517 2.0890
-11.7800 24.7673 2.2414
-19.9144 24.3811 2.0501
-29.1111 21.9141 1.7453
-24.8316 10.6400 0.8383
-25.4339 4.2195 0.3992
-26.8321 -2.0455 0.0576
-32.4784 -10.6448 -0.2817
-26.2944 -16.3934 -0.4666
-31.3413 -32.1642 -0.8046
-13.3733 -44.6935 -0.5285
-1.9139 -38.2019 -0.0867
12.2682 -26.6854 0.7286
10.7241 -13.4989 0.7116
8.9742 -6.9493 0.6637
9.2453 -4.1078 0.7632
22.6452 -4.0490 2.0975
9.2850 0.6016 0.9749
16.8226 5.3292 2.0370
14.5804 8.9241 2.0939
11.7142 11.8681 2.0931
8.6652 14.5831 2.1090
5.4507 18.0310 2.2414
0.4034 7.8557 0.8640
-4.0603 21.0519 2.0890
-11.3698 24.6672 2.2414
-19.4319 24.3837 2.0571
-28.3362 21.8695 1.7453
-24.2788 10.7504 0.8457
-25.4108 4.5302 0.4186
-26.8079 -1.7197 0.0737
-33.5875 -10.5624 -0.2747
-26.2605 -15.9364 -0.4549
-27.0926 -27.1421 -0.6853
-2.3656 -38.0532 -0.1068
11.4222 -25.6532 0.6745
10.7011 -13.8076 0.7062
8.9661 -7.1172 0.6595
9.2356 -4.2374 0.7581
22.7807 -4.3575 2.0975
9.2800 0.4887 0.9680
16.9522 5.1451 2.0370
14.7192 8.7655 2.0940
11.8622 11.7300 2.0931
8.7465 14.3211 2.0890
5.6517 17.9093 2.2414
0.4958 7.8085 0.8636
-3.7791 20.9517 2.0890
-10.9663 24.5667 2.2414
-18.9565 24.3837 2.0640
-27.5838 21.8230 1.7453
-24.2536 11.0898 0.8714
-25.3877 4.8417 0.4382
-26.7838 -1.3949 0.0899
-34.7660 -10.4749 -0.2670
-26.2271 -15.4871 -0.4432
-27.0408 -26.4454 -0.6738
-2.8178 -37.9479 -0.1266
11.0526 -14.6209 0.7254
9.0148 -7.3344 0.6595
9.2259 -4.3683 0.7531
22.9165 -4.6709 2.0975
9.2750 0.3760 0.9611
17.0818 4.9593 2.0370
14.8577 8.6055 2.0940
12.0097 11.5909 2.0931
8.9091 14.1973 2.0890
5.8512 17.7870 2.2414
0.5872 7.7612 0.8633
-3.5014 20.8513 2.0890
-10.5693 24.4658 2.2414
-18.4878 24.3812 2.0708
-24.6262 19.9694 1.6006
-24.2282 11.4323 0.8975
-25.3645 5.1540 0.4580
-25.1519 -1.0068 0.0999
-36.0204 -10.3817 -0.2586
-26.1943 -15.0454 -0.4314
-26.9905 -25.7675 -0.6623
-3.2682 -37.8431 -0.1461
10.8988 -14.7835 0.7114
9.0639 -7.5573 0.6595
9.1582 -4.4720 0.7434
15.1757 -3.2843 1.3808
9.2700 0.2636 0.9543
17.2112 4.7716 2.0370
14.9958 8.4443 2.0941
12.1567 11.4511 2.0931
9.0707 14.0727 2.0890
6.0491 17.6644 2.2414
0.6776 7.7138 0.8629
-3.2272 20.7506 2.0890
-10.1786 24.3644 2.2414
-18.0261 24.3763 2.0775
-24.4034 20.2800 1.6292
-44.4619 21.6369 1.6975
-25.3413 5.4673 0.4782
-25.1293 -0.7033 0.1155
-37.3590 -10.2823 -0.2493
-26.1620 -14.6108 -0.4196
-26.9415 -25.1076 -0.6508
-3.7198 -37.7658 -0.1653
10.8705 -15.1224 0.7057
9.1131 -7.7861 0.6595
9.1484 -4.6045 0.7385
13.9855 -3.2039 1.2651
9.2650 0.1514 0.9477
17.3404 4.5821 2.0370
15.1335 8.2818 2.0941
10.8077 9.9357 1.8387
9.2314 13.9474 2.0891
6.2456 17.5412 2.2414
0.7670 7.6662 0.8625
-2.9564 20.6496 2.0890
-9.7942 24.2627 2.2414
-17.5709 24.3692 2.0841
-25.4510 21.6733 1.7453
-43.5014 21.8201 1.7112
-25.3179 5.7816 0.4986
-25.1069 -0.4007 0.1312
-38.7910 -10.1760 -0.2390
-26.1303 -14.1831 -0.4077
-26.8938 -24.4646 -0.6394
-4.1796 -37.7705 -0.1846
17.4923 -44.9899 1.0097
10.8443 -15.4751 0.7001
9.1626 -8.0211 0.6595
9.1384 -4.7383 0.7337
9.0374 -2.1854 0.8127
9.2601 0.0394 0.9411
17.5762 4.4174 2.0494
15.2710 8.1180 2.0942
11.0541 9.9174 1.8586
9.3920 13.8226 2.0893
6.4405 17.4176 2.2414
2.2242 19.8065 2.2414
-1.1190 8.5511 0.8693
-9.4157 24.1606 2.2414
-17.1087 24.3408 2.0890
-21.6247 18.8683 1.5231
-38.0962 19.6855 1.5435
-25.2945 6.0970 0.5192
-25.7548 -0.1013 0.1510
-26.0990 -13.7620 -0.3958
-26.8472 -23.8378 -0.6279
-4.6409 -37.7752 -0.2036
16.8995 -45.0613 0.9699
10.8173 -15.8384 0.6946
9.2124 -8.2625 0.6595
9.1284 -4.8735 0.7288
8.7343 -2.2240 0.7809
9.2327 -0.0723 0.9323
18.1037 4.3176 2.0954
15.4081 7.9528 2.0943
11.3063 9.8986 1.8791
9.5530 13.6989 2.0897
6.6341 17.2935 2.2414
2.4530 19.6909 2.2414
-1.0086 8.5054 0.8690
-9.0430 24.0582 2.2414
-16.6153 24.2544 2.0890
-21.5772 19.2888 1.5610
-38.0647 20.2526 1.5881
-25.2710 6.4137 0.5402
-25.7318 0.2082 0.1675
-26.0682 -13.3472 -0.3839
-26.8018 -23.2263 -0.6164
-5.1036 -37.7799 -0.2225
16.3100 -45.1323 0.9307
10.7895 -16.2127 0.6890
10.9775 -10.0864 0.7817
9.1182 -5.0101 0.7240
8.0008 -2.1403 0.7111
9.2502 -0.1843 0.9281
18.2369 4.1167 2.0955
15.5450 7.7862 2.0943
12.7389 10.8826 2.0932
9.7131 13.5744 2.0902
6.8263 17.1688 2.2414
2.6796 19.5749 2.2414
-0.8996 8.4597 0.8686
-8.6760 23.9553 2.2414
-16.1314 24.1675 2.0890
-21.5444 19.7308 1.6009
-38.0225 20.8206 1.6331
-25.2474 6.7317 0.5614
-25.7088 0.5174 0.1841
-26.0378 -12.9383 -0.3718
-26.7575 -22.6295 -0.6050
-5.5840 -37.8921 -0.2417
15.7290 -45.2182 0.8924
10.7609 -16.5988 0.6834
10.9604 -10.3166 0.7762
9.1080 -5.1482 0.7192
7.8389 -2.1986 0.6927
9.2452 -0.2959 0.9218
18.3700 3.9136 2.0955
15.6816 7.6182 2.0944
12.8833 10.7383 2.0932
9.8725 13.4493 2.0906
7.0171 17.0437 2.2414
2.9041 19.4586 2.2414
-0.7920 8.4138 0.8683
-8.3145 23.8521 2.2414
-15.6571 24.0800 2.0890
-21.5109 20.1813 1.6418
-37.9798 21.3946 1.6789
-25.2236 7.0512 0.5830
-25.6859 0.8260 0.2010
-26.0079 -12.5353 -0.3598
-26.7142 -22.0466 -0.5935
-6.0710 -38.0194 -0.2610
10.7313 -16.9973 0.6777
10.9430 -10.5513 0.7708
9.0976 -5.2878 0.7145
11.5133 -3.3795 1.0116
9.2402 -0.4076 0.9155
18.5030 3.7084 2.0956
15.6931 7.3900 2.0779
10.6512 8.6610 1.7115
10.0311 13.3233 2.0911
7.2065 16.9180 2.2414
3.1266 19.3419 2.2414
-0.6857 8.3679 0.8679
-7.9584 23.7486 2.2414
-15.1918 23.9923 2.0890
-21.4768 20.6406 1.6838
-37.9367 21.9752 1.7255
-25.1998 7.3722 0.6048
-25.6630 1.1342 0.2180
-25.9784 -12.1379 -0.3477
-4.8628 -3.9157 -0.1061
-6.5632 -38.1480 -0.2801
10.7007 -17.4090 0.6721
10.9252 -10.7906 0.7654
9.0871 -5.4291 0.7097
11.5023 -3.5275 1.0048
9.2353 -0.5192 0.9093
18.6360 3.5010 2.0957
15.9539 7.2779 2.0945
10.7677 8.5407 1.7114
10.1890 13.1966 2.0915
7.3946 16.7918 2.2414
3.3471 19.2248 2.2414
-0.5808 8.3219 0.8676
-7.6075 23.6448 2.2414
-15.0499 24.4137 2.1336
-21.4420 21.1092 1.7268
-37.2984 22.2085 1.7453
-25.1758 7.6949 0.6270
-25.6401 1.4423 0.2352
-25.4292 -4.7420 -0.0760
-25.9493 -11.7459 -0.3355
-4.9155 -3.8615 -0.1053
-7.0867 -38.4186 -0.3003
10.6691 -17.8346 0.6664
10.9070 -11.0350 0.7600
9.0765 -5.5721 0.7050
11.4913 -3.6763 0.9981
9.2303 -0.6309 0.9031
18.7689 3.2913 2.0957
15.6473 6.9101 2.0370
11.0163 8.5223 1.7322
10.3462 13.0692 2.0920
7.5814 16.6651 2.2414
3.5656 19.1072 2.2414
-0.4771 8.2757 0.8672
-7.2617 23.5405 2.2414
-14.9926 24.9896 2.1921
-21.4065 21.5875 1.7709
-34.6630 21.2079 1.6682
-25.1518 8.0193 0.6495
-25.6173 1.7502 0.2526
-25.4055 -4.4220 -0.0621
-25.9206 -11.3589 -0.3233
-26.5901 -20.3754 -0.5591
-7.6250 -38.7188 -0.3207
10.6364 -18.2750 0.6607
10.8885 -11.2845 0.7546
9.0658 -5.7169 0.7004
11.4802 -3.8259 0.9915
9.2254 -0.7426 0.8970
18.9018 3.0793 2.0958
15.7787 6.7408 2.0370
13.4560 10.1511 2.0935
10.5026 12.9409 2.0924
7.7670 16.5378 2.2414
3.7822 18.9894 2.2414
-0.3746 8.2295 0.8669
-6.9208 23.4359 2.2414
-14.8579 25.4551 2.2414
-4.2962 4.4381 0.3651
-35.2640 22.1625 1.7453
-25.1275 8.3456 0.6723
-25.5944 2.0581 0.2701
-25.9986 -4.2037 -0.0491
-26.2071 -11.1104 -0.3147
-26.5505 -19.8422 -0.5476
-8.1986 -39.1407 -0.3423
10.6025 -18.7311 0.6549
10.8696 -11.5394 0.7492
9.0549 -5.8636 0.6957
9.3106 -3.2281 0.7995
9.2204 -0.8544 0.8910
19.0346 2.8649 2.0958
15.9099 6.5700 2.0370
10.5877 7.7875 1.6301
10.6583 12.8119 2.0929
7.9513 16.4100 2.2414
3.9969 18.8711 2.2414
-0.2734 8.1831 0.8665
-3.6322 12.8696 1.2364
-14.3946 25.3585 2.2414
-4.2378 4.4845 0.3701
-34.2977 22.1349 1.7453
-25.1031 8.6739 0.6955
-25.5716 2.3660 0.2879
-26.9794 -4.0299 -0.0359
-26.9720 -11.0536 -0.3114
-26.5117 -19.3201 -0.5361
-8.8265 -39.7484 -0.3657
10.5674 -19.2039 0.6491
10.8502 -11.7999 0.7438
9.0438 -6.0121 0.6911
9.3015 -3.3510 0.7942
9.2154 -0.9663 0.8851
19.1675 2.6482 2.0959
16.0408 6.3976 2.0370
13.7396 9.8512 2.0936
10.6999 12.5489 2.0714
8.1344 16.2816 2.2414
4.2098 18.7524 2.2414
-0.1734 8.1367 0.8662
-6.2533 23.2258 2.2414
-13.9396 25.2611 2.2414
-21.2953 23.0851 1.9107
-33.3630 22.1044 1.7453
-25.0786 9.0042 0.7190
-25.5487 2.6740 0.3059
-26.9546 -3.6953 -0.0207
-27.7747 -10.9940 -0.3076
-26.4738 -18.8085 -0.5246
-9.6044 -40.9182 -0.3949
0.4014 -39.7212 0.0209
10.5310 -19.6944 0.6433
10.8304 -12.0664 0.7384
9.0327 -6.1627 0.6865
9.2923 -3.4748 0.7889
9.2105 -1.0784 0.8792
8.4262 1.0604 0.9151
16.1715 6.2237 2.0370
13.8807 9.6996 2.0936
10.9495 12.5304 2.0903
8.3164 16.1527 2.2414
4.4208 18.6332 2.2414
-0.0745 8.0901 0.8658
-5.9265 23.1203 2.2414
-13.4927 25.1633 2.2414
-21.2566 23.6069 1.9599
-32.4584 22.0711 1.7453
-25.0539 9.3370 0.7429
-25.5258 2.9822 0.3241
-26.9298 -3.3622 -0.0053
-28.6182 -10.9314 -0.3035
-26.4365 -18.3068 -0.5131
-11.1232 -44.9500 -0.4539
-0.0759 -39.3209 -0.0019
10.4931 -20.2043 0.6374
10.8102 -12.3391 0.7331
9.0213 -6.3155 0.6819
9.2501 -3.5867 0.7809
9.1832 -1.1878 0.8713
9.1125 1.0350 0.9829
16.3021 6.0480 2.0370
14.0214 9.5469 2.0937
10.9199 12.1944 2.0562
8.4971 16.0232 2.2414
4.6303 18.5136 2.2414
0.0232 8.0435 0.8655
-5.6039 23.0144 2.2414
-13.0535 25.0651 2.2414
-21.4071 24.3577 2.0285
-29.2314 20.3950 1.6153
-25.0290 9.6719 0.7672
-25.5029 3.2908 0.3426
-26.9052 -3.0310 0.0102
-29.5061 -10.8655 -0.2988
-26.4000 -17.8150 -0.5015
-11.6823 -44.8855 -0.4729
-0.5435 -38.9287 -0.0239
14.8392 -29.4321 0.8963
10.7895 -12.6184 0.7277
9.0098 -6.4704 0.6773
9.2408 -3.7118 0.7757
22.2396 -3.1501 2.0973
9.3001 0.9425 0.9963
16.4325 5.8709 2.0370
14.1617 9.3930 2.0937
11.2659 12.2777 2.0930
8.6768 15.8930 2.2414
4.8379 18.3936 2.2414
0.1199 7.9967 0.8651
-5.2859 22.9082 2.2414
-12.6219 24.9663 2.2414
-20.9020 24.3682 2.0358
-30.7335 21.9971 1.7453
-25.0040 10.0093 0.7919
-25.4799 3.5997 0.3612
-26.8808 -2.7012 0.0258
-30.4423 -10.7960 -0.2937
-26.3642 -17.3325 -0.4899
-12.2434 -44.8213 -0.4917
-1.0048 -38.6565 -0.0453
13.9341 -28.4836 0.8369
10.7682 -12.9045 0.7223
8.9981 -6.6276 0.6728
9.2315 -3.8379 0.7706
22.3746 -3.4452 2.0974
9.2951 0.8286 0.9891
16.5626 5.6921 2.0370
14.3016 9.2380 2.0938
11.4159 12.1420 2.0930
8.7229 15.5267 2.2079
5.0437 18.2733 2.2414
0.2154 7.9498 0.8647
-4.6340 21.2516 2.0890
-12.1977 24.8671 2.2414
-20.4047 24.3761 2.0430
-29.9104 21.9566 1.7453
-24.9787 10.3492 0.8169
-25.4570 3.9091 0.3801
-26.8564 -2.3731 0.0416
-31.4309 -10.7225 -0.2880
-26.3290 -16.8589 -0.4783
-31.4046 -33.0158 -0.8180
-12.8068 -44.7574 -0.5102
-1.4616 -38.4280 -0.0663
13.1156 -27.6468 0.7834
10.7464 -13.1977 0.7170
8.9863 -6.7872 0.6682
9.2548 -3.9791 0.7682
22.5097 -3.7445 2.0974
9.2901 0.7150 0.9820
16.6926 5.5116 2.0370
14.4412 9.0816 2.0939
11.5652 12.0056 2.0931
8.6934 15.0437 2.1572
5.2480 18.1524 2.2414
0.3099 7.9028 0.8644
-4.3456 21.1519 2.0890
-11.7805 24.7674 2.2414
-19.9148 24.3812 2.0501
-29.1116 21.9142 1.7453
-24.8331 10.6401 0.8383
-25.4339 4.2192 0.3992
-26.8321 -2.0458 0.0576
-32.4778 -10.6448 -0.2817
-26.2945 -16.3941 -0.4666
-31.3414 -32.1652 -0.8046
-13.3730 -44.6935 -0.5285
-1.9131 -38.2023 -0.0867
12.2689 -26.6861 0.7287
10.7241 -13.4987 0.7116
8.9743 -6.9491 0.6637
9.2453 -4.1076 0.7632
22.6451 -4.0487 2.0975
9.2850 0.6017 0.9749
16.8223 5.3294 2.0370
14.5803 8.9243 2.0939
11.7140 11.8682 2.0931
8.6652 14.5834 2.1090
5.4504 18.0312 2.2414
0.4033 7.8557 0.8640
-4.0605 21.0520 2.0890
-11.3700 24.6673 2.2414
-19.4326 24.3837 2.0571
-28.3372 21.8695 1.7453
-24.2788 10.7501 0.8457
-25.4109 4.5301 0.4186
-26.8079 -1.7202 0.0736
-33.5861 -10.5625 -0.2747
-26.2605 -15.9368 -0.4549
-27.0926 -27.1425 -0.6853
-2.3652 -38.0533 -0.1068
11.4239 -25.6558 0.6746
10.7012 -13.8072 0.7062
8.9660 -7.1170 0.6595
9.2356 -4.2374 0.7581
22.7805 -4.3570 2.0975
9.2800 0.4888 0.9680
16.9521 5.1453 2.0370
14.7191 8.7656 2.0940
11.8620 11.7302 2.0931
8.7463 14.3218 2.0890
5.6516 17.9094 2.2414
0.4957 7.8085 0.8636
-3.7795 20.9519 2.0890
-10.9668 24.5668 2.2414
-18.9569 24.3837 2.0640
-27.5842 21.8231 1.7453
-24.2536 11.0892 0.8713
-25.3877 4.8413 0.4382
-26.7838 -1.3952 0.0899
-34.7651 -10.4750 -0.2671
-26.2272 -15.4879 -0.4432
-27.0409 -26.4463 -0.6738
-2.8170 -37.9481 -0.1266
11.0528 -14.6208 0.7254
9.0147 -7.3340 0.6595
9.2259 -4.3681 0.7531
22.9164 -4.6706 2.0975
9.2750 0.3761 0.9611
17.0816 4.9596 2.0370
14.8575 8.6058 2.0940
12.0096 11.5911 2.0931
8.9090 14.1974 2.0890
5.8509 17.7873 2.2414
0.5870 7.7612 0.8633
-3.5016 20.8514 2.0890
-10.5695 24.4658 2.2414
-18.4887 24.3812 2.0708
-24.6259 19.9684 1.6005
-24.2282 11.4319 0.8974
-25.3645 5.1538 0.4580
-25.1519 -1.0073 0.0999
-36.0185 -10.3819 -0.2586
-26.1943 -15.0459 -0.4314
-26.9906 -25.7680 -0.6623
-3.2677 -37.8432 -0.1461
10.8989 -14.7832 0.7114
9.0638 -7.5571 0.6595
9.1582 -4.4719 0.7435
15.1781 -3.2845 1.3811
9.2700 0.2638 0.9544
17.2110 4.7718 2.0370
14.9957 8.4444 2.0941
12.1564 11.4512 2.0931
9.0705 14.0728 2.0890
6.0489 17.6645 2.2414
0.6775 7.7138 0.8629
-3.2277 20.7508 2.0890
-10.1792 24.3646 2.2414
-18.0265 24.3763 2.0775
-24.4033 20.2795 1.6291
-44.4636 21.6366 1.6975
-25.3413 5.4668 0.4781
-25.1294 -0.7037 0.1155
-37.3580 -10.2824 -0.2493
-26.1621 -14.6116 -0.4196
-26.9416 -25.1085 -0.6509
-3.7190 -37.7658 -0.1653
10.8705 -15.1222 0.7057
9.1130 -7.7857 0.6595
9.1484 -4.6043 0.7385
13.9855 -3.2037 1.2651
9.2650 0.1515 0.9477
17.3402 4.5824 2.0370
15.1333 8.2820 2.0941
10.8075 9.9357 1.8387
9.2313 13.9475 2.0891
6.2452 17.5415 2.2414
0.7669 7.6663 0.8625
-2.9567 20.6497 2.0890
-9.7944 24.2628 2.2414
-17.5717 24.3692 2.0841
-25.4520 21.6734 1.7453
-43.5026 21.8200 1.7112
-25.3179 5.7814 0.4985
-25.1069 -0.4012 0.1312
-38.7889 -10.1762 -0.2390
-26.1303 -14.1836 -0.4077
-26.8938 -24.4651 -0.6394
-4.1792 -37.7705 -0.1846
17.4934 -44.9898 1.0098
10.8443 -15.4746 0.7001
9.1626 -8.0208 0.6595
9.1384 -4.7382 0.7337
9.0384 -2.1854 0.8128
9.2601 0.0396 0.9411
17.5755 4.4175 2.0493
15.2709 8.1181 2.0942
11.0536 9.9174 1.8586
9.3918 13.8228 2.0893
6.4403 17.4177 2.2414
2.2240 19.8066 2.2414
-1.1190 8.5511 0.8693
-9.4162 24.1608 2.2414
-17.1092 24.3408 2.0890
-21.6250 18.8683 1.5231
-38.0962 19.6853 1.5435
-25.2945 6.0966 0.5192
-25.7548 -0.1016 0.1510
-26.0990 -13.7621 -0.3958
-26.8473 -23.8387 -0.6279
-4.6407 -37.7752 -0.2036
16.9001 -45.0612 0.9699
10.8173 -15.8381 0.6946
9.2124 -8.2624 0.6595
9.1284 -4.8733 0.7288
8.7349 -2.2240 0.7809
9.2327 -0.0722 0.9323
18.1037 4.3177 2.0954
15.4079 7.9530 2.0943
11.3060 9.8987 1.8791
9.5528 13.6990 2.0897
6.6340 17.2935 2.2414
2.4526 19.6911 2.2414
-1.0087 8.5055 0.8690
-9.0433 24.0582 2.2414
-16.6155 24.2545 2.0890
-21.5773 19.2882 1.5609
-38.0647 20.2520 1.5881
-25.2710 6.4135 0.5402
-25.7318 0.2081 0.1675
-26.0682 -13.3476 -0.3839
-26.8018 -23.2268 -0.6165
-5.1031 -37.7799 -0.2224
16.3102 -45.1322 0.9307
10.7896 -16.2122 0.6890
10.9775 -10.0861 0.7817
9.1183 -5.0100 0.7240
8.0008 -2.1402 0.7112
9.2502 -0.1841 0.9281
18.2367 4.1169 2.0955
15.5449 7.7863 2.0943
12.7388 10.8827 2.0932
9.7129 13.5746 2.0902
6.8260 17.1690 2.2414
2.6794 19.5750 2.2414
-0.8997 8.4597 0.8686
-8.6766 23.9555 2.2414
-16.1321 24.1677 2.0890
-21.5444 19.7305 1.6009
-38.0225 20.8202 1.6331
-25.2474 6.7313 0.5614
-25.7089 0.5169 0.1841
-26.0379 -12.9386 -0.3719
-26.7576 -22.6303 -0.6050
-5.5836 -37.8920 -0.2417
15.7285 -45.2145 0.8924
10.7609 -16.5985 0.6834
10.9604 -10.3164 0.7762
9.1080 -5.1480 0.7192
7.8389 -2.1985 0.6927
9.2452 -0.2959 0.9218
18.3699 3.9137 2.0955
15.6814 7.6184 2.0944
12.8831 10.7385 2.0932
9.8724 13.4494 2.0906
7.0169 17.0437 2.2414
2.9038 19.4588 2.2414
-0.7922 8.4139 0.8683
-8.3148 23.8522 2.2414
-15.6575 24.0801 2.0890
-21.5110 20.1807 1.6418
-37.9799 21.3938 1.6788
-25.2237 7.0510 0.5830
-25.6859 0.8257 0.2010
-26.0080 -12.5359 -0.3598
-26.7142 -22.0470 -0.5935
-6.0703 -38.0192 -0.2610
10.7313 -16.9967 0.6777
10.9430 -10.5509 0.7708
9.0976 -5.2877 0.7145
11.5133 -3.3794 1.0116
9.2402 -0.4074 0.9155
18.5029 3.7087 2.0956
15.6932 7.3902 2.0779
10.6512 8.6611 1.7115
10.0309 13.3235 2.0911
7.2062 16.9182 2.2414
3.1265 19.3420 2.2414
-0.6858 8.3680 0.8679
-7.9589 23.7488 2.2414
-15.1926 23.9916 2.0890
-21.4768 20.6403 1.6837
-37.9368 21.9748 1.7255
-25.1998 7.3718 0.6048
-25.6631 1.1338 0.2180
-25.9784 -12.1382 -0.3477
-4.8628 -3.9158 -0.1061
-6.5628 -38.1479 -0.2801
10.7007 -17.4087 0.6721
10.9252 -10.7905 0.7654
9.0871 -5.4289 0.7097
11.5024 -3.5273 1.0048
9.2353 -0.5192 0.9093
18.6359 3.5011 2.0957
15.9537 7.2781 2.0945
10.7673 8.5408 1.7114
10.1889 13.1967 2.0915
7.3945 16.7919 2.2414
3.3468 19.2249 2.2414
-0.5809 8.3219 0.8676
-7.6078 23.6449 2.2414
-15.0499 24.4132 2.1335
-21.4421 21.1085 1.7267
-37.2999 22.2085 1.7453
-25.1759 7.6946 0.6270
-25.6402 1.4421 0.2352
-25.4293 -4.7425 -0.0760
-25.9493 -11.7464 -0.3355
-4.9153 -3.8614 -0.1053
-7.0860 -38.4182 -0.3003
10.6691 -17.8340 0.6664
10.9071 -11.0346 0.7600
9.0765 -5.5720 0.7050
11.4913 -3.6761 0.9981
9.2303 -0.6307 0.9031
18.7687 3.2916 2.0957
15.6472 6.9102 2.0370
11.0161 8.5223 1.7322
10.3459 13.0694 2.0920
7.5812 16.6653 2.2414
3.5655 19.1073 2.2414
-0.4772 8.2758 0.8672
-7.2622 23.5407 2.2414
-14.9927 24.9888 2.1920
-21.4065 21.5872 1.7709
-34.6633 21.2077 1.6682
-25.1518 8.0188 0.6495
-25.6173 1.7498 0.2525
-25.4055 -4.4223 -0.0621
-25.9206 -11.3592 -0.3233
-26.5902 -20.3762 -0.5592
-7.6246 -38.7186 -0.3207
10.6364 -18.2746 0.6607
10.8885 -11.2843 0.7546
9.0658 -5.7167 0.7004
11.4802 -3.8257 0.9915
9.2254 -0.7425 0.8970
18.9017 3.0795 2.0958
15.7785 6.7410 2.0370
13.4558 10.1513 2.0935
10.5025 12.9411 2.0924
7.7669 16.5379 2.2414
3.7819 18.9895 2.2414
-0.3748 8.2295 0.8669
-6.9210 23.4360 2.2414
-14.8583 25.4551 2.2414
-4.2963 4.4380 0.3651
-35.2653 22.1626 1.7453
-25.1275 8.3454 0.6723
-25.5944 2.0578 0.2701
-25.9966 -4.2039 -0.0492
-26.2061 -11.1105 -0.3147
-26.5505 -19.8426 -0.5477
-8.1977 -39.1399 -0.3423
10.6026 -18.7304 0.6549
10.8696 -11.5390 0.7492
9.0549 -5.8635 0.6957
9.3106 -3.2280 0.7995
9.2204 -0.8542 0.8910
19.0345 2.8652 2.0958
15.9098 6.5701 2.0370
10.5878 7.7877 1.6301
10.6581 12.8121 2.0929
7.9510 16.4102 2.2414
3.9968 18.8711 2.2414
-0.2735 8.1832 0.8665
-3.6324 12.8695 1.2363
-14.3953 25.3586 2.2414
-4.2378 4.4844 0.3701
-34.2984 22.1349 1.7453
-25.1032 8.6734 0.6955
-25.5716 2.3655 0.2879
-26.9794 -4.0302 -0.0359
-26.9715 -11.0537 -0.3114
-26.5118 -19.3208 -0.5362
-8.8260 -39.7480 -0.3657
10.5674 -19.2035 0.6491
10.8502 -11.7997 0.7438
9.0439 -6.0119 0.6911
9.3015 -3.3509 0.7942
9.2155 -0.9662 0.8851
19.1674 2.6483 2.0959
16.0406 6.3979 2.0370
13.7394 9.8514 2.0936
10.6997 12.5490 2.0714
8.1343 16.2817 2.2414
4.2095 18.7525 2.2414
-0.1735 8.1367 0.8662
-6.2536 23.2258 2.2414
-13.9399 25.2612 2.2414
-21.2953 23.0844 1.9106
-33.3643 22.1044 1.7453
-25.0786 9.0040 0.7190
-25.5487 2.6738 0.3059
-26.9546 -3.6958 -0.0207
-27.7735 -10.9941 -0.3076
-26.4738 -18.8089 -0.5246
-9.6032 -40.9162 -0.3949
0.4018 -39.7215 0.0210
10.5310 -19.6937 0.6433
10.8305 -12.0660 0.7385
9.0327 -6.1626 0.6865
9.2923 -3.4747 0.7889
9.2105 -1.0782 0.8792
8.4262 1.0606 0.9151
16.1714 6.2238 2.0370
13.8806 9.6997 2.0936
10.9495 12.5304 2.0903
8.3161 16.1529 2.2414
4.4207 18.6333 2.2414
-0.0746 8.0902 0.8658
-5.9265 23.1203 2.2414
-13.4933 25.1635 2.2414
-21.2566 23.6065 1.9598
-32.4591 22.0711 1.7453
-25.0539 9.3368 0.7429
-25.5258 2.9818 0.3241
-26.9299 -3.3627 -0.0053
-28.6176 -10.9314 -0.3034
-26.4365 -18.3071 -0.5131
-11.1228 -44.9500 -0.4538
-0.1181 -39.2855 0.8820
8.9960 -17.3859 0.9886
8.8018 -10.0795 0.8995
9.0768 -6.3763 0.9374
9.2489 -3.6025 1.0061
9.1827 -1.2004 1.0819
9.1577 1.0299 1.1978
13.6423 5.0493 2.0370
11.8260 8.0450 2.0933
9.3859 10.4811 2.0902
7.1623 13.5182 2.2414
3.8637 15.4976 2.2414
0.0119 6.5335 0.8521
-4.2340 17.2887 2.0890
-10.1824 19.4806 2.2414
-16.2263 18.4035 2.0890
-24.0936 16.7534 1.9913
-25.0321 9.6300 1.3705
-25.5054 3.2569 0.9210
-26.9074 -3.0603 0.6195
-29.4496 -10.8697 0.4083
-27.1067 -18.3073 0.2215
-11.9883 -45.9210 0.5843
-0.5843 -38.8945 0.8513
9.0606 -18.0384 1.0032
8.7538 -10.2711 0.8956
9.0652 -6.5325 0.9346
9.2396 -3.7278 1.0018
17.8710 -2.5561 2.0960
9.2997 0.9320 1.2093
13.7436 4.8980 2.0370
11.9410 7.9127 2.0933
9.5149 10.3687 2.0905
7.3159 13.4116 2.2414
4.0400 15.4054 2.2414
0.0907 6.5024 0.8518
-4.0004 17.2336 2.0890
-9.8681 19.4472 2.2414
-15.8435 18.4113 2.0890
-23.1564 16.5182 1.9546
-25.0071 9.9668 1.3974
-25.4825 3.5655 0.9400
-26.8830 -2.7308 0.6338
-30.3813 -10.8005 0.4326
-27.0699 -17.8124 0.2265
-12.5623 -45.8575 0.5671
-1.0448 -38.6365 0.8243
9.2397 -18.9595 1.0313
8.7675 -10.5413 0.8982
9.0535 -6.6910 0.9319
9.2303 -3.8541 0.9975
17.9522 -2.7895 2.0960
9.2946 0.8179 1.2017
13.8445 4.7454 2.0370
12.0553 7.7793 2.0933
9.6433 10.2555 2.0909
7.4686 13.3042 2.2414
4.2149 15.3126 2.2414
0.1686 6.4709 0.8516
-3.7691 17.1775 2.0890
-9.5578 19.4123 2.2414
-15.5376 18.5019 2.0986
-22.5119 16.4704 1.9408
-24.9819 10.3062 1.4248
-25.4595 3.8746 0.9594
-26.8586 -2.4027 0.6483
-31.3651 -10.7274 0.4587
-27.0338 -17.3266 0.2318
-31.4048 -33.0193 0.2083
-13.1387 -45.7943 0.5502
-1.5006 -38.4086 0.7986
9.3846 -19.8590 1.0566
8.7497 -10.7809 0.8977
9.0095 -6.8276 0.9260
9.2536 -3.9955 0.9969
18.0328 -3.0256 2.0961
9.2896 0.7043 1.1942
13.9448 4.5915 2.0370
12.1691 7.6450 2.0933
9.7710 10.1414 2.0913
7.6203 13.1962 2.2414
4.3885 15.2190 2.2414
0.2459 6.4392 0.8513
-3.5402 17.1205 2.0890
-9.2511 19.3757 2.2414
-15.4921 18.9052 2.1440
-21.8916 16.4243 1.9278
-24.9565 10.6484 1.4528
-25.4365 4.1843 0.9791
-26.8343 -2.0759 0.6631
-32.4059 -10.6501 0.4866
-26.9984 -16.8494 0.2374
-31.3417 -32.1694 0.2069
-1.9515 -38.1831 0.7736
9.5078 -20.7619 1.0803
8.7315 -11.0267 0.8974
8.9974 -6.9905 0.9235
9.2440 -4.1243 0.9927
14.9736 -2.6986 1.7328
9.2845 0.5909 1.1869
14.0446 4.4363 2.0370
12.2824 7.5096 2.0933
9.8980 10.0264 2.0917
7.7710 13.0874 2.2414
4.5609 15.1247 2.2414
0.3225 6.4071 0.8511
-3.3136 17.0625 2.0890
-8.9481 19.3377 2.2414
-15.4495 19.3234 2.1914
-21.7663 16.7430 1.9580
-24.2820 10.7072 1.4427
-25.4135 4.4947 0.9991
-26.8101 -1.7504 0.6781
-33.5090 -10.5682 0.5166
-26.9636 -16.3806 0.2432
-27.0930 -27.1476 0.1784
-2.4030 -38.0445 0.7510
9.7529 -21.9909 1.1192
8.6819 -11.2390 0.8940
8.9851 -7.1559 0.9210
9.2344 -4.2542 0.9887
15.0386 -2.8983 1.7328
9.2795 0.4779 1.1796
14.1439 4.2797 2.0370
12.0611 7.1745 2.0370
10.0245 9.9105 2.0920
7.9208 12.9777 2.2414
4.7320 15.0297 2.2414
0.3983 6.3748 0.8509
-1.2646 6.9604 0.8551
-8.6487 19.2982 2.2414
-15.4059 19.7520 2.2402
-21.8774 17.2511 2.0106
-24.2569 11.0461 1.4709
-25.3904 4.8058 1.0195
-26.7860 -1.4258 0.6934
-34.6808 -10.4812 0.5489
-26.2285 -15.5054 0.2427
-27.1399 -26.5483 0.1787
-2.8544 -37.9394 0.7295
10.1026 -23.5386 1.1716
8.6935 -11.5381 0.8972
9.0045 -7.3502 0.9220
9.2247 -4.3852 0.9847
14.1281 -2.9003 1.6210
9.2745 0.3651 1.1725
14.2427 4.1217 2.0370
12.1702 7.0406 2.0370
10.1503 9.7938 2.0924
8.0697 12.8674 2.2414
4.9020 14.9339 2.2414
0.4735 6.3421 0.8506
-1.1734 6.9345 0.8549
-8.3528 19.2573 2.2414
-15.0317 19.7584 2.2414
-21.6500 17.4982 2.0330
-24.2315 11.3880 1.4997
-25.3672 5.1177 1.0401
-25.1541 -1.0361 0.6663
-35.9279 -10.3886 0.5837
-26.1957 -15.0640 0.2488
-27.7123 -26.4637 0.1829
-3.3042 -37.8347 0.7085
19.1103 -46.0443 2.2414
8.6723 -11.8023 0.8971
8.9918 -7.5219 0.9197
9.2148 -4.5175 0.9808
13.0801 -2.8501 1.4944
9.2695 0.2526 1.1655
14.3410 3.9623 2.0370
12.2787 6.9057 2.0370
10.2754 9.6763 2.0928
8.2177 12.7563 2.2414
5.0707 14.8375 2.2414
0.5480 6.3092 0.8504
-1.0832 6.9082 0.8548
-8.0603 19.2150 2.2414
-14.6546 19.7518 2.2414
-21.2468 17.5989 2.0387
-24.2058 11.7331 1.5291
-25.3440 5.4306 1.0612
-25.1315 -0.7329 0.6811
-37.2583 -10.2898 0.6212
-26.3544 -14.7366 0.2571
-27.6621 -25.7870 0.1834
-3.7559 -37.7662 0.6887
8.6173 -12.0277 0.8939
8.9788 -7.6965 0.9175
9.1723 -4.6346 0.9736
13.1345 -3.0286 1.4944
9.2646 0.1403 1.1587
14.4389 3.8015 2.0370
12.3867 6.7698 2.0370
10.4000 9.5577 2.0931
8.3649 12.6444 2.2414
5.2382 14.7403 2.2414
0.6219 6.2759 0.8501
-0.9939 6.8815 0.8546
-7.7713 19.1713 2.2414
-14.2826 19.7429 2.2414
-20.8479 17.6954 2.0444
-29.7565 14.8677 1.9186
-25.3207 5.7446 1.0826
-25.1091 -0.4305 0.6962
-38.6811 -10.1842 0.6618
-27.0231 -14.6869 0.2707
-27.6131 -25.1277 0.1843
-4.2153 -37.7709 0.6706
17.5638 -45.3664 2.1121
8.6179 -12.3392 0.8966
8.9338 -7.8463 0.9122
9.1623 -4.7689 0.9698
8.9803 -2.1852 1.0176
16.8439 0.0513 2.0954
14.5362 3.6392 2.0370
12.4942 6.6327 2.0370
10.5226 9.4371 2.0932
8.4725 12.4749 2.2312
5.4045 14.6425 2.2414
1.8332 16.4637 2.2414
-0.9055 6.8544 0.8544
-7.4855 19.1264 2.2414
-13.9157 19.7319 2.2414
-20.4533 17.7881 2.0500
-29.2593 15.0613 1.9255
-25.2973 6.0596 1.1044
-25.7571 -0.1322 0.7305
-27.7173 -14.6354 0.2852
-27.5654 -24.4849 0.1855
-4.6760 -37.7756 0.6529
8.5882 -12.6170 0.8964
8.9204 -8.0266 0.9102
9.1522 -4.9047 0.9662
8.6711 -2.2212 0.9786
9.2322 -0.0836 1.1425
14.6330 3.4755 2.0370
12.6586 6.5242 2.0463
10.6442 9.3151 2.0932
8.4523 12.1254 2.1885
5.5698 14.5439 2.2414
2.0252 16.3796 2.2414
-0.8180 6.8270 0.8542
-7.2030 19.0800 2.2414
-13.5537 19.7187 2.2414
-20.0629 17.8769 2.0556
-28.7681 15.2484 1.9324
-25.2738 6.3759 1.1265
-25.7341 0.1770 0.7464
-27.7362 -14.2217 0.2932
-27.5188 -23.8578 0.1872
-5.1382 -37.7803 0.6356
16.2453 -45.1532 2.0103
8.5624 -12.9097 0.8968
8.9068 -8.2103 0.9084
9.1746 -5.0599 0.9660
7.9903 -2.1499 0.8982
9.2496 -0.1957 1.1387
14.7293 3.3102 2.0370
12.7075 6.3554 2.0370
10.7651 9.1923 2.0932
8.4328 11.7894 2.1476
5.7339 14.4449 2.2414
2.2156 16.2947 2.2414
-0.7313 6.7991 0.8540
-6.9237 19.0323 2.2414
-13.1963 19.7035 2.2414
-19.6767 17.9620 2.0611
-28.2828 15.4295 1.9393
-25.2502 6.6935 1.1490
-25.7112 0.4859 0.7626
-27.7039 -13.7870 0.3009
-27.4734 -23.2457 0.1892
-5.6195 -37.9014 0.6205
15.7558 -45.5014 1.9808
8.5139 -13.1777 0.8952
8.9245 -8.4275 0.9098
9.1642 -5.1991 0.9625
7.8383 -2.2108 0.8777
9.2447 -0.3075 1.1323
14.8251 3.1434 2.0370
12.8134 6.2150 2.0370
10.8854 9.0685 2.0932
8.4140 11.4660 2.1084
5.8968 14.3445 2.2414
2.4044 16.2091 2.2414
-0.6455 6.7710 0.8538
-6.6475 18.9835 2.2414
-12.8439 19.6861 2.2414
-19.2946 18.0434 2.0665
-27.8035 15.6044 1.9460
-25.2265 7.0126 1.1719
-25.6883 0.7942 0.7791
-27.6721 -13.3586 0.3088
-27.4290 -22.6480 0.1915
-6.1062 -38.0286 0.6057
8.5418 -13.5759 0.9019
8.9103 -8.6191 0.9081
9.1538 -5.3399 0.9591
11.5120 -3.3975 1.2841
9.2397 -0.4192 1.1260
14.9204 2.9751 2.0370
12.9188 6.0735 2.0370
10.6508 8.6560 2.0259
8.4695 11.2523 2.0890
6.0587 14.2438 2.2414
2.5918 16.1227 2.2414
-0.5605 6.7425 0.8536
-6.3744 18.9329 2.2414
-12.4961 19.6669 2.2414
-18.9165 18.1213 2.0719
-27.3299 15.7734 1.9527
-25.2027 7.3332 1.1952
-25.6654 1.1022 0.7959
-27.6407 -12.9361 0.3170
-4.8620 -3.9171 0.0345
-6.5981 -38.1571 0.5913
8.5220 -13.9126 0.9039
8.8958 -8.8146 0.9066
9.1432 -5.4824 0.9558
11.5010 -3.5456 1.2781
9.2348 -0.5310 1.1198
15.4410 2.8848 2.0947
13.0237 5.9308 2.0370
10.7734 8.5403 2.0273
8.6019 11.1437 2.0890
6.2195 14.1423 2.2414
2.7777 16.0356 2.2414
-0.4764 6.7136 0.8534
-6.1042 18.8821 2.2414
-12.1528 19.6457 2.2414
-18.5422 18.1956 2.0772
-26.8619 15.9367 1.9593
-25.1788 7.6554 1.2189
-25.6425 1.4099 0.8129
-25.4312 -4.7684 0.5062
-27.6098 -12.5193 0.3254
-4.9132 -3.8620 0.0354
-7.1236 -38.4392 0.5793
14.0296 -45.7887 1.8631
8.6015 -14.4287 0.9168
8.8809 -9.0141 0.9051
9.1281 -5.6238 0.9520
11.4899 -3.6946 1.2721
9.2298 -0.6428 1.1136
15.5383 2.7086 2.0948
13.1280 5.7870 2.0370
11.0226 8.5218 2.0523
8.7336 11.0343 2.0890
6.3792 14.0402 2.2414
2.9622 15.9477 2.2414
-0.3930 6.6844 0.8532
-5.8370 18.8295 2.2414
-11.8139 19.6226 2.2414
-18.1719 18.2666 2.0825
-26.3995 16.0944 1.9658
-25.1547 7.9794 1.2431
-25.6197 1.7175 0.8302
-25.4075 -4.4487 0.5183
-25.9222 -11.3805 0.3139
-27.3017 -20.9339 0.2005
-7.6619 -38.7394 0.5678
1.9002 -42.1388 1.0458
13.4432 -45.8330 1.8232
8.6613 -14.9340 0.9280
8.8344 -9.1852 0.9006
9.0893 -5.7521 0.9459
11.4788 -3.8444 1.2662
9.2248 -0.7546 1.1076
15.6351 2.5306 2.0948
13.2319 5.6419 2.0370
11.3604 8.5644 2.0933
8.8646 10.9243 2.0890
6.5378 13.9373 2.2414
3.1452 15.8592 2.2414
-0.3105 6.6549 0.8529
-5.5727 18.7759 2.2414
-11.4794 19.5977 2.2414
-4.3178 4.4460 0.5063
-25.9425 16.2467 1.9722
-25.1305 8.3053 1.2677
-25.5969 2.0251 0.8478
-25.8839 -4.2122 0.5411
-26.1643 -11.1136 0.3256
-27.2611 -20.3871 0.2041
-8.2396 -39.1804 0.5584
1.3536 -40.9398 0.9911
12.8598 -45.8771 1.7840
8.6892 -15.4057 0.9363
8.8190 -9.3926 0.8993
9.0784 -5.8994 0.9429
9.3095 -3.2433 1.0233
9.2199 -0.8665 1.1017
15.7313 2.3510 2.0949
13.3352 5.4957 2.0370
10.5831 7.7786 1.9302
8.9948 10.8133 2.0891
6.6954 13.8336 2.2414
3.3268 15.7699 2.2414
-0.2288 6.6251 0.8527
-3.6494 12.8633 1.5401
-11.1491 19.5710 2.2414
-4.2423 4.4748 0.5090
-25.4908 16.3936 1.9786
-25.1062 8.6331 1.2927
-25.5740 2.3327 0.8656
-26.9816 -4.0588 0.5780
-26.9259 -11.0571 0.3443
-27.2213 -19.8515 0.2081
-8.8681 -39.7887 0.5514
0.8470 -40.2536 0.9505
12.3427 -46.1586 1.7545
8.8104 -16.0686 0.9551
8.8346 -9.6388 0.9014
9.0996 -6.0702 0.9432
9.3003 -3.3664 1.0187
9.2149 -0.9785 1.0959
15.8270 2.1696 2.0949
13.4380 5.3482 2.0370
11.5943 8.3067 2.0933
9.1257 10.7034 2.0894
6.8520 13.7292 2.2414
3.5071 15.6799 2.2414
-0.1478 6.5949 0.8525
-4.7090 17.3961 2.0890
-10.8229 19.5426 2.2414
-17.0096 18.3798 2.0890
-25.0443 16.5354 1.9849
-25.0817 8.9630 1.3181
-25.5512 2.6404 0.8838
-26.9567 -3.7244 0.5916
-27.7251 -10.9977 0.3642
-27.1824 -19.3268 0.2123
-9.6591 -41.0101 0.5524
0.3581 -39.6849 0.9138
8.8500 -16.6111 0.9657
8.8184 -9.8565 0.9004
9.0883 -6.2221 0.9402
9.2911 -3.4904 1.0141
17.7062 -2.0969 2.0959
8.4258 1.0512 1.1086
13.5404 5.1995 2.0370
11.7104 8.1764 2.0933
9.2560 10.5927 2.0898
7.0076 13.6241 2.2414
3.6860 15.5891 2.2414
-0.0676 6.5644 0.8523
-4.4704 17.3430 2.0890
-10.5008 19.5124 2.2414
-16.6153 18.3929 2.0890
-24.6030 16.6720 1.9912
-25.0570 9.2953 1.3441
-25.5283 2.9483 0.9022
-26.9320 -3.3916 0.6054
-28.5648 -10.9354 0.3855
-27.1442 -18.8121 0.2168
-11.4158 -45.9850 0.6021
-0.1178 -39.2858 0.8820
8.9959 -17.3854 0.9886
8.8019 -10.0793 0.8995
9.0768 -6.3761 0.9374
9.2489 -3.6024 1.0061
9.1827 -1.2003 1.0819
9.1576 1.0301 1.1978
13.6423 5.0494 2.0370
11.8259 8.0451 2.0933
9.3858 10.4811 2.0902
7.1622 13.5183 2.2414
3.8636 15.4977 2.2414
0.0119 6.5336 0.8521
-4.2342 17.2888 2.0890
-10.1827 19.4806 2.2414
-16.2266 18.4035 2.0890
-24.0944 16.7535 1.9913
-25.0322 9.6297 1.3705
-25.5054 3.2566 0.9209
-26.9074 -3.0606 0.6195
-29.4486 -10.8697 0.4083
-27.1067 -18.3077 0.2215
-11.9877 -45.9211 0.5844
-0.5839 -38.8948 0.8513
9.0605 -18.0378 1.0032
8.7538 -10.2708 0.8956
9.0652 -6.5323 0.9346
9.2396 -3.7277 1.0018
17.8709 -2.5559 2.0960
9.2997 0.9321 1.2093
13.7436 4.8981 2.0370
11.9408 7.9128 2.0933
9.5148 10.3688 2.0905
7.3158 13.4117 2.2414
4.0398 15.4055 2.2414
0.0906 6.5024 0.8518
-4.0005 17.2336 2.0890
-9.8685 19.4473 2.2414
-15.8438 18.4113 2.0890
-23.1572 16.5183 1.9546
-25.0072 9.9666 1.3974
-25.4825 3.5652 0.9400
-26.8830 -2.7311 0.6338
-30.3802 -10.8006 0.4326
-27.0699 -17.8128 0.2265
-12.5617 -45.8576 0.5671
-1.0444 -38.6367 0.8243
9.2396 -18.9588 1.0313
8.7676 -10.5411 0.8982
9.0535 -6.6908 0.9319
9.2303 -3.8539 0.9975
17.9522 -2.7893 2.0960
9.2946 0.8181 1.2017
13.8444 4.7455 2.0370
12.0552 7.7794 2.0933
9.6432 10.2556 2.0909
7.4684 13.3044 2.2414
4.2147 15.3126 2.2414
0.1685 6.4710 0.8516
-3.7693 17.1776 2.0890
-9.5581 19.4123 2.2414
-15.5376 18.5016 2.0986
-22.5126 16.4704 1.9408
-24.9819 10.3060 1.4248
-25.4596 3.8743 0.9594
-26.8586 -2.4032 0.6483
-31.3639 -10.7275 0.4587
-27.0339 -17.3270 0.2318
-31.4049 -33.0198 0.2083
-13.1380 -45.7943 0.5503
-1.5002 -38.4088 0.7986
9.3843 -19.8576 1.0565
8.7498 -10.7806 0.8977
9.0095 -6.8275 0.9260
9.2536 -3.9955 0.9969
18.0326 -3.0252 2.0961
9.2896 0.7044 1.1942
13.9447 4.5916 2.0370
12.1691 7.6450 2.0933
9.7708 10.1416 2.0913
7.6201 13.1963 2.2414
4.3884 15.2191 2.2414
0.2459 6.4392 0.8513
-3.5406 17.1206 2.0890
-9.2515 19.3758 2.2414
-15.4921 18.9049 2.1440
-21.8919 16.4243 1.9278
-24.9566 10.6479 1.4527
-25.4366 4.1839 0.9791
-26.8343 -2.0762 0.6631
-32.4053 -10.6502 0.4866
-26.9985 -16.8502 0.2374
-31.3418 -32.1704 0.2069
-1.9508 -38.1835 0.7736
9.5077 -20.7609 1.0803
8.7315 -11.0265 0.8974
8.9974 -6.9902 0.9235
9.2441 -4.1241 0.9927
14.9735 -2.6985 1.7328
9.2846 0.5910 1.1869
14.0444 4.4365 2.0370
12.2822 7.5097 2.0933
9.8979 10.0265 2.0917
7.7709 13.0874 2.2414
4.5606 15.1248 2.2414
0.3224 6.4072 0.8511
-3.3138 17.0625 2.0890
-8.9483 19.3377 2.2414
-15.4496 19.3226 2.1913
-21.7663 16.7425 1.9580
-24.2820 10.7069 1.4426
-25.4135 4.4945 0.9991
-26.8102 -1.7509 0.6781
-33.5076 -10.5683 0.5166
-26.9636 -16.3810 0.2432
-27.0930 -27.1480 0.1784
-2.4026 -38.0446 0.7510
9.7524 -21.9888 1.1191
8.6819 -11.2386 0.8940
8.9851 -7.1558 0.9210
9.2344 -4.2541 0.9887
15.0385 -2.8980 1.7328
9.2795 0.4780 1.1796
14.1438 4.2798 2.0370
12.0611 7.1746 2.0370
10.0243 9.9108 2.0920
7.9206 12.9779 2.2414
4.7319 15.0298 2.2414
0.3983 6.3748 0.8509
-1.2648 6.9605 0.8551
-8.6491 19.2983 2.2414
-15.4060 19.7513 2.2401
-21.8774 17.2509 2.0106
-24.2569 11.0455 1.4709
-25.3904 4.8054 1.0194
-26.7861 -1.4262 0.6934
-34.6800 -10.4813 0.5489
-26.2285 -15.5062 0.2427
-27.1391 -26.5484 0.1787
-2.8536 -37.9396 0.7295
10.1020 -23.5363 1.1715
8.6935 -11.5379 0.8972
9.0045 -7.3499 0.9220
9.2247 -4.3851 0.9847
14.1295 -2.9004 1.6212
9.2745 0.3652 1.1725
14.2426 4.1219 2.0370
12.1701 7.0408 2.0370
10.1501 9.7939 2.0924
8.0696 12.8674 2.2414
4.9017 14.9341 2.2414
0.4734 6.3422 0.8506
-1.1735 6.9345 0.8549
-8.3530 19.2574 2.2414
-15.0324 19.7586 2.2414
-21.6506 17.4981 2.0330
-24.2315 11.3876 1.4997
-25.3672 5.1175 1.0401
-25.1541 -1.0367 0.6663
-35.9261 -10.3887 0.5836
-26.1957 -15.0645 0.2488
-27.7124 -26.4642 0.1829
-3.3037 -37.8348 0.7086
19.1107 -46.0423 2.2414
8.6723 -11.8020 0.8971
8.9918 -7.5217 0.9197
9.2149 -4.5174 0.9808
13.0800 -2.8498 1.4944
9.2695 0.2528 1.1656
14.3409 3.9624 2.0370
12.2786 6.9058 2.0370
10.2752 9.6765 2.0928
8.2175 12.7565 2.2414
5.0705 14.8376 2.2414
0.5480 6.3092 0.8504
-1.0834 6.9082 0.8548
-8.0607 19.2150 2.2414
-14.6550 19.7518 2.2414
-21.2471 17.5988 2.0387
-24.2059 11.7324 1.5290
-25.3440 5.4302 1.0612
-25.1316 -0.7333 0.6811
-37.2573 -10.2899 0.6212
-26.3532 -14.7367 0.2570
-27.6622 -25.7880 0.1834
-3.7551 -37.7662 0.6887
8.6173 -12.0275 0.8938
8.9788 -7.6962 0.9175
9.1723 -4.6344 0.9736
13.1344 -3.0284 1.4944
9.2646 0.1404 1.1587
14.4387 3.8017 2.0370
12.3866 6.7700 2.0370
10.3999 9.5578 2.0931
8.3648 12.6445 2.2414
5.2379 14.7405 2.2414
0.6218 6.2760 0.8501
-0.9940 6.8815 0.8546
-7.7715 19.1713 2.2414
-14.2833 19.7429 2.2414
-20.8485 17.6953 2.0444
-29.7570 14.8675 1.9186
-25.3207 5.7443 1.0826
-25.1091 -0.4310 0.6961
-38.6791 -10.1843 0.6617
-27.0224 -14.6870 0.2707
-27.6132 -25.1282 0.1843
-4.2148 -37.7709 0.6706
17.5647 -45.3659 2.1122
8.6180 -12.3388 0.8966
8.9338 -7.8461 0.9122
9.1623 -4.7688 0.9698
8.9805 -2.1850 1.0176
16.8438 0.0516 2.0954
14.5361 3.6394 2.0370
12.4941 6.6329 2.0370
10.5224 9.4373 2.0932
8.4726 12.4756 2.2313
5.4044 14.6426 2.2414
1.8331 16.4638 2.2414
-0.9055 6.8544 0.8544
-7.4859 19.1264 2.2414
-13.9160 19.7319 2.2414
-20.4536 17.7880 2.0500
-29.2594 15.0612 1.9255
-25.2973 6.0592 1.1043
-25.7571 -0.1325 0.7304
-27.7170 -14.6354 0.2852
-27.5655 -24.4858 0.1855
-4.6758 -37.7756 0.6529
8.5883 -12.6168 0.8964
8.9204 -8.0266 0.9102
9.1523 -4.9045 0.9662
8.6716 -2.2212 0.9787
9.2322 -0.0835 1.1425
14.6329 3.4755 2.0370
12.6586 6.5245 2.0463
10.6441 9.3153 2.0932
8.4523 12.1257 2.1886
5.5697 14.5439 2.2414
2.0249 16.3797 2.2414
-0.8181 6.8270 0.8542
-7.2032 19.0800 2.2414
-13.5538 19.7187 2.2414
-20.0635 17.8768 2.0556
-28.7687 15.2483 1.9324
-25.2738 6.3757 1.1265
-25.7341 0.1769 0.7464
-27.7362 -14.2222 0.2932
-27.5189 -23.8583 0.1872
-5.1377 -37.7803 0.6356
16.2455 -45.1532 2.0103
8.5624 -12.9093 0.8968
8.9068 -8.2101 0.9084
9.1746 -5.0598 0.9660
7.9903 -2.1498 0.8982
9.2497 -0.1955 1.1387
14.7292 3.3104 2.0370
12.7075 6.3555 2.0370
10.7650 9.1923 2.0932
8.4328 11.7898 2.1477
5.7336 14.4446 2.2414
2.2154 16.2947 2.2414
-0.7313 6.7992 0.8540
-6.9241 19.0323 2.2414
-13.1969 19.7035 2.2414
-19.6770 17.9619 2.0611
-28.2831 15.4294 1.9393
-25.2502 6.6931 1.1490
-25.7112 0.4854 0.7626
-27.7039 -13.7873 0.3009
-27.4734 -23.2466 0.1892
-5.6191 -37.9013 0.6205
15.7553 -45.4976 1.9807
8.5139 -13.1775 0.8952
8.9245 -8.4274 0.9098
9.1643 -5.1989 0.9625
7.8383 -2.2107 0.8777
9.2447 -0.3074 1.1323
14.8250 3.1435 2.0370
12.8133 6.2152 2.0370
10.8852 9.0687 2.0932
8.4140 11.4663 2.1085
5.8967 14.3446 2.2414
2.4042 16.2092 2.2414
-0.6456 6.7710 0.8538
-6.6477 18.9834 2.2414
-12.8442 19.6862 2.2414
-19.2951 18.0433 2.0665
-27.8041 15.6042 1.9460
-25.2265 7.0124 1.1719
-25.6883 0.7940 0.7791
-27.6722 -13.3592 0.3088
-27.4290 -22.6484 0.1915
-6.1055 -38.0284 0.6057
8.5418 -13.5754 0.9019
8.9103 -8.6189 0.9081
9.1538 -5.3398 0.9591
11.5120 -3.3974 1.2841
9.2397 -0.4191 1.1260
14.9203 2.9754 2.0370
12.9187 6.0736 2.0370
10.6508 8.6562 2.0259
8.4694 11.2525 2.0890
6.0585 14.2439 2.2414
2.5917 16.1227 2.2414
-0.5606 6.7425 0.8536
-6.3748 18.9332 2.2414
-12.4966 19.6669 2.2414
-18.9167 18.1212 2.0719
-27.3302 15.7733 1.9527
-25.2027 7.3327 1.1952
-25.6654 1.1017 0.7958
-27.6408 -12.9364 0.3170
-4.8619 -3.9173 0.0345
-6.5978 -38.1570 0.5913
8.5220 -13.9123 0.9039
8.8958 -8.8145 0.9066
9.1432 -5.4822 0.9558
11.5010 -3.5454 1.2781
9.2348 -0.5309 1.1198
15.4410 2.8850 2.0947
13.0235 5.9310 2.0370
10.7730 8.5403 2.0272
8.6018 11.1437 2.0890
6.2193 14.1424 2.2414
2.7775 16.0357 2.2414
-0.4765 6.7137 0.8534
-6.1044 18.8821 2.2414
-12.1530 19.6457 2.2414
-18.5428 18.1955 2.0772
-26.8625 15.9365 1.9593
-25.1788 7.6552 1.2189
-25.6426 1.4097 0.8129
-25.4312 -4.7689 0.5061
-27.6098 -12.5199 0.3254
-4.9132 -3.8620 0.0354
-7.1229 -38.4388 0.5794
14.0300 -45.7887 1.8631
8.6014 -14.4280 0.9168
8.8810 -9.0138 0.9051
9.1283 -5.6238 0.9520
11.4899 -3.6945 1.2721
9.2298 -0.6426 1.1137
15.5382 2.7088 2.0948
13.1280 5.7870 2.0370
11.0224 8.5218 2.0523
8.7334 11.0345 2.0890
6.3789 14.0403 2.2414
2.9621 15.9478 2.2414
-0.3931 6.6845 0.8532
-5.8374 18.8296 2.2414
-11.8144 19.6226 2.2414
-18.1722 18.2665 2.0825
-26.3997 16.0943 1.9658
-25.1547 7.9789 1.2430
-25.6197 1.7171 0.8302
-25.4075 -4.4489 0.5183
-25.9222 -11.3808 0.3139
-27.3018 -20.9347 0.2005
-7.6615 -38.7392 0.5678
1.9010 -42.1407 1.0459
13.4440 -45.8329 1.8232
8.6612 -14.9336 0.9280
8.8344 -9.1850 0.9006
9.0893 -5.7519 0.9460
11.4788 -3.8442 1.2662
9.2248 -0.7545 1.1076
15.6350 2.5308 2.0948
13.2317 5.6421 2.0370
11.3602 8.5646 2.0933
8.8645 10.9243 2.0890
6.5377 13.9373 2.2414
3.1450 15.8593 2.2414
-0.3106 6.6550 0.8529
-5.5729 18.7759 2.2414
-11.4796 19.5977 2.2414
-4.3181 4.4462 0.5063
-25.9431 16.2465 1.9722
-25.1305 8.3050 1.2676
-25.5969 2.0249 0.8477
-25.8819 -4.2124 0.5411
-26.1632 -11.1137 0.3256
-27.2611 -20.3875 0.2042
-8.2387 -39.1796 0.5584
1.3539 -40.9403 0.9912
12.8602 -45.8771 1.7840
8.6891 -15.4049 0.9363
8.8190 -9.3923 0.8993
9.0784 -5.8993 0.9429
9.3095 -3.2432 1.0233
9.2199 -0.8663 1.1017
15.7312 2.3513 2.0949
13.3351 5.4958 2.0370
10.5833 7.7788 1.9302
8.9946 10.8135 2.0891
6.6952 13.8338 2.2414
3.3267 15.7700 2.2414
-0.2288 6.6251 0.8527
-3.6496 12.8632 1.5400
-11.1495 19.5710 2.2414
-4.2423 4.4748 0.5090
-25.4911 16.3935 1.9786
-25.1062 8.6326 1.2926
-25.5741 2.3323 0.8656
-26.9816 -4.0590 0.5780
-26.9254 -11.0571 0.3443
-27.2214 -19.8523 0.2081
-8.8677 -39.7883 0.5514
0.8477 -40.2545 0.9505
12.3424 -46.1543 1.7544
8.8103 -16.0681 0.9551
8.8346 -9.6387 0.9014
9.0996 -6.0700 0.9432
9.3003 -3.3662 1.0187
9.2149 -0.9785 1.0959
15.8270 2.1698 2.0949
13.4379 5.3484 2.0370
11.5942 8.3069 2.0933
9.1256 10.7035 2.0894
6.8519 13.7293 2.2414
3.5068 15.6800 2.2414
-0.1479 6.5949 0.8525
-4.7092 17.3961 2.0890
-10.8231 19.5426 2.2414
-17.0101 18.3797 2.0890
-25.0450 16.5351 1.9849
-25.0817 8.9627 1.3181
-25.5512 2.6402 0.8837
-26.9568 -3.7249 0.5916
-27.7239 -10.9978 0.3642
-27.1824 -19.3272 0.2123
-9.6579 -41.0080 0.5524
0.3585 -39.6852 0.9138
8.8499 -16.6102 0.9657
8.8184 -9.8562 0.9004
9.0883 -6.2219 0.9402
9.2911 -3.4903 1.0141
