ply
format ascii 1.0
element vertex 1967
property float32 x
property float32 y
property float32 z
end_header
33.8079 24.4092 -2.1263
21.5834 25.3184 -1.5859
13.5281 26.8709 -1.4710
-20.6697 38.5966 -4.1300
-26.4714 29.4892 -4.4642
-28.1977 19.2492 -4.5040
-24.4800 9.1606 -3.9480
-25.4671 2.9780 -4.3312
-26.0247 -3.2991 -4.8394
-26.6680 -10.3245 -5.6268
-29.0092 -20.4182 -7.2721
10.8488 -11.7552 -2.2685
11.2350 -7.4395 -1.6504
14.3629 -5.1590 -1.5801
7.6201 -0.8041 -0.6593
9.0376 1.2220 -0.6474
23.0900 9.0588 -1.4677
36.1283 25.4320 -2.2654
22.0801 25.2814 -1.6020
13.4602 25.9573 -1.4247
-20.5953 39.5904 -4.1707
-25.7945 29.4382 -4.3722
-28.8898 20.2353 -4.6189
-24.4555 9.4895 -3.9377
-25.6536 3.3150 -4.3475
-26.1225 -2.9895 -4.8319
-26.4231 -9.8613 -5.5346
-29.0118 -19.8945 -7.2005
10.8290 -12.0211 -2.3099
11.2211 -7.6260 -1.6748
14.1737 -5.2838 -1.5801
7.6150 -0.8959 -0.6661
8.9654 1.1031 -0.6474
22.4921 8.5147 -1.4352
36.0781 24.7559 -2.2564
25.3538 28.3372 -1.8174
13.8241 25.8955 -1.4257
-20.5180 40.6234 -4.2138
-25.1334 29.3884 -4.2831
-28.6559 20.5895 -4.5866
-24.4309 9.8205 -3.9278
-25.6304 3.6278 -4.3286
-26.0985 -2.6661 -4.8023
-26.6115 -9.5640 -5.5341
-28.9714 -19.3512 -7.1203
10.8088 -12.2933 -2.3526
11.2071 -7.8149 -1.6998
13.9854 -5.4055 -1.5801
7.6109 -0.9880 -0.6731
8.8923 0.9861 -0.6474
23.1936 8.4642 -1.4860
36.2325 24.2289 -2.2611
25.1820 27.4757 -1.7844
14.2094 25.8668 -1.4290
-20.4375 41.6982 -4.2595
-24.4886 29.3398 -4.1969
-28.2917 20.8481 -4.5340
-24.4061 10.1541 -3.9183
-25.6071 3.9411 -4.3102
-25.8615 -2.3251 -4.7344
-26.5837 -9.1901 -5.4894
-28.9317 -18.8182 -7.0422
10.7881 -12.5720 -2.3967
11.1928 -8.0066 -1.7254
13.7979 -5.5241 -1.5800
7.6105 -1.0808 -0.6806
8.8184 0.8712 -0.6474
23.2162 8.1588 -1.4940
36.9024 24.0424 -2.2987
25.1293 26.7675 -1.7612
13.5151 23.9196 -1.3266
-20.3536 42.8178 -4.3080
-23.5423 28.9040 -4.0588
-29.3374 22.1679 -4.7083
-24.3811 10.4902 -3.9093
-24.7743 4.1202 -4.1564
-26.0507 -2.0239 -4.7451
-26.5562 -8.8201 -5.4456
-26.9581 -17.0700 -6.4998
10.7668 -12.8576 -2.4422
11.0367 -8.0971 -1.7295
13.8937 -5.7569 -1.6128
7.6144 -1.1745 -0.6886
8.7437 0.7582 -0.6474
23.2138 7.8470 -1.5007
36.8415 23.3788 -2.2915
25.1950 26.2020 -1.7475
14.9671 25.7639 -1.4350
-23.2428 29.2460 -4.0324
-24.3559 10.8289 -3.9007
-24.7517 4.4247 -4.1394
-26.0269 -1.7044 -4.7173
-26.5289 -8.4536 -5.4028
-27.0285 -16.6563 -6.4561
10.7450 -13.1506 -2.4892
11.1019 -8.3520 -1.7688
13.3399 -5.7157 -1.5699
24.3640 -4.0578 -2.2286
8.6682 0.6471 -0.6474
28.1178 9.1314 -1.8265
36.7804 22.7273 -2.2852
25.1451 25.5305 -1.7269
15.3652 25.7343 -1.4401
-22.6411 29.2006 -3.9540
-24.3305 11.1710 -3.8924
-24.7290 4.7301 -4.1229
-26.0033 -1.3864 -4.6902
-26.5020 -8.0913 -5.3610
-26.9358 -16.1488 -6.3750
10.7227 -13.4507 -2.5376
11.0871 -8.5515 -1.7962
12.8226 -5.6772 -1.5301
23.6282 -4.2266 -2.1862
8.5921 0.5382 -0.6474
28.1685 8.7762 -1.8390
36.7228 22.0881 -2.2800
25.1193 24.9011 -1.7090
15.7677 25.7044 -1.4458
-22.0623 29.1705 -3.8797
-36.3214 29.5616 -5.8603
-24.3048 11.5156 -3.8847
-24.7062 5.0359 -4.1068
-25.7674 -1.0603 -4.6255
-26.4752 -7.7320 -5.3201
-27.0743 -15.7864 -6.3501
13.4995 -17.3595 -3.2649
11.0720 -8.7541 -1.8244
12.3397 -5.6413 -1.4932
23.6456 -4.5229 -2.2134
8.5153 0.4310 -0.6474
27.7608 8.2861 -1.8220
16.3545 9.5724 -1.0150
25.0926 24.2854 -1.6921
16.2036 25.7185 -1.4547
-21.1640 28.6912 -3.7489
-35.2168 29.3725 -5.6942
-24.2012 11.8258 -3.8649
-24.6834 5.3430 -4.0911
-25.9562 -0.7531 -4.6377
-26.4488 -7.3765 -5.2801
-26.9346 -15.2674 -6.2612
13.5949 -17.9239 -3.3611
11.0567 -8.9603 -1.8533
11.8865 -5.6076 -1.4588
23.6688 -4.8219 -2.2417
8.4380 0.3259 -0.6474
27.9735 7.9859 -1.8461
17.1013 9.7362 -1.0613
25.0579 23.6777 -1.6757
16.6170 25.6877 -1.4617
-20.8663 29.0101 -3.7246
-34.2873 29.3034 -5.5568
-24.7144 5.6630 -4.0847
-25.9327 -0.4375 -4.6122
-26.4225 -7.0236 -5.2409
-26.8800 -14.8065 -6.1939
11.0411 -9.1696 -1.8829
11.4612 -5.5760 -1.4268
23.6974 -5.1244 -2.2711
8.3602 0.2226 -0.6474
28.6916 7.8209 -1.9044
17.3467 9.6030 -1.0769
25.0203 23.0810 -1.6600
17.0364 25.6566 -1.4694
-20.6604 29.4622 -3.7175
-33.3891 29.2366 -5.4249
-24.7166 5.9790 -4.0740
-25.9093 -0.1232 -4.5874
-26.3966 -6.6742 -5.2027
-26.9735 -14.4318 -6.1620
-4.9151 -47.6874 -9.4390
11.0253 -9.3829 -1.9134
11.3016 -5.6672 -1.4273
23.7237 -5.4282 -2.3010
8.2819 0.1214 -0.6474
28.6610 7.4449 -1.9137
17.6226 9.4817 -1.0947
25.0193 22.5319 -1.6477
17.4609 25.6250 -1.4777
-20.5371 30.0471 -3.7265
-32.5180 29.1718 -5.2978
-24.6145 6.2698 -4.0465
-25.8860 0.1910 -4.5630
-26.3707 -6.3272 -5.1652
-26.7209 -13.8799 -6.0525
-5.5024 -47.6793 -9.4745
11.0091 -9.6001 -1.9447
11.2894 -5.8315 -1.4465
23.7502 -5.7349 -2.3315
8.2031 0.0219 -0.6474
28.6123 7.0674 -1.9222
17.5986 9.1989 -1.0942
11.2451 9.8857 -0.7355
17.8919 25.5929 -1.4867
-20.4844 30.7556 -3.7499
-31.6749 29.1091 -5.1755
-24.6703 6.6025 -4.0455
-25.8626 0.5046 -4.5392
-26.1299 -5.9346 -5.0867
-26.7260 -13.4716 -6.0032
-6.0906 -47.6724 -9.5112
10.9927 -9.8209 -1.9767
11.2770 -5.9978 -1.4662
15.2791 -3.8839 -1.5183
8.1240 -0.0755 -0.6474
33.2953 7.8027 -2.2511
17.6634 8.9650 -1.0997
11.6537 9.9998 -0.7573
17.1538 23.9224 -1.4006
-20.4301 31.4852 -3.7746
-30.8559 29.0482 -5.0576
-24.6469 6.9161 -4.0319
-25.6283 0.8106 -4.4790
-26.3198 -5.6419 -5.0927
-26.8774 -13.1391 -5.9876
-29.1638 -24.5045 -7.8779
-6.6815 -47.6665 -9.5492
10.9759 -10.0461 -2.0097
11.2645 -6.1656 -1.4864
15.2649 -4.0755 -1.5357
8.0445 -0.1712 -0.6474
33.3550 7.3963 -2.2700
17.7279 8.7326 -1.1054
11.8688 9.9403 -0.7667
17.3193 23.5520 -1.3903
14.0369 33.7120 -1.8312
-21.0609 33.3261 -3.9291
-30.0621 28.9892 -4.9440
-24.6235 7.2316 -4.0186
-25.8161 1.1300 -4.4931
-26.0798 -5.2599 -5.0163
-26.6269 -12.6171 -5.8838
-29.3193 -24.0301 -7.8315
-7.2738 -47.6618 -9.5884
10.9589 -10.2754 -2.0436
11.2519 -6.3356 -1.5070
15.5137 -4.3419 -1.5802
7.9647 -0.2649 -0.6474
33.2765 6.9622 -2.2800
17.7626 8.4868 -1.1097
12.2371 10.0017 -0.7861
19.2217 25.4940 -1.5181
13.8072 32.0733 -1.7428
-21.0014 34.1306 -3.9579
-29.4929 29.1323 -4.8678
-24.5999 7.5483 -4.0058
-25.7929 1.4420 -4.4709
-26.2695 -4.9664 -5.0232
-26.5965 -12.2077 -5.8302
-29.0475 -23.2205 -7.6739
-7.8692 -47.6582 -9.6290
10.9415 -10.5095 -2.0785
11.2391 -6.5072 -1.5281
15.3203 -4.4864 -1.5802
7.8846 -0.3569 -0.6474
33.9457 6.6788 -2.3421
12.3563 9.8549 -0.7897
19.6204 25.3842 -1.5254
13.8447 31.1280 -1.6927
-20.9399 34.9635 -3.9885
-28.8253 29.1644 -4.7758
-24.5762 7.8670 -3.9934
-25.7697 1.7543 -4.4491
-26.0303 -4.5945 -4.9489
-26.7853 -11.9016 -5.8256
-29.2021 -22.7648 -7.6315
-8.4663 -47.6557 -9.6708
10.9237 -10.7481 -2.1143
11.2262 -6.6811 -1.5497
11.6638 -3.5681 -1.2184
7.8044 -0.4469 -0.6474
38.7322 7.1403 -2.6914
22.5018 10.0966 -1.4123
12.3530 9.6124 -0.7859
20.1960 25.4925 -1.5468
13.7580 29.9623 -1.6310
-20.8764 35.8239 -4.0209
-28.6098 29.6504 -4.7593
-30.6233 19.3228 -4.8821
-24.5524 8.1872 -3.9815
-25.7465 2.0660 -4.4278
-26.2200 -4.2999 -4.9567
-26.5368 -11.4058 -5.7269
-4.8738 -3.7047 -1.2602
-9.0671 -47.6543 -9.7140
10.9056 -10.9919 -2.1512
11.2131 -6.8568 -1.5717
11.6527 -3.7179 -1.2329
7.7239 -0.5352 -0.6474
7.9720 1.3711 -0.5580
22.1970 9.6425 -1.3970
12.3466 9.3724 -0.7821
20.6694 25.4572 -1.5604
13.5487 28.5977 -1.5590
-3.6983 13.0558 -1.0786
-20.8105 36.7161 -4.0553
-27.8789 29.5953 -4.6577
-30.3918 19.6915 -4.8475
-24.5284 8.5097 -3.9699
-25.7233 2.3781 -4.4070
-25.9814 -3.9375 -4.8843
-26.6222 -11.0604 -5.7017
-29.1380 -21.5920 -7.4554
-9.6702 -47.6541 -9.7584
10.8871 -11.2406 -2.1891
11.1999 -7.0351 -1.5944
11.6415 -3.8688 -1.2477
7.6433 -0.6217 -0.6474
7.9676 1.2724 -0.5619
22.4968 9.4539 -1.4202
12.3406 9.1368 -0.7788
21.0946 25.3547 -1.5706
13.6772 27.9978 -1.5292
-1.1482 46.7278 -3.0416
-20.2139 36.6807 -3.9874
-4.2550 4.6271 -0.7141
-24.5043 8.8337 -3.9588
-25.7001 2.6899 -4.3867
-25.9572 -3.6116 -4.8530
-26.4787 -10.6241 -5.6284
-29.0951 -21.0152 -7.3681
-10.2773 -47.6550 -9.8044
10.8682 -11.4951 -2.2282
11.0836 -7.1490 -1.6026
14.5531 -5.0309 -1.5801
7.6303 -0.7128 -0.6532
9.1088 1.3429 -0.6474
22.7626 9.2468 -1.4417
33.8068 24.4093 -2.1262
21.5830 25.3184 -1.5859
13.5282 26.8716 -1.4710
-20.6698 38.5959 -4.1299
-26.4724 29.4893 -4.4643
-28.1975 19.2484 -4.5040
-24.4800 9.1603 -3.9480
-25.4671 2.9778 -4.3312
-26.0245 -3.2995 -4.8394
-26.6681 -10.3250 -5.6269
-29.0087 -20.4182 -7.2721
10.8489 -11.7548 -2.2684
11.2350 -7.4394 -1.6503
14.3630 -5.1589 -1.5801
7.6201 -0.8039 -0.6593
9.0376 1.2221 -0.6474
23.0900 9.0590 -1.4677
36.1284 25.4325 -2.2654
22.0801 25.2814 -1.6020
13.4603 25.9585 -1.4248
-20.5954 39.5890 -4.1706
-25.7950 29.4383 -4.3723
-28.8900 20.2351 -4.6189
-24.4556 9.4892 -3.9377
-25.6537 3.3146 -4.3475
-26.1225 -2.9899 -4.8319
-26.4226 -9.8613 -5.5345
-29.0118 -19.8949 -7.2006
10.8261 -12.0612 -1.9437
11.2190 -7.6543 -1.3678
15.7247 -5.8931 -1.3738
7.8964 -0.9415 -0.5112
9.2606 1.1272 -0.4580
22.7865 8.6012 -0.9042
36.0757 24.7237 -1.2691
25.3531 28.3278 -0.9597
13.8153 25.8961 -0.7636
-19.8591 39.1625 -3.0726
-24.5268 28.5775 -3.3172
-28.6474 20.5057 -3.7773
-24.4345 9.7727 -3.3235
-24.9021 3.4849 -3.6261
-25.3565 -2.6241 -4.0764
-26.4007 -9.5174 -4.8394
-27.2559 -18.2284 -5.9357
-11.8050 -46.2835 -8.5499
10.8058 -12.3342 -1.9822
11.2050 -7.8436 -1.3907
15.0365 -5.8419 -1.3345
7.8921 -1.0371 -0.5182
9.2830 1.0171 -0.4650
22.9428 8.3472 -0.9188
36.2746 24.2257 -1.2791
25.2998 27.5947 -0.9482
14.2013 25.8674 -0.7634
-19.7820 40.1985 -3.0965
-23.8979 28.5307 -3.2433
-28.6925 21.0643 -3.7820
-24.4097 10.1058 -3.3117
-24.8795 3.7889 -3.6077
-25.3332 -2.3116 -4.0496
-26.5859 -9.2205 -4.8373
-26.9962 -17.5825 -5.8216
-12.4075 -46.2844 -8.5955
10.7850 -12.6138 -2.0218
11.1907 -8.0357 -1.4140
14.4004 -5.7946 -1.2985
7.8879 -1.1329 -0.5255
9.2780 0.9042 -0.4706
22.9411 8.0364 -0.9275
37.1356 24.1617 -1.3132
25.3164 26.9563 -0.9400
13.5133 23.9292 -0.7072
-19.7018 41.2776 -3.1221
-23.2837 28.4850 -3.1717
-29.2183 21.9957 -3.8506
-24.3847 10.4414 -3.3003
-24.8569 4.0934 -3.5898
-25.3101 -2.0004 -4.0233
-26.5584 -8.8507 -4.7970
-26.9600 -17.0948 -5.7576
-13.0143 -46.2862 -8.6423
10.7637 -12.9003 -2.0627
11.0121 -8.1099 -1.4169
13.8104 -5.7507 -1.2653
7.8836 -1.2290 -0.5328
9.2730 0.7916 -0.4764
27.8227 9.3735 -1.1358
38.0262 24.0969 -1.3491
25.1941 26.1892 -0.9276
14.9936 25.8219 -0.7647
-19.6181 42.4029 -3.1495
-22.6833 28.4404 -3.1023
-29.2893 22.6059 -3.8598
-24.3596 10.7798 -3.2892
-24.8342 4.3985 -3.5722
-25.2061 -1.6850 -3.9847
-26.5312 -8.4848 -4.7576
-26.9542 -16.6343 -5.7017
10.7418 -13.1941 -2.1048
11.0997 -8.3820 -1.4544
13.2724 -5.7145 -1.2357
7.8680 -1.3235 -0.5395
9.2680 0.6793 -0.4823
27.6110 8.9350 -1.1384
36.0998 22.2739 -1.2855
25.1441 25.5173 -0.9185
15.3930 25.7922 -0.7658
-19.5455 43.6106 -3.1813
-22.1037 28.4064 -3.0359
-24.3342 11.1210 -3.2784
-24.8114 4.7044 -3.5549
-25.2641 -1.3816 -3.9722
-26.5043 -8.1224 -4.7189
-26.8996 -16.1515 -5.6368
10.7194 -13.4955 -2.1483
11.0848 -8.5820 -1.4794
12.6242 -5.6160 -1.1944
7.8479 -1.4170 -0.5461
9.2630 0.5674 -0.4884
28.0270 8.6998 -1.1673
39.8902 23.9568 -1.4263
25.2767 25.0437 -0.9168
15.7973 25.7622 -0.7675
-21.6036 28.4620 -2.9808
-24.3086 11.4653 -3.2679
-24.7093 4.9950 -3.5266
-25.2412 -1.0737 -3.9474
-26.4776 -7.7635 -4.6811
-27.0762 -15.8120 -5.6214
12.6101 -16.2748 -2.5857
11.0697 -8.7852 -1.5050
12.2709 -5.6362 -1.1800
7.8436 -1.5135 -0.5538
9.2581 0.4557 -0.4945
28.1774 8.3774 -1.1857
40.8716 23.8838 -1.4680
25.8469 25.0013 -0.9316
16.1985 25.7189 -0.7692
-21.2119 28.6536 -2.9411
-36.9090 30.6723 -4.8678
-24.2050 11.7749 -3.2473
-24.7658 5.3185 -3.5214
-25.2184 -0.7668 -3.9230
-26.4511 -7.4080 -4.6441
-26.8955 -15.2703 -5.5331
12.6801 -16.7791 -2.6610
11.0544 -8.9917 -1.5312
11.8220 -5.6028 -1.1555
7.8393 -1.6105 -0.5618
9.2531 0.3444 -0.5008
28.2767 8.0392 -1.2025
17.2892 9.8269 -0.6241
26.3886 24.9195 -0.9456
16.6128 25.6881 -0.7717
-20.9044 28.9584 -2.9135
-35.4059 30.1497 -4.6723
-24.7428 5.6270 -3.5051
-25.1956 -0.4607 -3.8991
-26.4249 -7.0556 -4.6078
-26.8399 -14.8095 -5.4721
12.7539 -17.3065 -2.7401
11.0387 -9.2017 -1.5581
11.4001 -5.5714 -1.1326
8.9011 -1.9401 -0.6474
7.9630 0.2008 -0.4368
28.3497 7.6938 -1.2185
17.4537 9.6453 -0.6334
25.1773 23.2106 -0.8977
17.0326 25.6568 -0.7748
-20.6776 29.3807 -2.8979
-34.4779 30.0816 -4.5532
-24.7198 5.9366 -3.4892
-25.1729 -0.1554 -3.8757
-26.3989 -6.7062 -4.5722
-26.9755 -14.4587 -5.4511
-4.8518 -46.6338 -8.1402
12.8316 -17.8588 -2.8233
11.0228 -9.4154 -1.5857
11.2998 -5.6915 -1.1413
8.7697 -2.0219 -0.6474
7.9156 0.1047 -0.4400
33.0848 8.5543 -1.4376
17.5543 9.4279 -0.6406
27.6335 24.8684 -0.9810
17.4581 25.6252 -0.7784
-20.5547 29.9636 -2.8977
-33.5793 30.0157 -4.4386
-24.6967 6.2473 -3.4736
-25.1502 0.1493 -3.8526
-26.3732 -6.3597 -4.5373
-26.7229 -13.9072 -5.3530
-5.4183 -46.5684 -8.1634
12.9136 -18.4381 -2.9108
11.0067 -9.6330 -1.6141
11.2876 -5.8562 -1.1591
8.6395 -2.1014 -0.6474
7.9114 0.0098 -0.4457
33.6319 8.2669 -1.4776
17.5509 9.1566 -0.6444
28.2565 24.8221 -0.9994
17.8895 25.5931 -0.7825
-20.4919 30.6540 -2.9069
-32.7084 29.9518 -4.3281
-24.6735 6.5593 -3.4584
-25.1276 0.4535 -3.8300
-26.3476 -6.0159 -4.5032
-26.6911 -13.4803 -5.3007
-5.9848 -46.5024 -8.1872
13.0003 -19.0466 -3.0032
10.9902 -9.8545 -1.6431
11.2752 -6.0227 -1.1773
7.8577 -2.0113 -0.5977
7.9072 -0.0850 -0.4515
33.1465 7.7274 -1.4727
17.5478 8.8889 -0.6484
11.9167 10.2177 -0.4202
17.1548 23.9255 -0.7368
-20.4378 31.3817 -2.9185
-31.8636 29.8898 -4.2217
-24.6502 6.8727 -3.4435
-25.1050 0.7573 -3.8078
-26.3222 -5.6748 -4.4697
-26.8795 -13.1671 -5.2928
-29.1431 -24.5062 -6.9848
-6.5517 -46.4357 -8.2117
13.0919 -19.6867 -3.1007
10.9734 -10.0803 -1.6730
11.2627 -6.1910 -1.1959
8.3832 -2.2533 -0.6474
7.9030 -0.1798 -0.4575
33.7633 7.4454 -1.5172
17.5449 8.6246 -0.6527
11.7380 9.8225 -0.4128
17.3186 23.5521 -0.7310
14.0408 33.7637 -1.0091
-20.3820 32.1323 -2.9311
-31.0436 29.8296 -4.1190
-24.6267 7.1876 -3.4289
-25.0824 1.0606 -3.7861
-26.0822 -5.2925 -4.4006
-26.6290 -12.6449 -5.1996
-27.3576 -22.4411 -6.4830
-7.1188 -46.3695 -8.2369
13.1891 -20.3613 -3.2039
10.9563 -10.3104 -1.7036
11.2500 -6.3611 -1.2149
22.7841 -6.4181 -1.7863
7.9260 -0.2754 -0.4651
33.7642 7.0222 -1.5348
12.1974 9.9606 -0.4282
19.2220 25.4940 -0.7981
13.9057 32.3391 -0.9631
-20.3243 32.9076 -2.9446
-30.2472 29.7711 -4.0200
-24.6032 7.5040 -3.4146
-25.0599 1.3636 -3.7647
-26.2720 -4.9998 -4.4047
-26.5986 -12.2360 -5.1509
-27.5389 -22.0338 -6.4536
-7.6865 -46.3038 -8.2631
13.2922 -21.0733 -3.3131
10.9388 -10.5450 -1.7351
11.2372 -6.5332 -1.2343
22.7478 -6.7034 -1.8108
7.9218 -0.3704 -0.4713
38.4008 7.5074 -1.7661
12.3455 9.8371 -0.4328
19.6212 25.3841 -0.8020
13.8478 31.1688 -0.9254
-20.2647 33.7088 -2.9592
-28.8325 29.0686 -3.8390
-24.5009 7.7971 -3.3897
-25.0374 1.6665 -3.7438
-26.2472 -4.6657 -4.3731
-26.7875 -11.9302 -5.1452
-27.4959 -21.4549 -6.3731
-8.2655 -46.2966 -8.3005
10.9210 -10.7844 -1.7674
11.2243 -6.7073 -1.2541
11.6611 -3.5889 -0.9426
7.9176 -0.4654 -0.4777
38.4742 7.0440 -1.7904
12.1769 9.4662 -0.4266
20.1980 25.4923 -0.8134
13.7607 29.9977 -0.8884
-20.2031 34.5377 -2.9750
-27.9167 28.8296 -3.7247
-24.4772 8.1160 -3.3761
-25.0149 1.9692 -3.7232
-26.2225 -4.3338 -4.3422
-26.7576 -11.5288 -5.0983
-4.8706 -3.7059 -1.1168
-8.8474 -46.2922 -8.3393
10.9029 -11.0288 -1.8007
11.2111 -6.8836 -1.2744
11.6500 -3.7391 -0.9563
7.9133 -0.5604 -0.4841
39.1819 6.6891 -1.8453
44.4091 19.2443 -1.7024
12.1724 9.2306 -0.4263
20.6720 25.4571 -0.8209
13.6790 28.8998 -0.8542
-20.1392 35.3959 -2.9918
-27.2035 28.7766 -3.6378
-28.4486 18.3605 -3.7608
-24.4533 8.4367 -3.3629
-24.9123 2.2647 -3.6912
-26.1979 -4.0038 -4.3118
-26.7281 -11.1326 -5.0524
-27.1895 -20.1692 -6.1685
-9.4322 -46.2887 -8.3792
10.7842 -11.1746 -1.8181
11.1648 -7.0412 -1.2913
18.4502 -6.1667 -1.5381
7.9091 -0.6555 -0.4907
7.8791 1.2481 -0.3756
22.1480 9.2838 -0.8560
33.0769 24.4636 -1.1589
21.0984 25.3544 -0.8269
13.6792 28.0258 -0.8272
-1.2011 46.7622 -1.9887
-20.0731 36.2853 -3.0100
-4.2664 4.6231 -0.5719
-28.0988 18.6173 -3.7114
-24.4293 8.7595 -3.3499
-24.9698 2.5748 -3.6832
-25.3455 -3.5594 -4.1466
-26.4809 -10.6535 -4.9665
-27.3722 -19.7922 -6.1453
-10.0200 -46.2861 -8.4202
10.7654 -11.4273 -1.8529
11.2467 -7.2831 -1.3237
17.2866 -6.0092 -1.4636
7.9049 -0.7507 -0.4974
8.3861 1.2255 -0.4046
22.4749 9.1055 -0.8761
33.8417 24.4067 -1.1867
21.5875 25.3181 -0.8357
13.5300 26.8967 -0.7932
-20.0045 37.2079 -3.0294
-4.2349 4.7009 -0.5693
-27.8855 18.9625 -3.6806
-24.4051 9.0844 -3.3372
-24.9473 2.8777 -3.6638
-25.3220 -3.2434 -4.1183
-26.6703 -10.3546 -4.9635
-27.3327 -19.2607 -6.0736
-10.6112 -46.2844 -8.4623
10.8459 -11.7941 -1.9064
11.2330 -7.4673 -1.3455
16.4725 -5.9487 -1.4167
7.9006 -0.8459 -0.5042
8.8076 1.1795 -0.4303
22.9643 8.9848 -0.9030
36.1260 25.4011 -1.2685
22.0851 25.2811 -0.8451
13.4619 25.9801 -0.7659
-19.9332 38.1658 -3.0503
-25.1718 28.6255 -3.3936
-28.4317 19.8381 -3.7505
-24.4200 9.4269 -3.3302
-24.9247 3.1810 -3.6448
-25.2986 -2.9288 -4.0906
-26.4242 -9.8910 -4.8803
-27.2939 -18.7395 -6.0037
-11.2058 -46.2835 -8.5055
10.8261 -12.0609 -1.9437
11.2191 -7.6541 -1.3678
15.7254 -5.8931 -1.3738
7.8964 -0.9414 -0.5111
9.2606 1.1273 -0.4580
22.7865 8.6014 -0.9041
36.0757 24.7244 -1.2691
25.3532 28.3283 -0.9598
13.8149 25.8961 -0.7636
-19.8592 39.1614 -3.0726
-24.5272 28.5775 -3.3173
-28.6474 20.5051 -3.7773
-24.4345 9.7725 -3.3235
-24.9022 3.4845 -3.6261
-25.3565 -2.6243 -4.0764
-26.4005 -9.5177 -4.8394
-27.2559 -18.2288 -5.9357
-11.8043 -46.2835 -8.5499
10.8058 -12.3339 -1.9821
11.2050 -7.8435 -1.3906
15.0373 -5.8420 -1.3346
7.8921 -1.0370 -0.5182
9.2830 1.0173 -0.4649
22.9428 8.3475 -0.9188
36.2737 24.2258 -1.2791
25.2993 27.5947 -0.9482
14.2008 25.8674 -0.7634
-19.7821 40.1973 -3.0965
-23.8984 28.5307 -3.2434
-28.6925 21.0637 -3.7820
-24.4097 10.1055 -3.3117
-24.8796 3.7885 -3.6078
-25.3333 -2.3119 -4.0496
-26.5860 -9.2209 -4.8373
-26.9963 -17.5829 -5.8216
-12.4068 -46.2844 -8.5954
10.7850 -12.6135 -2.0218
11.1907 -8.0356 -1.4140
14.4011 -5.7946 -1.2986
7.8879 -1.1329 -0.5255
9.2780 0.9043 -0.4706
22.9411 8.0367 -0.9275
37.1346 24.1618 -1.3131
25.3164 26.9568 -0.9401
13.5134 23.9301 -0.7072
-19.7019 41.2763 -3.1221
-23.2842 28.4851 -3.1718
-29.2182 21.9950 -3.8506
-24.3848 10.4411 -3.3003
-24.8569 4.0930 -3.5898
-25.3101 -2.0009 -4.0234
-26.5585 -8.8512 -4.7970
-26.9600 -17.0952 -5.7577
-13.0135 -46.2862 -8.6423
10.7637 -12.9000 -2.0626
11.0121 -8.1097 -1.4169
13.8107 -5.7507 -1.2653
7.8836 -1.2288 -0.5328
9.2730 0.7917 -0.4764
27.8224 9.3737 -1.1358
38.0257 24.0970 -1.3490
25.1942 26.1903 -0.9276
14.9931 25.8220 -0.7647
-19.6182 42.4016 -3.1495
-22.6838 28.4404 -3.1023
-29.2892 22.6056 -3.8598
-24.3596 10.7792 -3.2892
-24.8342 4.3981 -3.5722
-25.2061 -1.6853 -3.9848
-26.5312 -8.4850 -4.7576
-26.9538 -16.6347 -5.7017
10.7418 -13.1939 -2.1048
11.0997 -8.3817 -1.4544
13.2730 -5.7145 -1.2357
7.8681 -1.3233 -0.5395
9.2680 0.6794 -0.4823
27.6103 8.9353 -1.1383
36.0998 22.2746 -1.2855
25.1442 25.5179 -0.9185
15.3928 25.7923 -0.7658
-19.5454 43.6099 -3.1812
-22.1045 28.4063 -3.0360
-24.3342 11.1207 -3.2784
-24.8114 4.7042 -3.5549
-25.2641 -1.3821 -3.9723
-26.5043 -8.1229 -4.7190
-26.8990 -16.1515 -5.6367
10.7194 -13.4951 -2.1483
11.0848 -8.5818 -1.4794
12.6245 -5.6160 -1.1944
7.8479 -1.4168 -0.5461
9.2630 0.5675 -0.4884
28.0270 8.7001 -1.1673
39.8896 23.9569 -1.4263
25.2758 25.0438 -0.9168
15.7968 25.7622 -0.7674
-21.6040 28.4619 -2.9809
-24.3086 11.4647 -3.2679
-24.7093 4.9946 -3.5267
-25.2412 -1.0741 -3.9474
-26.4776 -7.7638 -4.6811
-27.0762 -15.8128 -5.6215
12.6101 -16.2745 -2.5857
11.0697 -8.7848 -1.5050
12.2715 -5.6363 -1.1800
7.8436 -1.5134 -0.5538
9.2581 0.4558 -0.4945
28.1772 8.3780 -1.1857
40.8702 23.8839 -1.4680
25.8463 25.0013 -0.9315
16.1982 25.7189 -0.7692
-21.2125 28.6532 -2.9411
-36.9090 30.6713 -4.8678
-24.2050 11.7746 -3.2473
-24.7658 5.3183 -3.5214
-25.2184 -0.7674 -3.9231
-26.4512 -7.4085 -4.6441
-26.8948 -15.2704 -5.5330
12.6800 -16.7783 -2.6609
11.0544 -8.9915 -1.5312
11.8223 -5.6028 -1.1555
7.8393 -1.6103 -0.5617
9.2531 0.3445 -0.5008
28.2766 8.0395 -1.2025
17.2891 9.8270 -0.6241
26.3887 24.9207 -0.9456
16.6122 25.6881 -0.7717
-20.9046 28.9580 -2.9136
-35.4066 30.1498 -4.6724
-24.7428 5.6266 -3.5052
-25.1956 -0.4611 -3.8991
-26.4249 -7.0558 -4.6078
-26.8387 -14.8096 -5.4720
12.7538 -17.3061 -2.7400
11.0388 -9.2014 -1.5581
11.4007 -5.5715 -1.1327
8.9012 -1.9400 -0.6474
7.9631 0.2009 -0.4368
28.3497 7.6944 -1.2185
17.4535 9.6456 -0.6334
25.1773 23.2113 -0.8978
17.0323 25.6569 -0.7748
-20.6778 29.3797 -2.8979
-34.4792 30.0817 -4.5534
-24.7198 5.9364 -3.4892
-25.1729 -0.1559 -3.8757
-26.3990 -6.7067 -4.5722
-26.9756 -14.4592 -5.4512
-4.8512 -46.6339 -8.1402
12.8315 -17.8580 -2.8231
11.0229 -9.4152 -1.5857
11.2998 -5.6913 -1.1413
8.7699 -2.0218 -0.6474
7.9156 0.1048 -0.4400
33.0844 8.5546 -1.4376
17.5543 9.4281 -0.6406
27.6324 24.8685 -0.9810
17.4575 25.6252 -0.7784
-20.5549 29.9629 -2.8977
-33.5800 30.0157 -4.4386
-24.6967 6.2469 -3.4737
-25.1502 0.1490 -3.8526
-26.3732 -6.3599 -4.5374
-26.7229 -13.9073 -5.3530
-5.4181 -46.5684 -8.1634
12.9135 -18.4377 -2.9108
11.0067 -9.6329 -1.6141
11.2876 -5.8560 -1.1591
8.6397 -2.1013 -0.6474
7.9114 0.0098 -0.4457
33.6319 8.2670 -1.4776
17.5509 9.1570 -0.6444
28.2558 24.8221 -0.9994
17.8892 25.5931 -0.7825
-20.4919 30.6537 -2.9069
-32.7096 29.9518 -4.3283
-24.6735 6.5591 -3.4584
-25.1276 0.4534 -3.8300
-26.3476 -6.0164 -4.5032
-26.6912 -13.4808 -5.3007
-5.9842 -46.5024 -8.1872
13.0001 -19.0457 -3.0031
10.9902 -9.8543 -1.6431
11.2752 -6.0226 -1.1773
7.8577 -2.0113 -0.5977
7.9072 -0.0849 -0.4515
33.1466 7.7278 -1.4726
17.5478 8.8891 -0.6484
11.9167 10.2177 -0.4202
17.1549 23.9265 -0.7368
-20.4379 31.3806 -2.9185
-31.8642 29.8898 -4.2218
-24.6502 6.8723 -3.4435
-25.1050 0.7568 -3.8079
-26.3222 -5.6750 -4.4697
-26.8795 -13.1674 -5.2928
-29.1432 -24.5071 -6.9849
-6.5513 -46.4357 -8.2116
13.0919 -19.6863 -3.1006
10.9734 -10.0801 -1.6729
11.2627 -6.1907 -1.1959
8.3834 -2.2532 -0.6474
7.9030 -0.1797 -0.4575
33.7633 7.4457 -1.5172
17.5449 8.6250 -0.6527
11.7374 9.8223 -0.4128
17.3183 23.5521 -0.7310
14.0408 33.7647 -1.0091
-20.3820 32.1318 -2.9311
-31.0448 29.8297 -4.1192
-24.6268 7.1873 -3.4289
-25.0825 1.0604 -3.7861
-26.0822 -5.2930 -4.4007
-26.6291 -12.6455 -5.1997
-27.3576 -22.4416 -6.4830
-7.1179 -46.3695 -8.2369
13.1890 -20.3603 -3.2037
10.9563 -10.3100 -1.7036
11.2500 -6.3610 -1.2149
22.7851 -6.4182 -1.7863
7.9260 -0.2753 -0.4651
33.7642 7.0228 -1.5348
12.1964 9.9600 -0.4281
19.2214 25.4941 -0.7981
13.9050 32.3391 -0.9631
-20.3244 32.9064 -2.9446
-30.2477 29.7712 -4.0200
-24.6032 7.5036 -3.4146
-25.0599 1.3632 -3.7647
-26.2720 -5.0000 -4.4047
-26.5986 -12.2363 -5.1509
-27.5390 -22.0347 -6.4537
-7.6861 -46.3039 -8.2631
13.2921 -21.0728 -3.3131
10.9388 -10.5448 -1.7351
11.2372 -6.5329 -1.2343
22.7478 -6.7030 -1.8108
7.9218 -0.3703 -0.4713
38.4017 7.5079 -1.7661
12.3456 9.8375 -0.4328
19.6209 25.3841 -0.8020
13.8478 31.1696 -0.9255
-20.2648 33.7082 -2.9592
-28.8325 29.0677 -3.8390
-24.5009 7.7969 -3.3897
-25.0374 1.6663 -3.7438
-26.2472 -4.6662 -4.3732
-26.7875 -11.9307 -5.1453
-27.4959 -21.4554 -6.3732
-8.2647 -46.2966 -8.3004
10.9211 -10.7841 -1.7674
11.2243 -6.7072 -1.2541
11.6611 -3.5888 -0.9426
7.9176 -0.4652 -0.4777
38.4743 7.0447 -1.7904
12.1769 9.4664 -0.4266
20.1974 25.4924 -0.8134
13.7608 29.9993 -0.8885
-20.2032 34.5365 -2.9749
-27.9172 28.8296 -3.7248
-24.4772 8.1155 -3.3762
-25.0149 1.9688 -3.7232
-26.2225 -4.3340 -4.3422
-26.7576 -11.5291 -5.0983
-4.8705 -3.7059 -1.1168
-8.8470 -46.2922 -8.3393
10.9029 -11.0286 -1.8007
11.2112 -6.8833 -1.2744
11.6500 -3.7388 -0.9563
7.9133 -0.5603 -0.4841
39.1819 6.6894 -1.8452
44.4086 19.2450 -1.7024
12.1724 9.2309 -0.4263
20.6717 25.4571 -0.8209
13.6791 28.9005 -0.8542
-20.1393 35.3953 -2.9918
-27.2045 28.7766 -3.6379
-28.4490 18.3601 -3.7608
-24.4533 8.4365 -3.3629
-24.9124 2.2645 -3.6912
-26.1980 -4.0042 -4.3119
-26.7282 -11.1331 -5.0524
-27.1890 -20.1692 -6.1685
-9.4314 -46.2887 -8.3791
10.7842 -11.1743 -1.8180
11.1650 -7.0412 -1.2913
18.4509 -6.1667 -1.5381
7.9091 -0.6553 -0.4907
7.8784 1.2481 -0.3755
22.1478 9.2839 -0.8560
33.0764 24.4636 -1.1589
21.0978 25.3545 -0.8269
13.6793 28.0272 -0.8272
-1.2016 46.7635 -1.9888
-20.0732 36.2840 -3.0099
-4.2665 4.6231 -0.5720
-28.0983 18.6166 -3.7114
-24.4293 8.7590 -3.3499
-24.9699 2.5744 -3.6832
-25.3455 -3.5596 -4.1466
-26.4809 -10.6537 -4.9666
-27.3723 -19.7929 -6.1454
-10.0196 -46.2861 -8.4201
10.7654 -11.4271 -1.8529
11.2467 -7.2828 -1.3236
17.2878 -6.0093 -1.4637
7.9049 -0.7506 -0.4974
8.3857 1.2256 -0.4046
22.4744 9.1058 -0.8761
33.8406 24.4068 -1.1867
21.5871 25.3181 -0.8357
13.5301 26.8974 -0.7932
-20.0045 37.2072 -3.0294
-4.2348 4.7006 -0.5692
-27.8859 18.9621 -3.6807
-24.4052 9.0841 -3.3372
-24.9473 2.8775 -3.6638
-25.3220 -3.2439 -4.1184
-26.6703 -10.3551 -4.9636
-27.3327 -19.2611 -6.0736
-10.6103 -46.2844 -8.4622
10.8460 -11.7938 -1.9063
11.2330 -7.4671 -1.3455
16.4730 -5.9487 -1.4167
7.9006 -0.8458 -0.5042
8.8068 1.1795 -0.4302
22.9643 8.9850 -0.9030
36.1261 25.4016 -1.2685
22.0851 25.2811 -0.8451
13.4620 25.9814 -0.7659
-19.9333 38.1644 -3.0502
-25.1723 28.6255 -3.3937
-28.4320 19.8379 -3.7505
-24.4200 9.4266 -3.3302
-24.9248 3.1805 -3.6448
-25.2986 -2.9292 -4.0906
-26.4242 -9.8912 -4.8804
-27.2939 -18.7399 -6.0037
-11.2054 -46.2835 -8.5054
10.7236 -11.9895 -1.5637
11.2170 -7.6824 -1.0616
15.6227 -5.8855 -0.9890
48.3729 -5.8435 -2.0340
9.3101 1.1211 -0.2493
22.6739 8.5340 -0.3539
36.0733 24.6923 -0.2840
25.3525 28.3189 -0.1034
13.8062 25.8968 -0.1025
-20.5390 40.3419 -2.1473
-24.6200 28.5844 -2.4710
-28.3005 20.1806 -2.9392
-24.4380 9.7250 -2.7233
-24.9051 3.4453 -3.0509
-25.3590 -2.6581 -3.4914
-26.6160 -9.6246 -4.2273
-27.2577 -18.2529 -5.1786
-11.5089 -44.9898 -7.2378
10.8027 -12.3747 -1.6124
11.2028 -7.8721 -1.0823
14.9421 -5.8349 -0.9650
37.4029 -4.9744 -1.6063
9.3050 1.0073 -0.2552
36.3158 24.2227 -0.2970
25.2978 27.5835 -0.1049
14.1927 25.8681 -0.0987
-20.4593 41.4070 -2.1511
-24.1374 28.7144 -2.4219
-28.1335 20.5762 -2.9139
-24.4133 10.0575 -2.7093
-24.8825 3.7490 -3.0321
-25.3358 -2.3459 -3.4660
-26.5882 -9.2511 -4.1897
-27.2205 -17.7522 -5.1197
-12.0927 -44.9865 -7.2778
10.7819 -12.6552 -1.6475
11.1885 -8.0647 -1.1034
14.3126 -5.7881 -0.9430
36.0179 -5.2308 -1.5798
9.3000 0.8940 -0.2613
37.1796 24.1584 -0.3157
25.2447 26.8700 -0.1067
13.5116 23.9398 -0.0882
-20.3762 42.5161 -2.1557
-24.0402 29.3060 -2.4119
-29.1019 21.8263 -3.0062
-24.3103 10.3593 -2.6868
-24.8599 4.0532 -3.0137
-25.3127 -2.0350 -3.4409
-26.3437 -8.8091 -4.1189
-27.1839 -17.2609 -5.0622
-12.6805 -44.9839 -7.3188
10.7605 -12.9427 -1.6838
11.0100 -8.1389 -1.1085
13.7584 -5.7571 -0.9248
34.0454 -5.3624 -1.5249
9.2949 0.7810 -0.2675
38.1026 24.1121 -0.3358
25.1932 26.1775 -0.1090
14.9927 25.8337 -0.0921
-20.3126 43.7222 -2.1634
-23.4198 29.2593 -2.3499
-26.0096 20.0001 -2.6799
-24.3632 10.7304 -2.6819
-24.8372 4.3580 -2.9955
-25.2087 -1.7197 -3.4053
-26.3167 -8.4463 -4.0831
-27.1480 -16.7783 -5.0061
-13.2725 -44.9820 -7.3608
10.7386 -13.2374 -1.7212
11.0975 -8.4117 -1.1408
13.2147 -5.7170 -0.9061
34.5449 -5.8667 -1.5798
27.7361 8.9442 -0.4870
36.0932 22.2378 -0.3300
25.1432 25.5048 -0.1116
15.3929 25.8038 -0.0893
-22.8132 29.2136 -2.2897
-24.0347 18.9456 -2.4703
-24.3379 11.0711 -2.6685
-24.8145 4.6635 -2.9775
-25.1858 -1.4121 -3.3812
-26.2900 -8.0872 -4.0479
-26.8913 -16.1711 -4.9110
10.7161 -13.5398 -1.7597
11.0826 -8.6121 -1.1633
12.5935 -5.6287 -0.8809
26.7293 -4.8701 -1.2481
27.9977 8.6588 -0.5059
39.9436 23.9529 -0.3788
25.2884 25.0428 -0.1154
15.7979 25.7736 -0.0868
-22.2197 29.1689 -2.2312
-24.0175 19.4046 -2.4627
-24.3123 11.4148 -2.6553
-24.7123 4.9539 -2.9504
-25.1630 -1.1054 -3.3574
-26.2636 -7.7314 -4.0134
-26.8569 -15.7089 -4.8581
-27.6964 -26.9970 -6.2398
11.8315 -15.3249 -1.9911
11.0674 -8.8158 -1.1863
12.2036 -5.6312 -0.8709
9.1621 -1.7832 -0.4368
28.0248 8.2998 -0.5208
40.9285 23.8796 -0.4024
25.8599 25.0003 -0.1216
16.1931 25.7193 -0.0845
-21.7155 29.2285 -2.1821
-23.7375 19.6546 -2.4285
-24.2088 11.7240 -2.6339
-24.7689 5.2769 -2.9425
-25.1403 -0.7998 -3.3339
-26.2374 -7.3790 -3.9796
-26.8561 -15.2733 -4.8123
-27.8722 -26.5144 -6.2004
11.8814 -15.7789 -2.0497
11.0520 -9.0228 -1.2099
11.7587 -5.5981 -0.8561
9.1264 -1.8902 -0.4441
28.0250 7.9351 -0.5356
41.9482 23.8038 -0.4274
26.3980 24.9138 -0.1281
16.6081 25.6884 -0.0826
-21.4228 29.5695 -2.1547
-23.3030 19.7716 -2.3789
-24.7459 5.5850 -2.9253
-25.1983 -0.4965 -3.3215
-26.2114 -7.0297 -3.9464
-26.7990 -14.8125 -4.7575
-27.5938 -25.6170 -6.0626
11.9338 -16.2524 -2.1111
11.0364 -9.2334 -1.2341
11.3404 -5.5670 -0.8423
9.1213 -2.0036 -0.4531
17.9365 9.8952 -0.1893
25.1728 23.1919 -0.1264
17.0286 25.6571 -0.0811
-21.2961 30.1498 -2.1444
-24.3456 21.1646 -2.4802
-24.7229 5.8942 -2.9084
-25.1756 -0.1914 -3.2987
-26.1856 -6.6834 -3.9138
-26.9776 -14.4860 -4.7454
-27.7714 -25.1595 -6.0274
-4.9942 -47.5667 -7.1993
11.9889 -16.7467 -2.1753
11.0204 -9.4477 -1.2588
11.2980 -5.7156 -0.8561
8.5889 -1.9950 -0.4355
9.2426 0.1092 -0.3056
33.1185 8.5239 -0.6687
27.6507 24.8672 -0.1437
17.4548 25.6254 -0.0799
-21.2434 30.8547 -2.1422
-24.3161 21.6574 -2.4724
-24.6999 6.2046 -2.8917
-25.1529 0.1130 -3.2763
-26.1601 -6.3399 -3.8818
-26.7249 -13.9345 -4.6584
-27.7229 -24.5079 -5.9449
-5.5711 -47.5001 -7.2229
12.0468 -17.2635 -2.2428
11.0042 -9.6658 -1.2842
11.2857 -5.8806 -0.8725
8.0455 -1.9709 -0.4163
33.3876 8.1670 -0.6925
28.2751 24.8207 -0.1523
17.8869 25.5933 -0.0791
-21.1897 31.5817 -2.1403
-31.9228 29.1276 -3.2399
-24.6767 6.5162 -2.8752
-25.1303 0.4169 -3.2542
-26.1347 -5.9992 -3.8504
-26.6932 -13.5079 -4.6114
-27.6757 -23.8724 -5.8648
-6.1482 -47.4330 -7.2471
12.1078 -17.8044 -2.3137
10.9877 -9.8879 -1.3102
11.2733 -6.0474 -0.8891
7.6920 -1.9824 -0.4062
33.3808 7.7418 -0.7111
28.9145 24.7731 -0.1615
17.1558 23.9295 -0.0736
-21.1343 32.3316 -2.1389
-31.0967 29.0661 -3.1506
-24.6534 6.8292 -2.8590
-25.1077 0.7205 -3.2325
-26.1096 -5.6611 -3.8195
-26.8816 -13.1952 -4.6029
-27.4038 -23.0622 -5.7398
-6.7256 -47.3653 -7.2717
12.1722 -18.3713 -2.3883
10.9709 -10.1143 -1.3369
11.2608 -6.2160 -0.9062
7.6884 -2.0802 -0.4144
33.3820 7.3208 -0.7302
29.5698 24.7244 -0.1715
17.3176 23.5521 -0.0725
14.0447 33.8164 -0.1858
-21.0772 33.1051 -2.1378
-30.2950 29.0065 -3.0645
-24.6300 7.1436 -2.8431
-25.0852 1.0235 -3.2111
-26.0846 -5.3254 -3.7892
-26.8505 -12.7775 -4.5575
-27.5363 -22.6071 -5.7017
-7.3033 -47.2987 -7.2971
12.2401 -18.9665 -2.4668
10.9537 -10.3450 -1.3643
11.2481 -6.3865 -0.9235
22.7663 -6.4541 -1.2520
38.1140 7.8802 -0.8558
11.8236 9.6471 -0.0712
19.2217 25.4940 -0.0789
13.8140 32.1643 -0.1693
-21.0182 33.9040 -2.1373
-29.5164 28.9486 -2.9813
-24.6065 7.4596 -2.8273
-25.0627 1.3263 -3.1900
-26.0598 -4.9921 -3.7594
-26.8198 -12.3655 -4.5131
-27.5405 -22.0550 -5.6384
-7.8818 -47.2325 -7.3231
12.3119 -19.5923 -2.5496
10.9362 -10.5802 -1.3924
11.2353 -6.5589 -0.9412
11.8851 -3.5240 -0.6670
38.7388 7.5256 -0.8927
28.7977 22.9258 -0.1802
19.6804 25.4599 -0.0795
13.8509 31.2104 -0.1574
-20.9572 34.7296 -2.1372
-28.7597 28.8923 -2.9010
-24.5829 7.7773 -2.8118
-25.0402 1.6288 -3.1692
-25.4192 -4.5507 -3.6419
-26.7896 -11.9591 -4.4697
-27.4975 -21.4766 -5.5672
-8.4609 -47.1656 -7.3497
12.3879 -20.2513 -2.6372
10.9184 -10.8203 -1.4213
11.2223 -6.7334 -0.9593
11.6584 -3.6096 -0.6676
38.7411 7.0445 -0.9159
31.5424 24.4975 -0.2051
20.1463 25.4253 -0.0806
13.7634 30.0347 -0.1452
-20.8941 35.5836 -2.1375
-28.0237 28.8376 -2.8234
-30.8852 19.3337 -3.2559
-24.5591 8.0967 -2.7965
-25.0177 1.9313 -3.1488
-25.4769 -4.2430 -3.6254
-26.7598 -11.5580 -4.4271
-4.8673 -3.7071 -0.9747
-9.0409 -47.0981 -7.3769
12.4685 -20.9464 -2.7298
10.9001 -11.0654 -1.4510
11.2092 -6.9100 -0.9778
11.6473 -3.7599 -0.6805
43.6967 7.4049 -1.0596
32.2661 24.4436 -0.2180
20.6200 25.3900 -0.0820
13.6815 28.9327 -0.1342
-20.8288 36.4678 -2.1384
-27.3075 28.7843 -2.7483
-30.3133 19.4871 -3.1856
-24.5352 8.4181 -2.7814
-24.9952 2.2337 -3.1286
-25.4531 -3.9227 -3.5977
-26.7303 -11.1620 -4.3855
-27.1903 -20.1910 -5.3863
-9.6218 -47.0300 -7.4046
10.9420 -11.3786 -1.4897
11.1148 -7.0374 -0.9894
18.3171 -6.1568 -1.0919
8.4125 1.3219 -0.2092
33.1084 24.4612 -0.2324
21.1016 25.3542 -0.0839
13.6045 27.8974 -0.1242
-20.3773 36.6929 -2.1003
-4.2778 4.6190 -0.4301
-28.3402 18.7042 -2.9691
-24.5112 8.7414 -2.7666
-24.9727 2.5362 -3.1087
-25.4294 -3.6042 -3.5705
-26.4831 -10.6829 -4.3092
-27.3739 -19.8153 -5.3651
-10.2039 -46.9613 -7.4328
10.9229 -11.6358 -1.5212
11.2446 -7.3104 -1.0216
17.1665 -6.0003 -1.0440
8.4078 1.2180 -0.2143
23.1982 9.3739 -0.3406
33.8754 24.4042 -0.2471
21.5915 25.3178 -0.0862
13.5320 26.9226 -0.1151
-20.6896 38.3320 -2.1417
-4.2257 4.6741 -0.4246
-28.4888 19.2980 -2.9758
-24.4086 9.0378 -2.7431
-24.9502 2.8389 -3.0892
-25.4058 -3.2874 -3.5437
-26.6725 -10.3845 -4.3048
-27.3344 -19.2844 -5.3013
-10.7873 -46.8919 -7.4616
10.9034 -11.8988 -1.5536
11.2309 -7.4950 -1.0413
16.3620 -5.9405 -1.0152
9.1934 -0.9986 -0.3784
9.2926 1.2324 -0.2428
36.1238 25.3702 -0.2738
22.0902 25.2807 -0.0890
13.4636 26.0029 -0.1069
-20.6158 39.3171 -2.1442
-25.2675 28.6326 -2.5371
-28.2665 19.6474 -2.9440
-24.4626 9.3947 -2.7375
-24.9277 3.1418 -3.0699
-25.3824 -2.9720 -3.5174
-26.4264 -9.9209 -4.2308
-27.2957 -18.7636 -5.2392
-11.3502 -46.7309 -7.4765
10.7236 -11.9892 -1.5637
11.2170 -7.6822 -1.0616
15.6235 -5.8856 -0.9890
48.3820 -5.8441 -2.0344
9.3101 1.1212 -0.2493
22.6739 8.5343 -0.3539
36.0734 24.6930 -0.2840
25.3525 28.3195 -0.1034
13.8058 25.8968 -0.1025
-20.5391 40.3408 -2.1473
-24.6204 28.5844 -2.4710
-28.3007 20.1802 -2.9392
-24.4380 9.7248 -2.7233
-24.9051 3.4450 -3.0509
-25.3590 -2.6584 -3.4915
-26.6160 -9.6250 -4.2273
-27.2578 -18.2533 -5.1787
-11.5082 -44.9898 -7.2377
10.8028 -12.3744 -1.6123
11.2029 -7.8720 -1.0822
14.9428 -5.8349 -0.9650
37.4088 -4.9748 -1.6066
9.3050 1.0074 -0.2552
36.3149 24.2227 -0.2970
25.2978 27.5840 -0.1049
14.1923 25.8681 -0.0987
-20.4594 41.4057 -2.1511
-24.1374 28.7138 -2.4219
-28.1338 20.5758 -2.9139
-24.4133 10.0572 -2.7093
-24.8825 3.7487 -3.0321
-25.3358 -2.3461 -3.4660
-26.5882 -9.2516 -4.1897
-27.2205 -17.7526 -5.1197
-12.0920 -44.9865 -7.2778
10.7819 -12.6549 -1.6475
11.1885 -8.0645 -1.1034
14.3133 -5.7881 -0.9430
36.0185 -5.2306 -1.5798
9.3000 0.8941 -0.2613
37.1786 24.1585 -0.3156
25.2448 26.8706 -0.1067
13.5116 23.9407 -0.0882
-20.3763 42.5148 -2.1557
-24.0407 29.3061 -2.4120
-29.1022 21.8259 -3.0062
-24.3103 10.3591 -2.6868
-24.8599 4.0528 -3.0137
-25.3127 -2.0354 -3.4410
-26.3438 -8.8095 -4.1190
-27.1840 -17.2613 -5.0623
-12.6798 -44.9839 -7.3188
10.7605 -12.9423 -1.6838
11.0100 -8.1387 -1.1085
13.7587 -5.7571 -0.9248
34.0454 -5.3617 -1.5248
9.2949 0.7811 -0.2674
38.1022 24.1121 -0.3358
25.1933 26.1785 -0.1090
14.9923 25.8338 -0.0921
-20.3125 43.7203 -2.1634
-23.4203 29.2593 -2.3499
-26.0096 19.9999 -2.6799
-24.3633 10.7299 -2.6819
-24.8372 4.3576 -2.9955
-25.2087 -1.7200 -3.4054
-26.3168 -8.4465 -4.0831
-27.1481 -16.7791 -5.0062
-13.2722 -44.9820 -7.3608
10.7386 -13.2372 -1.7211
11.0975 -8.4114 -1.1407
13.2154 -5.7170 -0.9062
34.5456 -5.8664 -1.5798
27.7357 8.9446 -0.4870
36.0933 22.2386 -0.3300
25.1432 25.5054 -0.1116
15.3927 25.8038 -0.0893
-22.8142 29.2137 -2.2898
-24.0347 18.9450 -2.4703
-24.3379 11.0708 -2.6685
-24.8145 4.6633 -2.9776
-25.1858 -1.4126 -3.3812
-26.2901 -8.0876 -4.0480
-26.8913 -16.1715 -4.9110
10.7161 -13.5394 -1.7597
11.0826 -8.6119 -1.1632
12.5935 -5.6286 -0.8809
26.7293 -4.8696 -1.2480
27.9975 8.6590 -0.5058
39.9430 23.9529 -0.3788
25.2875 25.0429 -0.1154
15.7974 25.7736 -0.0868
-22.2202 29.1689 -2.2312
-24.0175 19.4043 -2.4627
-24.3124 11.4142 -2.6553
-24.7124 4.9535 -2.9504
-25.1630 -1.1058 -3.3574
-26.2636 -7.7317 -4.0135
-26.8570 -15.7097 -4.8582
-27.6965 -26.9980 -6.2399
11.8314 -15.3246 -1.9911
11.0675 -8.8154 -1.1863
12.2043 -5.6313 -0.8709
9.1623 -1.7831 -0.4368
28.0248 8.3004 -0.5208
40.9271 23.8797 -0.4024
25.8593 25.0004 -0.1216
16.1928 25.7193 -0.0845
-21.7161 29.2280 -2.1822
-23.7381 19.6544 -2.4286
-24.2088 11.7236 -2.6339
-24.7689 5.2767 -2.9425
-25.1403 -0.8003 -3.3340
-26.2374 -7.3795 -3.9797
-26.8554 -15.2733 -4.8122
-27.8722 -26.5148 -6.2005
11.8813 -15.7783 -2.0496
11.0521 -9.0226 -1.2099
11.7590 -5.5981 -0.8561
9.1264 -1.8900 -0.4441
28.0250 7.9355 -0.5356
41.9475 23.8038 -0.4274
26.3969 24.9139 -0.1281
16.6075 25.6885 -0.0826
-21.4230 29.5690 -2.1547
-23.3033 19.7715 -2.3789
-24.7460 5.5846 -2.9253
-25.1983 -0.4968 -3.3215
-26.2114 -7.0299 -3.9464
-26.7978 -14.8126 -4.7574
-27.5939 -25.6180 -6.0627
11.9338 -16.2520 -2.1110
11.0364 -9.2330 -1.2340
11.3410 -5.5670 -0.8423
9.1213 -2.0035 -0.4531
17.9375 9.8962 -0.1893
25.1728 23.1925 -0.1264
17.0283 25.6572 -0.0811
-21.2963 30.1488 -2.1445
-24.3456 21.1638 -2.4802
-24.7230 5.8940 -2.9084
-25.1756 -0.1919 -3.2988
-26.1857 -6.6839 -3.9138
-26.9776 -14.4864 -4.7454
-27.7714 -25.1600 -6.0275
-4.9935 -47.5667 -7.1993
11.9888 -16.7460 -2.1753
11.0205 -9.4474 -1.2588
11.2980 -5.7155 -0.8561
8.5900 -1.9951 -0.4355
9.2427 0.1093 -0.3056
33.1182 8.5242 -0.6686
27.6500 24.8676 -0.1437
17.4542 25.6255 -0.0799
-21.2434 30.8539 -2.1422
-24.3162 21.6570 -2.4724
-24.6999 6.2041 -2.8917
-25.1529 0.1127 -3.2763
-26.1601 -6.3402 -3.8818
-26.7249 -13.9347 -4.6585
-27.7230 -24.5088 -5.9450
-5.5709 -47.5001 -7.2229
12.0468 -17.2631 -2.2428
11.0042 -9.6657 -1.2842
11.2858 -5.8804 -0.8724
8.0460 -1.9709 -0.4163
33.3877 8.1672 -0.6925
28.2745 24.8207 -0.1523
17.8866 25.5933 -0.0791
-21.1897 31.5814 -2.1403
-31.9239 29.1276 -3.2400
-24.6767 6.5160 -2.8753
-25.1303 0.4168 -3.2542
-26.1348 -5.9997 -3.8504
-26.6932 -13.5083 -4.6114
-27.6757 -23.8728 -5.8648
-6.1476 -47.4330 -7.2470
12.1077 -17.8036 -2.3136
10.9877 -9.8876 -1.3102
11.2733 -6.0473 -0.8891
7.6922 -1.9824 -0.4062
33.3808 7.7423 -0.7111
28.9143 24.7731 -0.1615
17.1559 23.9305 -0.0737
-21.1344 32.3305 -2.1389
-31.0973 29.0662 -3.1507
-24.6534 6.8287 -2.8591
-25.1078 0.7200 -3.2325
-26.1096 -5.6613 -3.8195
-26.8816 -13.1955 -4.6030
-27.4039 -23.0631 -5.7399
-6.7252 -47.3654 -7.2717
12.1721 -18.3709 -2.3882
10.9709 -10.1141 -1.3369
11.2608 -6.2158 -0.9061
7.6886 -2.0802 -0.4144
33.3820 7.3211 -0.7302
29.5689 24.7245 -0.1715
17.3173 23.5522 -0.0725
14.0448 33.8174 -0.1858
-21.0772 33.1046 -2.1379
-30.2961 29.0066 -3.0646
-24.6300 7.1434 -2.8431
-25.0852 1.0233 -3.2111
-26.0847 -5.3259 -3.7892
-26.8505 -12.7780 -4.5576
-27.5361 -22.6073 -5.7017
-7.3025 -47.2988 -7.2970
12.2400 -18.9657 -2.4667
10.9537 -10.3446 -1.3643
11.2481 -6.3863 -0.9235
22.7663 -6.4539 -1.2520
38.1131 7.8807 -0.8558
11.8233 9.6470 -0.0712
19.2211 25.4941 -0.0789
13.8141 32.1662 -0.1693
-21.0183 33.9028 -2.1373
-29.5170 28.9486 -2.9814
-24.6065 7.4592 -2.8273
-25.0627 1.3258 -3.1900
-26.0599 -4.9923 -3.7594
-26.8199 -12.3658 -4.5132
-27.5406 -22.0558 -5.6385
-7.8813 -47.2325 -7.3231
12.3118 -19.5918 -2.5496
10.9362 -10.5801 -1.3924
11.2353 -6.5586 -0.9412
11.8861 -3.5241 -0.6670
38.7388 7.5260 -0.8926
28.7978 22.9267 -0.1802
19.6800 25.4599 -0.0795
13.8509 31.2113 -0.1574
-20.9572 34.7290 -2.1372
-28.7607 28.8924 -2.9011
-24.5829 7.7771 -2.8118
-25.0402 1.6286 -3.1692
-25.4193 -4.5511 -3.6419
-26.7897 -11.9596 -4.4697
-27.4975 -21.4770 -5.5672
-8.4601 -47.1657 -7.3497
12.3878 -20.2503 -2.6370
10.9184 -10.8199 -1.4213
11.2223 -6.7332 -0.9593
11.6585 -3.6095 -0.6676
38.7411 7.0452 -0.9158
31.5419 24.4975 -0.2050
20.1457 25.4253 -0.0806
13.7635 30.0363 -0.1453
-20.8942 35.5824 -2.1375
-28.0242 28.8376 -2.8234
-30.8856 19.3336 -3.2560
-24.5592 8.0963 -2.7965
-25.0177 1.9309 -3.1488
-25.4769 -4.2432 -3.6254
-26.7598 -11.5583 -4.4272
-4.8672 -3.7071 -0.9747
-9.0404 -47.0982 -7.3769
12.4684 -20.9459 -2.7297
10.9001 -11.0652 -1.4509
11.2092 -6.9097 -0.9778
11.6473 -3.7597 -0.6805
43.6962 7.4052 -1.0595
32.2650 24.4437 -0.2180
20.6196 25.3901 -0.0820
13.6815 28.9334 -0.1342
-20.8289 36.4672 -2.1384
-27.3085 28.7844 -2.7484
-30.3141 19.4869 -3.1857
-24.5352 8.4178 -2.7814
-24.9952 2.2335 -3.1286
-25.4531 -3.9231 -3.5977
-26.7304 -11.1626 -4.3856
-27.1903 -20.1914 -5.3863
-9.6210 -47.0301 -7.4045
10.9421 -11.3783 -1.4896
11.1150 -7.0375 -0.9894
18.3178 -6.1568 -1.0919
8.4125 1.3221 -0.2092
33.1079 24.4613 -0.2324
21.1009 25.3543 -0.0839
13.6046 27.8987 -0.1242
-20.3781 36.6930 -2.1003
-4.2779 4.6190 -0.4301
-28.3404 18.7040 -2.9691
-24.5112 8.7409 -2.7666
-24.9727 2.5358 -3.1088
-25.4294 -3.6044 -3.5705
-26.4831 -10.6832 -4.3093
-27.3740 -19.8161 -5.3652
-10.2035 -46.9613 -7.4328
10.9229 -11.6356 -1.5212
11.2446 -7.3101 -1.0215
17.1677 -6.0004 -1.0441
8.4078 1.2180 -0.2143
23.1990 9.3747 -0.3406
33.8743 24.4043 -0.2471
21.5912 25.3178 -0.0862
13.5320 26.9232 -0.1151
-20.6896 38.3313 -2.1417
-4.2256 4.6738 -0.4246
-28.4887 19.2973 -2.9758
-24.4086 9.0376 -2.7431
-24.9502 2.8387 -3.0892
-25.4059 -3.2878 -3.5437
-26.6725 -10.3850 -4.3049
-27.3345 -19.2847 -5.3014
-10.7865 -46.8920 -7.4616
10.9034 -11.8984 -1.5536
11.2309 -7.4948 -1.0413
16.3626 -5.9405 -1.0153
9.1934 -0.9985 -0.3784
9.2926 1.2326 -0.2428
36.1238 25.3707 -0.2738
22.0902 25.2807 -0.0890
13.4637 26.0042 -0.1069
-20.6159 39.3157 -2.1442
-25.2680 28.6326 -2.5372
-28.2668 19.6473 -2.9440
-24.4626 9.3945 -2.7375
-24.9277 3.1413 -3.0699
-25.3824 -2.9725 -3.5174
-26.4264 -9.9212 -4.2309
-27.2957 -18.7639 -5.2392
-11.3504 -46.7336 -7.4769
10.7207 -12.0288 -1.2019
11.2149 -7.7104 -0.7558
15.5222 -5.8780 -0.6097
9.3095 1.1089 -0.0384
35.7703 24.4553 0.6940
25.2377 28.1827 0.7491
13.7970 25.8975 0.5584
-19.8793 38.8910 -1.0894
-25.4209 29.4101 -1.6708
-28.3138 20.1138 -2.1529
-24.4416 9.6775 -2.1265
-24.8283 3.3952 -2.4710
-25.3615 -2.6920 -2.9098
-26.4008 -9.5759 -3.5507
-27.2595 -18.2772 -4.4263
-11.2307 -43.7743 -6.0050
10.7997 -12.4152 -1.2429
11.2007 -7.9006 -0.7743
14.8490 -5.8279 -0.6006
45.2902 -6.0949 -0.9177
9.3045 0.9950 -0.0447
35.7147 23.7917 0.6742
25.1756 27.4412 0.7344
14.1841 25.8687 0.5657
-19.8029 39.9176 -1.0731
-24.7684 29.3609 -1.6151
-27.6813 20.1696 -2.0904
-24.4169 10.0095 -2.1102
-24.8854 3.7094 -2.4598
-25.3383 -2.3800 -2.8857
-26.3732 -9.2058 -3.5169
-27.2223 -17.7769 -4.3745
-11.7970 -43.7674 -6.0401
10.7788 -12.6966 -1.2736
11.1864 -8.0936 -0.7932
14.2261 -5.7816 -0.5923
37.6712 -5.5311 -0.7963
9.2994 0.8816 -0.0512
35.6601 23.1406 0.6544
25.1154 26.7225 0.7198
13.5098 23.9503 0.5310
-19.7234 40.9866 -1.0567
-23.5721 28.6337 -1.5249
-28.2471 21.1063 -2.1183
-24.3139 10.3110 -2.0874
-24.8628 4.0132 -2.4408
-25.3152 -2.0693 -2.8618
-26.3460 -8.8395 -3.4837
-27.1858 -17.2859 -4.3239
-12.3670 -43.7609 -6.0759
10.7574 -12.9849 -1.3052
11.0078 -8.1678 -0.8005
13.6976 -5.7595 -0.5868
34.0382 -5.4161 -0.7497
9.2944 0.7685 -0.0577
35.6066 22.5015 0.6346
25.0570 26.0252 0.7053
14.9741 25.8149 0.5801
13.7239 46.8671 0.7234
-19.6405 42.1013 -1.0399
-23.5086 29.2660 -1.5085
-24.3669 10.6814 -2.0780
-24.8402 4.3177 -2.4221
-25.2112 -1.7542 -2.8292
-26.3190 -8.4770 -3.4512
-26.2910 -16.2721 -4.1393
-12.9409 -43.7548 -6.1124
10.7354 -13.2806 -1.3378
11.0953 -8.4413 -0.8275
13.1577 -5.7194 -0.5799
48.6544 -8.3422 -1.1154
9.2894 0.6558 -0.0642
35.5541 21.8741 0.6148
25.0003 25.3483 0.6909
15.3745 25.7849 0.5869
13.4922 44.1011 0.6987
-19.5540 43.2647 -1.0228
-22.8998 29.2201 -1.4575
-24.6588 19.3661 -1.8236
-24.3416 11.0215 -2.0621
-24.8175 4.6228 -2.4035
-25.2693 -1.4514 -2.8151
-26.2923 -8.1181 -3.4191
-26.3018 -15.8404 -4.0996
10.7128 -13.5840 -1.3714
11.0803 -8.6422 -0.8476
12.5916 -5.6541 -0.5707
26.7267 -4.9137 -0.6371
9.2844 0.5434 -0.0708
28.0580 8.6455 0.1538
35.5024 21.2577 0.5950
24.9452 24.6907 0.6767
15.7798 25.7545 0.5936
13.2849 41.6260 0.6762
-22.3042 29.1752 -1.4079
-24.5569 19.7679 -1.8034
-24.3161 11.3646 -2.0462
-24.7782 4.9255 -2.3835
-25.2464 -1.1440 -2.7921
-26.2659 -7.7625 -3.3877
-26.3075 -15.4118 -4.0599
-27.6976 -27.0125 -5.3509
11.1485 -14.4920 -1.4664
11.0652 -8.8464 -0.8680
12.1371 -5.6263 -0.5656
23.1123 -4.5368 -0.5723
9.2794 0.4313 -0.0775
35.4517 20.6518 0.5752
24.8916 24.0513 0.6625
16.1877 25.7197 0.6000
13.0983 39.3974 0.6555
-21.3185 28.5914 -1.3345
-23.6024 19.4716 -1.7211
-24.2142 11.6742 -2.0241
-24.7719 5.2356 -2.3668
-25.2236 -0.8376 -2.7695
-31.7719 -8.9727 -4.0644
-26.2745 -14.9671 -4.0151
-27.8734 -26.5308 -5.3164
11.1774 -14.8974 -1.5109
11.0497 -9.0539 -0.8890
11.6961 -5.5935 -0.5603
34.9826 -7.3044 -0.8991
9.2744 0.3195 -0.0843
42.0090 23.7992 0.6590
24.8396 23.4293 0.6484
16.6033 25.6888 0.6063
12.9293 37.3803 0.6365
-20.9870 28.8638 -1.3026
-23.6567 19.9991 -1.7128
-24.7490 5.5433 -2.3487
-25.2009 -0.5321 -2.7472
-31.7405 -8.5500 -4.0276
-26.2419 -14.5296 -3.9713
-27.8224 -25.8452 -5.2403
11.2128 -15.3257 -1.5580
11.0340 -9.2650 -0.9104
11.3084 -5.5759 -0.5567
9.1207 -2.0190 -0.2431
9.2694 0.2078 -0.0911
39.7370 21.8847 0.6019
24.7888 22.8239 0.6344
17.0245 25.6574 0.6124
12.7756 35.5453 0.6189
-20.7364 29.2515 -1.2761
-23.6051 20.4469 -1.6969
-24.7261 5.8521 -2.3308
-25.1782 -0.2272 -2.7251
-31.7093 -8.1310 -3.9913
-26.2099 -14.0990 -3.9285
-27.7727 -25.1775 -5.1665
-5.1413 -48.5311 -6.2266
11.2500 -15.7716 -1.6073
11.0181 -9.4798 -0.9323
11.2962 -5.7396 -0.5713
9.1156 -2.1330 -0.2518
9.2421 0.0961 -0.0977
24.7394 22.2341 0.6205
17.4514 25.6257 0.6183
12.6351 33.8681 0.6024
-20.5898 29.7969 -1.2561
-23.2295 20.6153 -1.6580
-24.7030 6.1621 -2.3130
-25.1556 0.0770 -2.7033
-31.6784 -7.7154 -3.9556
-26.1784 -13.6751 -3.8866
-27.7243 -24.5266 -5.0949
-5.7292 -48.4633 -6.2507
11.2890 -16.2365 -1.6588
11.0018 -9.6985 -0.9547
11.2839 -5.9050 -0.5862
15.3198 -3.7795 -0.4381
9.2595 -0.0149 -0.1049
24.6913 21.6592 0.6067
17.8843 25.5935 0.6241
12.5062 32.3289 0.5871
-20.5069 30.4526 -1.2400
-22.8159 20.7437 -1.6167
-24.6799 6.4733 -2.2954
-25.1330 0.3806 -2.6817
-31.6478 -7.3031 -3.9205
-26.1473 -13.2575 -3.8456
-27.6771 -23.8917 -5.0254
-6.3171 -48.3951 -6.2751
11.3299 -16.7215 -1.7127
10.9852 -9.9212 -0.9777
11.2715 -6.0721 -0.6014
7.8477 -2.0363 -0.2322
9.2546 -0.1261 -0.1119
28.9348 24.7716 0.6961
17.1569 23.9336 0.5896
12.3874 30.9104 0.5726
-20.4532 31.1748 -1.2256
-23.4111 21.8044 -1.6469
-24.6566 6.7859 -2.2779
-25.1105 0.6838 -2.6604
-31.6173 -6.8940 -3.8860
-26.1167 -12.8459 -3.8054
-27.6310 -23.2721 -4.9579
-6.9054 -48.3265 -6.2999
11.3729 -17.2284 -1.7692
10.9683 -10.1482 -1.0013
11.2589 -6.2410 -0.6169
15.2600 -4.1560 -0.4670
9.2496 -0.2372 -0.1190
29.5917 24.7228 0.6968
17.3166 23.5522 0.5859
12.2776 29.5996 0.5590
-20.3978 31.9197 -1.2112
-23.0661 22.0066 -1.6108
-35.2947 20.2760 -2.8340
-24.6333 7.0999 -2.2606
-25.0076 0.9834 -2.6309
-31.5871 -6.4878 -3.8520
-26.0865 -12.4403 -3.7661
-27.3606 -22.4819 -4.8523
11.4182 -17.7587 -1.8285
10.9511 -10.3795 -1.0254
11.2462 -6.4118 -0.6326
22.7633 -6.4942 -0.7199
9.2447 -0.3483 -0.1262
12.2652 9.9989 0.2825
19.2214 25.4940 0.6403
13.9479 32.5149 0.6256
-20.3406 32.6889 -1.1966
-30.4806 29.7883 -2.1130
-34.9415 20.6360 -2.7868
-24.6098 7.4154 -2.2434
-25.0654 1.2891 -2.6185
-31.5571 -6.0845 -3.8184
-26.0568 -12.0404 -3.7275
-27.5421 -22.0760 -4.8284
11.4659 -18.3142 -1.8908
10.9336 -10.6154 -1.0502
11.2334 -6.5845 -0.6486
11.7885 -3.5168 -0.3851
9.2397 -0.4593 -0.1334
28.7971 22.9047 0.6484
19.6809 25.4599 0.6453
13.8540 31.2522 0.6122
-20.2814 33.4838 -1.1818
-28.8700 28.9005 -1.9865
-34.5071 20.9433 -2.7336
-24.5862 7.7327 -2.2263
-25.0430 1.5914 -2.5979
-25.4216 -4.5831 -3.0523
-26.0274 -11.6458 -3.6897
-27.4925 -21.4931 -4.7652
11.5162 -18.8971 -1.9564
10.9157 -10.8561 -1.0755
11.2204 -6.7594 -0.6650
11.6558 -3.6302 -0.3931
9.2348 -0.5703 -0.1407
31.6641 24.5686 0.6967
20.1477 25.4252 0.6501
13.7662 30.0718 0.5994
-20.2203 34.3060 -1.1669
-28.7982 29.5298 -1.9668
-24.5625 8.0517 -2.2094
-25.0205 1.8935 -2.5776
-25.4793 -4.2757 -3.0358
-25.9985 -11.2564 -3.6527
-4.8652 -3.7092 -0.8339
11.5693 -19.5096 -2.0254
10.8618 -11.0657 -1.0980
11.2072 -6.9363 -0.6816
11.6446 -3.7808 -0.4052
9.2299 -0.6814 -0.1482
43.8546 7.3766 -0.0629
32.3919 24.5145 0.6960
20.6222 25.3899 0.6547
13.6839 28.9656 0.5871
-20.1570 35.1571 -1.1518
-28.1993 29.6194 -1.9114
-35.5152 22.7417 -2.7755
-24.5386 8.3726 -2.1926
-24.9980 2.1956 -2.5574
-25.4555 -3.9556 -3.0099
-26.1276 -10.9380 -3.6384
-27.1919 -20.2134 -4.6091
11.6255 -20.1541 -2.0983
10.9393 -11.4161 -1.1346
11.0910 -7.0501 -0.6922
18.1861 -6.1470 -0.6527
9.2249 -0.7926 -0.1556
