ply
format ascii 1.0
element vertex 2176
property float32 x
property float32 y
property float32 z
end_header
-7.1741 2.6832 2.2888
-7.6828 0.9215 2.2888
-7.7033 -0.9214 2.2888
-7.2305 -2.7009 2.2888
-6.3080 -4.2794 2.2888
-4.6861 -5.1751 2.1364
-3.2469 -5.9922 2.1364
-1.8039 -6.8701 2.2888
-0.1129 -6.8968 2.2888
1.4927 -6.5299 2.2888
2.6231 -5.2081 2.0485
2.6386 -3.0752 1.4588
3.8820 -2.7621 1.7503
5.7127 -2.2462 2.2888
6.0328 -0.7915 2.2888
6.0307 0.6899 2.2888
5.7085 2.1372 2.2888
5.0760 3.4900 2.2888
4.1517 4.6878 2.2888
2.9645 5.6698 2.2888
1.0401 4.2613 1.5296
-0.0096 4.2695 1.4474
-1.6743 6.7494 2.2888
-3.1057 5.9165 2.1364
-4.5413 5.1463 2.1364
-6.1720 4.3011 2.2888
-7.1366 2.7667 2.2888
-7.6687 1.0127 2.2888
-7.7141 -0.8296 2.2888
-7.2654 -2.6156 2.2888
-6.3637 -4.2071 2.2888
-4.7527 -5.1243 2.1364
-3.3228 -5.9607 2.1364
-1.8890 -6.8578 2.2888
-0.1962 -6.9051 2.2888
1.4158 -6.5569 2.2888
2.8640 -5.8619 2.2888
2.6381 -3.1512 1.4779
3.7820 -2.7610 1.7187
5.6883 -2.3172 2.2888
6.0244 -0.8654 2.2888
6.0385 0.6162 2.2888
5.7321 2.0666 2.2888
5.1147 3.4256 2.2888
4.2044 4.6325 2.2888
3.0295 5.6268 2.2888
1.2812 4.9865 1.7978
0.0419 4.2692 1.4494
-1.5906 6.7591 2.2888
-3.0302 5.9449 2.1364
-4.4737 5.1937 2.1364
-6.1139 4.3700 2.2888
-7.0980 2.8496 2.2888
-7.6534 1.1037 2.2888
-7.7237 -0.7376 2.2888
-7.2991 -2.5299 2.2888
-6.4184 -4.1341 2.2888
-4.8187 -5.0725 2.1364
-3.3983 -5.9281 2.1364
-1.9739 -6.8444 2.2888
-0.2797 -6.9125 2.2888
1.3385 -6.5830 2.2888
2.7965 -5.9040 2.2888
2.6375 -3.2294 1.4977
3.6854 -2.7598 1.6884
5.6631 -2.3878 2.2888
6.0153 -0.9392 2.2888
6.0454 0.5423 2.2888
5.7549 1.9958 2.2888
5.1527 3.3607 2.2888
4.2565 4.5767 2.2888
3.0939 5.5830 2.2888
1.3751 5.0953 1.8454
0.0934 4.2688 1.4516
-1.1452 5.1427 1.7393
-2.9545 5.9723 2.1364
-4.4056 5.2402 2.1364
-6.0550 4.4382 2.2888
-3.7537 1.5592 1.2172
-7.6368 1.1944 2.2888
-7.7321 -0.6455 2.2888
-7.3317 -2.4436 2.2888
-6.4721 -4.0602 2.2888
-4.8842 -5.0199 2.1364
-3.4735 -5.8946 2.1364
-2.0589 -6.8299 2.2888
-0.3634 -6.9189 2.2888
1.2608 -6.6083 2.2888
2.7285 -5.9454 2.2888
2.6369 -3.3099 1.5183
3.5920 -2.7587 1.6594
5.6372 -2.4583 2.2888
6.0053 -1.0129 2.2888
6.0516 0.4684 2.2888
5.7769 1.9247 2.2888
5.1900 3.2955 2.2888
4.3079 4.5204 2.2888
3.1578 5.5386 2.2888
1.7795 6.2902 2.2888
0.1450 4.2684 1.4541
-0.8984 4.2763 1.4446
-2.8785 5.9988 2.1364
-4.3370 5.2859 2.1364
-5.9953 4.5055 2.2888
-3.7396 1.6060 1.2197
-7.6191 1.2849 2.2888
-7.7392 -0.5532 2.2888
-7.3631 -2.3570 2.2888
-6.5249 -3.9857 2.2888
-4.9489 -4.9664 2.1364
-3.5483 -5.8600 2.1364
-2.1437 -6.8144 2.2888
-0.4473 -6.9242 2.2888
1.1827 -6.6326 2.2888
2.6599 -5.9860 2.2888
2.6363 -3.3928 1.5398
3.5015 -2.7577 1.6314
5.6104 -2.5285 2.2888
5.9945 -1.0866 2.2888
6.0569 0.3945 2.2888
5.7982 1.8534 2.2888
5.2265 3.2299 2.2888
4.3586 4.4635 2.2888
3.2211 5.4936 2.2888
1.8531 6.2599 2.2888
0.1965 4.2680 1.4568
-0.8447 4.2759 1.4431
-2.8023 6.0243 2.1364
-4.2679 5.3305 2.1364
-5.5395 4.2675 2.1364
-6.9758 3.0949 2.2888
-7.6001 1.3751 2.2888
-7.7451 -0.4609 2.2888
-7.3934 -2.2698 2.2888
-6.5768 -3.9103 2.2888
-5.0131 -4.9119 2.1364
-3.6228 -5.8245 2.1364
-2.2284 -6.7978 2.2888
-0.5313 -6.9286 2.2888
1.1042 -6.6561 2.2888
2.5908 -6.0259 2.2888
2.6357 -3.4783 1.5621
3.4140 -2.7567 1.6046
5.5829 -2.5985 2.2888
5.9829 -1.1601 2.2888
6.0615 0.3204 2.2888
5.8186 1.7819 2.2888
5.2623 3.1640 2.2888
4.4087 4.4062 2.2888
3.2838 5.4479 2.2888
1.9262 6.2287 2.2888
0.2482 4.2676 1.4597
-0.7913 4.2755 1.4418
-2.7259 6.0489 2.1364
-4.1984 5.3743 2.1364
-5.4822 4.3287 2.1364
-6.9330 3.1755 2.2888
-7.5799 1.4649 2.2888
-7.7497 -0.3686 2.2888
-7.4224 -2.1823 2.2888
-6.6276 -3.8343 2.2888
-5.0766 -4.8566 2.1364
-3.6969 -5.7880 2.1364
-2.3131 -6.7802 2.2888
-0.6155 -6.9319 2.2888
1.0253 -6.6786 2.2888
2.5211 -6.0650 2.2888
2.6351 -3.5666 1.5854
3.3290 -2.7557 1.5789
5.5545 -2.6682 2.2888
5.9705 -1.2335 2.2888
6.0652 0.2464 2.2888
5.8383 1.7102 2.2888
5.2974 3.0977 2.2888
4.4581 4.3483 2.2888
3.3460 5.4015 2.2888
1.9988 6.1968 2.2888
0.2999 4.2672 1.4628
-0.7381 4.2751 1.4407
-2.6493 6.0724 2.1364
-4.1283 5.4171 2.1364
-5.4242 4.3889 2.1364
-6.8891 3.2554 2.2888
-7.5585 1.5545 2.2888
-7.7530 -0.2762 2.2888
-7.4504 -2.0943 2.2888
-6.6775 -3.7575 2.2888
-5.1393 -4.8004 2.1364
-3.7705 -5.7505 2.1364
-2.3950 -6.7540 2.2863
-0.6999 -6.9342 2.2888
0.9461 -6.7003 2.2888
2.4509 -6.1034 2.2888
2.6344 -3.6577 1.6097
3.2467 -2.7547 1.5541
5.5254 -2.7376 2.2888
5.9573 -1.3068 2.2888
6.0681 0.1723 2.2888
5.8572 1.6383 2.2888
5.3316 3.0310 2.2888
4.5068 4.2900 2.2888
3.4075 5.3545 2.2888
2.0710 6.1641 2.2888
0.3517 4.2668 1.4661
-0.6851 4.2747 1.4398
-2.5725 6.0950 2.1364
-4.0578 5.4590 2.1364
-5.3654 4.4488 2.1364
-6.8442 3.3347 2.2888
-7.5360 1.6438 2.2888
-7.7551 -0.1837 2.2888
-7.4771 -2.0060 2.2888
-6.7264 -3.6801 2.2888
-5.2014 -4.7434 2.1364
-3.8438 -5.7120 2.1364
-2.4005 -6.5203 2.2137
-0.7843 -6.9355 2.2888
0.8665 -6.7210 2.2888
2.3801 -6.1410 2.2888
2.6337 -3.7519 1.6350
3.1667 -2.7538 1.5302
5.4955 -2.8067 2.2888
5.9433 -1.3800 2.2888
6.0703 0.0981 2.2888
5.8753 1.5663 2.2888
5.3652 2.9641 2.2888
4.5548 4.2312 2.2888
3.4685 5.3068 2.2888
2.1427 6.1305 2.2888
0.4036 4.2663 1.4696
-0.6324 4.2743 1.4391
-2.4955 6.1166 2.1364
-3.9869 5.4999 2.1364
-5.3060 4.5076 2.1364
-6.7983 3.4133 2.2888
-7.5122 1.7327 2.2888
-7.7560 -0.0913 2.2888
-7.5026 -1.9172 2.2888
-6.7742 -3.6019 2.2888
-5.2628 -4.6855 2.1364
-3.9167 -5.6725 2.1364
-2.4056 -6.3002 2.1456
-0.8689 -6.9358 2.2888
0.7865 -6.7409 2.2888
2.3089 -6.1778 2.2888
2.6330 -3.8494 1.6614
3.0890 -2.7529 1.5072
5.4649 -2.8756 2.2888
5.9285 -1.4531 2.2888
6.0716 0.0239 2.2888
5.8926 1.4941 2.2888
5.3980 2.8969 2.2888
4.6021 4.1719 2.2888
3.5288 5.2585 2.2888
2.2140 6.0962 2.2888
0.4556 4.2659 1.4733
-0.5798 4.2739 1.4386
-2.4184 6.1372 2.1364
-3.9155 5.5399 2.1364
-5.2458 4.5655 2.1364
-6.7513 3.4912 2.2888
-7.4872 1.8212 2.2888
-7.7556 0.0012 2.2888
-7.5269 -1.8281 2.2888
-6.8210 -3.5231 2.2888
-5.3235 -4.6267 2.1364
-3.9891 -5.6321 2.1364
-2.4738 -6.2527 2.1364
-0.9536 -6.9351 2.2888
0.7063 -6.7598 2.2888
2.2371 -6.2139 2.2888
2.6323 -3.9503 1.6890
3.0134 -2.7521 1.4851
5.4334 -2.9441 2.2888
5.9129 -1.5260 2.2888
6.0721 -0.0502 2.2888
5.9092 1.4216 2.2888
5.4300 2.8294 2.2888
4.6487 4.1121 2.2888
3.5886 5.2096 2.2888
2.2848 6.0612 2.2888
0.5077 4.2655 1.4773
-0.5274 4.2735 1.4384
-2.3411 6.1568 2.1364
-3.8437 5.5789 2.1364
-5.1849 4.6227 2.1364
-6.7034 3.5685 2.2888
-7.4611 1.9094 2.2888
-7.7539 0.0936 2.2888
-7.5501 -1.7387 2.2888
-6.8668 -3.4436 2.2888
-5.3835 -4.5671 2.1364
-4.0610 -5.5907 2.1364
-2.5521 -6.2312 2.1364
-1.0384 -6.9333 2.2888
0.6257 -6.7778 2.2888
2.1648 -6.2492 2.2888
2.6315 -4.0549 1.7178
2.9399 -2.7512 1.4637
5.4012 -3.0124 2.2888
5.8964 -1.5988 2.2888
6.0718 -0.1244 2.2888
5.9249 1.3491 2.2888
5.4613 2.7613 2.2888
4.6946 4.0519 2.2888
3.6477 5.1601 2.2888
2.3550 6.0254 2.2888
0.5600 4.2651 1.4815
-0.4752 4.2731 1.4383
-2.2637 6.1755 2.1364
-3.7715 5.6170 2.1364
-5.1234 4.6790 2.1364
-6.6545 3.6451 2.2888
-7.4338 1.9972 2.2888
-7.7510 0.1860 2.2888
-7.5720 -1.6490 2.2888
-6.9115 -3.3635 2.2888
-5.4427 -4.5067 2.1364
-4.1325 -5.5483 2.1364
-2.6302 -6.2087 2.1364
-1.1233 -6.9305 2.2888
0.5447 -6.7948 2.2888
2.0920 -6.2836 2.2888
2.6307 -4.1633 1.7479
2.8683 -2.7504 1.4431
5.3681 -3.0804 2.2888
5.8792 -1.6714 2.2888
6.0707 -0.1987 2.2888
5.9398 1.2764 2.2888
5.4919 2.6931 2.2888
4.7399 3.9912 2.2888
3.7063 5.1099 2.2888
2.4248 5.9888 2.2888
0.6125 4.2647 1.4859
-0.4231 4.2727 1.4385
-2.1861 6.1932 2.1364
-3.6989 5.6541 2.1364
-5.0612 4.7344 2.1364
-6.6046 3.7209 2.2888
-7.4053 2.0846 2.2888
-7.7468 0.2783 2.2888
-7.5927 -1.5589 2.2888
-6.9552 -3.2827 2.2888
-5.5011 -4.4454 2.1364
-4.2035 -5.5050 2.1364
-2.7082 -6.1851 2.1364
-1.2083 -6.9266 2.2888
0.4634 -6.8109 2.2888
2.0188 -6.3173 2.2888
2.6299 -4.2760 1.7795
2.7986 -2.7496 1.4233
5.3344 -3.1480 2.2888
5.8612 -1.7439 2.2888
6.0688 -0.2729 2.2888
5.9540 1.2035 2.2888
5.5216 2.6246 2.2888
4.7844 3.9300 2.2888
3.7642 5.0591 2.2888
2.4941 5.9515 2.2888
0.6651 4.2643 1.4905
-0.3712 4.2723 1.4389
-2.1085 6.2100 2.1364
-3.6259 5.6903 2.1364
-4.9983 4.7890 2.1364
-6.5538 3.7961 2.2888
-7.3757 2.1715 2.2888
-7.7414 0.3706 2.2888
-7.6122 -1.4685 2.2888
-6.9978 -3.2013 2.2888
-5.5588 -4.3834 2.1364
-4.2741 -5.4607 2.1364
-2.7859 -6.1606 2.1364
-1.2933 -6.9217 2.2888
0.3819 -6.8261 2.2888
1.9450 -6.3502 2.2888
2.6291 -4.3931 1.8125
2.7306 -2.7489 1.4041
4.5661 -2.7702 1.9720
5.8424 -1.8162 2.2888
6.0661 -0.3471 2.2888
5.9673 1.1305 2.2888
5.5506 2.5558 2.2888
4.8282 3.8684 2.2888
3.8214 5.0078 2.2888
2.5629 5.9134 2.2888
0.7179 4.2639 1.4954
-0.3193 4.2719 1.4395
-2.0488 6.2810 2.1554
-3.5526 5.7255 2.1364
-4.9348 4.8427 2.1364
-6.5020 3.8705 2.2888
-7.3449 2.2580 2.2888
-7.7347 0.4627 2.2888
-7.6305 -1.3779 2.2888
-7.0393 -3.1194 2.2888
-5.6157 -4.3205 2.1364
-4.3441 -5.4154 2.1364
-2.8633 -6.1350 2.1364
-1.3783 -6.9157 2.2888
0.3001 -6.8403 2.2888
1.8708 -6.3822 2.2888
2.6282 -4.5150 1.8471
2.6643 -2.7481 1.3856
4.4408 -2.7687 1.9307
5.8228 -1.8884 2.2888
6.0625 -0.4212 2.2888
5.9799 1.0574 2.2888
5.5788 2.4867 2.2888
4.8713 3.8064 2.2888
3.8780 4.9559 2.2888
2.6311 5.8746 2.2888
0.7710 4.2635 1.5005
-0.2675 4.2715 1.4403
-2.0316 6.4919 2.2225
-3.4789 5.7597 2.1364
-4.8707 4.8955 2.1364
-6.4493 3.9442 2.2888
-7.3130 2.3439 2.2888
-7.7268 0.5548 2.2888
-7.6475 -1.2871 2.2888
-7.0798 -3.0368 2.2888
-5.6718 -4.2569 2.1364
-4.4135 -5.3693 2.1364
-2.9406 -6.1085 2.1364
-1.4635 -6.9087 2.2888
0.2181 -6.8535 2.2888
1.7961 -6.4134 2.2888
2.6272 -4.6418 1.8835
2.6407 -2.7910 1.3894
4.3204 -2.7673 1.8913
5.8024 -1.9603 2.2888
6.0582 -0.4953 2.2888
5.9917 0.9841 2.2888
5.6063 2.4174 2.2888
4.9136 3.7440 2.2888
3.9341 4.9034 2.2888
2.6989 5.8351 2.2888
0.8242 4.2630 1.5058
-0.2159 4.2711 1.4413
-2.0087 6.7004 2.2888
-3.4049 5.7930 2.1364
-4.8060 4.9474 2.1364
-6.3956 4.0171 2.2888
-7.2800 2.4295 2.2888
-7.7177 0.6467 2.2888
-7.6633 -1.1960 2.2888
-7.1191 -2.9537 2.2888
-5.7271 -4.1924 2.1364
-4.4825 -5.3221 2.1364
-3.0175 -6.0810 2.1364
-1.5485 -6.9006 2.2888
0.1357 -6.8658 2.2888
1.7209 -6.4438 2.2888
2.6263 -4.7740 1.9216
2.6402 -2.8592 1.4058
4.2045 -2.7659 1.8537
5.7811 -2.0321 2.2888
6.0531 -0.5694 2.2888
6.0026 0.9108 2.2888
5.6330 2.3477 2.2888
4.9553 3.6811 2.2888
3.9894 4.8504 2.2888
2.7660 5.7948 2.2888
0.8778 4.2626 1.5114
-0.1642 4.2707 1.4425
-1.9253 6.7142 2.2888
-3.3306 5.8253 2.1364
-4.7407 4.9985 2.1364
-6.3411 4.0893 2.2888
-7.2458 2.5145 2.2888
-7.7073 0.7384 2.2888
-7.6779 -1.1047 2.2888
-7.1574 -2.8699 2.2888
-5.7815 -4.1273 2.1364
-4.5509 -5.2741 2.1364
-3.0943 -6.0524 2.1364
-1.6337 -6.8915 2.2888
0.0531 -6.8771 2.2888
1.6453 -6.4734 2.2888
2.6253 -4.9123 1.9617
2.6397 -2.9293 1.4228
4.0932 -2.7646 1.8177
5.7591 -2.1036 2.2888
6.0471 -0.6435 2.2888
6.0128 0.8372 2.2888
5.6589 2.2779 2.2888
4.9962 3.6178 2.2888
4.0441 4.7967 2.2888
2.8327 5.7539 2.2888
0.9315 4.2622 1.5172
-0.1127 4.2703 1.4439
-1.8416 6.7270 2.2888
-3.2559 5.8567 2.1364
-4.6748 5.0486 2.1364
-6.2856 4.1606 2.2888
-7.2105 2.5991 2.2888
-7.6957 0.8301 2.2888
-7.6912 -1.0132 2.2888
-7.1945 -2.7858 2.2888
-6.2514 -4.3509 2.2888
-4.6188 -5.2251 2.1364
-3.1707 -6.0228 2.1364
-1.7187 -6.8813 2.2888
-0.0298 -6.8874 2.2888
1.5693 -6.5021 2.2888
2.6242 -5.0566 2.0039
2.6392 -3.0012 1.4405
3.9857 -2.7634 1.7833
5.7363 -2.1750 2.2888
6.0404 -0.7174 2.2888
6.0221 0.7637 2.2888
5.6841 2.2077 2.2888
5.0365 3.5541 2.2888
4.0982 4.7424 2.2888
2.8988 5.7122 2.2888
0.9856 4.2618 1.5233
-0.0611 4.2700 1.4455
-1.7581 6.7387 2.2888
-3.1810 5.8870 2.1364
-4.6083 5.0979 2.1364
-6.2293 4.2312 2.2888
-7.1741 2.6831 2.2888
-7.6828 0.9214 2.2888
-7.7033 -0.9215 2.2888
-7.2305 -2.7009 2.2888
-6.3079 -4.2795 2.2888
-4.6860 -5.1752 2.1364
-3.2469 -5.9923 2.1364
-1.8039 -6.8701 2.2888
-0.1128 -6.8968 2.2888
1.4928 -6.5299 2.2888
2.6231 -5.2079 2.0484
2.6386 -3.0751 1.4588
3.8822 -2.7621 1.7503
5.7127 -2.2461 2.2888
6.0328 -0.7914 2.2888
6.0307 0.6900 2.2888
5.7084 2.1373 2.2888
5.0759 3.4901 2.2888
4.1516 4.6878 2.2888
2.9644 5.6698 2.2888
1.0400 4.2613 1.5296
-0.0097 4.2696 1.4474
-1.6744 6.7494 2.2888
-3.1058 5.9164 2.1364
-4.5414 5.1462 2.1364
-6.1721 4.3010 2.2888
-7.1366 2.7666 2.2888
-7.6687 1.0127 2.2888
-7.7141 -0.8297 2.2888
-7.2654 -2.6157 2.2888
-6.3636 -4.2072 2.2888
-4.7527 -5.1243 2.1364
-3.3227 -5.9607 2.1364
-1.8888 -6.8578 2.2888
-0.1961 -6.9051 2.2888
1.4159 -6.5569 2.2888
2.8641 -5.8619 2.2888
2.6381 -3.1511 1.4779
3.7821 -2.7610 1.7187
5.6883 -2.3171 2.2888
6.0245 -0.8653 2.2888
6.0385 0.6163 2.2888
5.7320 2.0667 2.2888
5.1147 3.4256 2.2888
4.2043 4.6326 2.2888
3.0294 5.6268 2.2888
1.2811 4.9864 1.7977
0.0419 4.2692 1.4494
-1.5908 6.7590 2.2888
-3.0303 5.9449 2.1364
-4.4738 5.1937 2.1364
-6.1140 4.3700 2.2888
-7.0981 2.8495 2.2888
-7.6534 1.1035 2.2888
-7.7237 -0.7377 2.2888
-7.2991 -2.5299 2.2888
-6.4183 -4.1342 2.2888
-4.8187 -5.0726 2.1364
-3.3982 -5.9282 2.1364
-1.9739 -6.8444 2.2888
-0.2797 -6.9125 2.2888
1.3386 -6.5830 2.2888
2.7966 -5.9040 2.2888
2.6375 -3.2293 1.4977
3.6855 -2.7598 1.6884
5.6632 -2.3877 2.2888
6.0153 -0.9391 2.2888
6.0454 0.5424 2.2888
5.7549 1.9958 2.2888
5.1527 3.3608 2.2888
4.2564 4.5768 2.2888
3.0939 5.5831 2.2888
1.3750 5.0952 1.8453
0.0933 4.2688 1.4516
-1.1453 5.1429 1.7393
-2.9546 5.9723 2.1364
-4.4057 5.2402 2.1364
-6.0551 4.4381 2.2888
-3.7537 1.5592 1.2172
-7.6368 1.1943 2.2888
-7.7321 -0.6455 2.2888
-7.3317 -2.4438 2.2888
-6.4721 -4.0603 2.2888
-4.8841 -5.0199 2.1364
-3.4734 -5.8946 2.1364
-2.0587 -6.8300 2.2888
-0.3633 -6.9188 2.2888
1.2609 -6.6082 2.2888
2.7285 -5.9454 2.2888
2.6369 -3.3098 1.5183
3.5921 -2.7587 1.6594
5.6372 -2.4582 2.2888
6.0053 -1.0129 2.2888
6.0516 0.4685 2.2888
5.7769 1.9248 2.2888
5.1900 3.2956 2.2888
4.3079 4.5204 2.2888
3.1577 5.5387 2.2888
1.7794 6.2903 2.2888
0.1449 4.2684 1.4541
-0.8984 4.2763 1.4446
-2.8786 5.9988 2.1364
-4.3371 5.2858 2.1364
-5.9953 4.5054 2.2888
-3.7396 1.6060 1.2197
-7.6191 1.2847 2.2888
-7.7392 -0.5534 2.2888
-7.3631 -2.3570 2.2888
-6.5249 -3.9857 2.2888
-4.9489 -4.9664 2.1364
-3.5482 -5.8601 2.1364
-2.1436 -6.8144 2.2888
-0.4472 -6.9242 2.2888
1.1828 -6.6326 2.2888
2.6600 -5.9859 2.2888
2.6363 -3.3928 1.5398
3.5016 -2.7577 1.6315
5.6104 -2.5284 2.2888
5.9945 -1.0865 2.2888
6.0569 0.3945 2.2888
5.7982 1.8534 2.2888
5.2265 3.2300 2.2888
4.3586 4.4636 2.2888
3.2211 5.4936 2.2888
1.8530 6.2599 2.2888
0.1965 4.2680 1.4568
-0.8448 4.2759 1.4431
-2.8024 6.0243 2.1364
-4.2680 5.3305 2.1364
-5.5396 4.2674 2.1364
-6.9759 3.0948 2.2888
-7.6001 1.3750 2.2888
-7.7451 -0.4610 2.2888
-7.3933 -2.2699 2.2888
-6.5767 -3.9104 2.2888
-5.0130 -4.9120 2.1364
-3.6227 -5.8245 2.1364
-2.2283 -6.7978 2.2888
-0.5312 -6.9286 2.2888
1.1043 -6.6560 2.2888
2.5908 -6.0259 2.2888
2.6357 -3.4782 1.5621
3.4141 -2.7567 1.6047
5.5829 -2.5984 2.2888
5.9829 -1.1600 2.2888
6.0614 0.3205 2.2888
5.8186 1.7820 2.2888
5.2623 3.1640 2.2888
4.4087 4.4062 2.2888
3.2838 5.4479 2.2888
1.9261 6.2288 2.2888
0.2481 4.2676 1.4597
-0.7913 4.2755 1.4418
-2.7260 6.0488 2.1364
-4.1984 5.3742 2.1364
-5.4823 4.3287 2.1364
-6.9330 3.1754 2.2888
-7.5800 1.4648 2.2888
-7.7497 -0.3687 2.2888
-7.4224 -2.1823 2.2888
-6.6276 -3.8343 2.2888
-5.0765 -4.8567 2.1364
-3.6968 -5.7880 2.1364
-2.3130 -6.7802 2.2888
-0.6155 -6.9319 2.2888
1.0254 -6.6786 2.2888
2.5212 -6.0650 2.2888
2.6351 -3.5665 1.5854
3.3291 -2.7557 1.5789
5.5546 -2.6680 2.2888
5.9705 -1.2334 2.2888
6.0652 0.2464 2.2888
5.8383 1.7103 2.2888
5.2973 3.0978 2.2888
4.4580 4.3484 2.2888
3.3459 5.4015 2.2888
1.9988 6.1968 2.2888
0.2998 4.2672 1.4627
-0.7382 4.2751 1.4407
-2.6494 6.0724 2.1364
-4.1284 5.4171 2.1364
-5.4243 4.3889 2.1364
-6.8892 3.2553 2.2888
-7.5586 1.5545 2.2888
-7.7530 -0.2762 2.2888
-7.4503 -2.0944 2.2888
-6.6774 -3.7576 2.2888
-5.1393 -4.8005 2.1364
-3.7705 -5.7505 2.1364
-2.3950 -6.7544 2.2864
-0.6997 -6.9342 2.2888
0.9461 -6.7003 2.2888
2.4509 -6.1034 2.2888
2.6344 -3.6576 1.6096
3.2468 -2.7547 1.5541
5.5254 -2.7375 2.2888
5.9573 -1.3068 2.2888
6.0681 0.1724 2.2888
5.8572 1.6384 2.2888
5.3316 3.0310 2.2888
4.5067 4.2900 2.2888
3.4074 5.3545 2.2888
2.0709 6.1641 2.2888
0.3516 4.2668 1.4661
-0.6852 4.2747 1.4398
-2.5726 6.0949 2.1364
-4.0579 5.4589 2.1364
-5.3655 4.4487 2.1364
-6.8442 3.3346 2.2888
-7.5360 1.6437 2.2888
-7.7551 -0.1839 2.2888
-7.4771 -2.0060 2.2888
-6.7263 -3.6801 2.2888
-5.2014 -4.7435 2.1364
-3.8437 -5.7120 2.1364
-2.4005 -6.5204 2.2137
-0.7843 -6.9355 2.2888
0.8666 -6.7210 2.2888
2.3802 -6.1409 2.2888
2.6337 -3.7519 1.6350
3.1667 -2.7538 1.5302
5.4956 -2.8066 2.2888
5.9433 -1.3799 2.2888
6.0703 0.0982 2.2888
5.8753 1.5663 2.2888
5.3651 2.9642 2.2888
4.5547 4.2313 2.2888
3.4684 5.3068 2.2888
2.1427 6.1306 2.2888
0.4035 4.2663 1.4696
-0.6325 4.2743 1.4391
-2.4956 6.1165 2.1364
-3.9869 5.4999 2.1364
-5.3061 4.5075 2.1364
-6.7983 3.4133 2.2888
-7.5122 1.7326 2.2888
-7.7560 -0.0913 2.2888
-7.5026 -1.9174 2.2888
-6.7741 -3.6020 2.2888
-5.2628 -4.6855 2.1364
-3.9166 -5.6725 2.1364
-2.4056 -6.3005 2.1457
-0.8688 -6.9358 2.2888
0.7866 -6.7409 2.2888
2.3089 -6.1778 2.2888
2.6330 -3.8493 1.6613
3.0891 -2.7529 1.5072
5.4649 -2.8755 2.2888
5.9285 -1.4530 2.2888
6.0716 0.0240 2.2888
5.8926 1.4942 2.2888
5.3980 2.8969 2.2888
4.6021 4.1719 2.2888
3.5288 5.2586 2.2888
2.2139 6.0963 2.2888
0.4555 4.2659 1.4733
-0.5799 4.2739 1.4386
-2.4185 6.1372 2.1364
-3.9156 5.5398 2.1364
-5.2458 4.5655 2.1364
-6.7514 3.4911 2.2888
-7.4873 1.8211 2.2888
-7.7555 0.0011 2.2888
-7.5269 -1.8282 2.2888
-6.8210 -3.5232 2.2888
-5.3234 -4.6268 2.1364
-3.9890 -5.6321 2.1364
-2.4737 -6.2527 2.1364
-0.9536 -6.9351 2.2888
0.7064 -6.7598 2.2888
2.2372 -6.2138 2.2888
2.6323 -3.9502 1.6889
3.0134 -2.7521 1.4851
5.4334 -2.9441 2.2888
5.9129 -1.5259 2.2888
6.0721 -0.0502 2.2888
5.9092 1.4217 2.2888
5.4300 2.8297 2.2888
4.6487 4.1122 2.2888
3.5885 5.2096 2.2888
2.2847 6.0612 2.2888
0.5076 4.2655 1.4773
-0.5275 4.2735 1.4384
-2.3412 6.1568 2.1364
-3.8437 5.5789 2.1364
-5.1850 4.6226 2.1364
-6.7035 3.5684 2.2888
-7.4611 1.9093 2.2888
-7.7539 0.0936 2.2888
-7.5500 -1.7389 2.2888
-6.8667 -3.4437 2.2888
-5.3834 -4.5672 2.1364
-4.0610 -5.5907 2.1364
-2.5520 -6.2312 2.1364
-1.0383 -6.9333 2.2888
0.6257 -6.7778 2.2888
2.1649 -6.2491 2.2888
2.6315 -4.0547 1.7177
2.9400 -2.7512 1.4638
5.4012 -3.0124 2.2888
5.8965 -1.5988 2.2888
6.0718 -0.1243 2.2888
5.9249 1.3492 2.2888
5.4613 2.7614 2.2888
4.6946 4.0519 2.2888
3.6476 5.1601 2.2888
2.3549 6.0254 2.2888
0.5600 4.2651 1.4815
-0.4752 4.2731 1.4383
-2.2638 6.1755 2.1364
-3.7716 5.6169 2.1364
-5.1234 4.6789 2.1364
-6.6546 3.6450 2.2888
-7.4339 1.9970 2.2888
-7.7510 0.1859 2.2888
-7.5720 -1.6490 2.2888
-6.9115 -3.3635 2.2888
-5.4427 -4.5067 2.1364
-4.1324 -5.5484 2.1364
-2.6301 -6.2087 2.1364
-1.1233 -6.9305 2.2888
0.5447 -6.7948 2.2888
2.0921 -6.2836 2.2888
2.6307 -4.1633 1.7479
2.8683 -2.7504 1.4432
5.3682 -3.0804 2.2888
5.8793 -1.6713 2.2888
6.0707 -0.1986 2.2888
5.9398 1.2764 2.2888
5.4918 2.6931 2.2888
4.7398 3.9912 2.2888
3.7062 5.1100 2.2888
2.4248 5.9888 2.2888
0.6085 4.2644 1.5949
-0.4271 4.2724 1.5469
-2.0604 5.8206 2.1634
-3.4327 5.2380 2.1364
-4.6869 4.3784 2.1364
-6.1062 3.4361 2.2888
-6.8387 1.9228 2.2888
-7.1499 0.2562 2.2888
-7.0078 -1.4379 2.2888
-6.4236 -3.0292 2.2888
-5.0868 -4.1062 2.1364
-3.8939 -5.0921 2.1364
-2.5150 -5.7311 2.1364
-1.1277 -6.4302 2.2888
0.4251 -6.3347 2.2888
1.8750 -5.8862 2.2888
2.6298 -4.2840 1.9103
2.7959 -2.7510 1.5237
4.9845 -2.9453 2.2888
5.4814 -1.6330 2.2888
5.6778 -0.2560 2.2888
5.5704 1.1265 2.2888
5.1636 2.4564 2.2888
4.4702 3.6759 2.2888
3.5121 4.7272 2.2888
2.3220 5.5535 2.2888
0.6611 4.2640 1.5998
-0.3751 4.2720 1.5471
-2.0448 6.0050 2.2256
-3.3654 5.2720 2.1364
-4.6291 4.4292 2.1364
-6.0596 3.5057 2.2888
-6.8116 2.0030 2.2888
-7.1450 0.3413 2.2888
-7.0257 -1.3546 2.2888
-6.4626 -2.9540 2.2888
-5.1398 -4.0486 2.1364
-3.9589 -5.0508 2.1364
-2.5868 -5.7079 2.1364
-1.2065 -6.4250 2.2888
0.3492 -6.3482 2.2888
1.8061 -5.9163 2.2888
2.6290 -4.4015 1.9459
2.7280 -2.7503 1.5033
4.9520 -3.0081 2.2888
5.4636 -1.7007 2.2888
5.6752 -0.3255 2.2888
5.5829 1.0582 2.2888
5.1909 2.3921 2.2888
4.5114 3.6184 2.2888
3.5658 4.6795 2.2888
2.3863 5.5184 2.2888
0.7140 4.2636 1.6049
-0.3232 4.2716 1.5476
-2.0258 6.1917 2.2888
-3.2977 5.3051 2.1364
-4.5708 4.4792 2.1364
-6.0121 3.5747 2.2888
-6.7835 2.0829 2.2888
-7.1390 0.4263 2.2888
-7.0425 -1.2710 2.2888
-6.5007 -2.8782 2.2888
-5.1920 -3.9903 2.1364
-4.0233 -5.0086 2.1364
-2.6583 -5.6837 2.1364
-1.2854 -6.4188 2.2888
0.2731 -6.3608 2.2888
0.9117 -3.1210 1.2014
2.6281 -4.5237 1.9833
2.6617 -2.7495 1.4836
4.4381 -2.7706 2.0652
5.4451 -1.7681 2.2888
5.6719 -0.3949 2.2888
5.5947 0.9897 2.2888
5.2174 2.3275 2.2888
4.5519 3.5605 2.2888
3.6190 4.6313 2.2888
2.4502 5.4826 2.2888
0.7670 4.2632 1.6102
-0.2715 4.2712 1.5483
-1.9485 6.2070 2.2888
-3.2297 5.3373 2.1364
-4.5118 4.5285 2.1364
-5.5667 3.4004 2.1364
-6.7543 2.1624 2.2888
-7.1318 0.5112 2.2888
-7.0581 -1.1872 2.2888
-6.5378 -2.8019 2.2888
-5.2435 -3.9313 2.1364
-4.0872 -4.9654 2.1364
-2.7296 -5.6586 2.1364
-1.3642 -6.4117 2.2888
0.1967 -6.3725 2.2888
1.6671 -5.9742 2.2888
2.6272 -4.6510 2.0226
2.6407 -2.7951 1.4892
4.3177 -2.7692 2.0231
5.4258 -1.8354 2.2888
5.6677 -0.4643 2.2888
5.6058 0.9211 2.2888
5.2433 2.2626 2.2888
4.5917 3.5023 2.2888
3.6715 4.5825 2.2888
2.5136 5.4461 2.2888
0.8203 4.2628 1.6158
-0.2198 4.2708 1.5492
-1.8712 6.2214 2.2888
-3.1614 5.3687 2.1364
-4.4523 4.5769 2.1364
-5.5208 3.4635 2.1364
-6.7241 2.2414 2.2888
-7.1235 0.5959 2.2888
-7.0726 -1.1032 2.2888
-6.5738 -2.7251 2.2888
-5.2942 -3.8715 2.1364
-4.1507 -4.9215 2.1364
-2.8007 -5.6326 2.1364
-1.4431 -6.4036 2.2888
0.1201 -6.3834 2.2888
1.5970 -6.0020 2.2888
2.6262 -4.7838 2.0638
2.6402 -2.8635 1.5069
4.2019 -2.7677 1.9830
5.4058 -1.9025 2.2888
5.6628 -0.5337 2.2888
5.6161 0.8524 2.2888
5.2684 2.1975 2.2888
4.6309 3.4436 2.2888
3.7235 4.5331 2.2888
2.5765 5.4089 2.2888
0.8738 4.2623 1.6217
-0.1682 4.2705 1.5504
-1.7938 6.2348 2.2888
-3.0928 5.3991 2.1364
-4.3922 4.6245 2.1364
-5.4742 3.5258 2.1364
-6.6929 2.3199 2.2888
-7.1140 0.6806 2.2888
-7.0860 -1.0190 2.2888
-6.6089 -2.6478 2.2888
-5.3442 -3.8111 2.1364
-4.2136 -4.8767 2.1364
-2.8715 -5.6056 2.1364
-1.5219 -6.3946 2.2888
0.0434 -6.3933 2.2888
1.5264 -6.0290 2.2888
2.8516 -5.3468 2.2888
2.6397 -2.9337 1.5252
4.0904 -2.7664 1.9446
5.3850 -1.9695 2.2888
5.6572 -0.6031 2.2888
5.6256 0.7836 2.2888
5.2928 2.1321 2.2888
4.6694 3.3845 2.2888
3.7748 4.4833 2.2888
2.6390 5.3711 2.2888
0.9276 4.2619 1.6278
-0.1166 4.2701 1.5518
-1.7163 6.2472 2.2888
-3.0239 5.4287 2.1364
-4.3316 4.6713 2.1364
-5.4267 3.5877 2.1364
-6.6606 2.3977 2.2888
-7.1035 0.7650 2.2888
-7.0982 -0.9346 2.2888
-6.6429 -2.5700 2.2888
-5.3934 -3.7500 2.1364
-4.2760 -4.8310 2.1364
-2.9421 -5.5777 2.1364
-1.6007 -6.3845 2.2888
-0.0337 -6.4023 2.2888
1.4554 -6.0552 2.2888
2.7900 -5.3877 2.2888
2.6391 -3.0058 1.5443
3.9830 -2.7651 1.9078
5.3635 -2.0362 2.2888
5.6508 -0.6724 2.2888
5.6344 0.7147 2.2888
5.3164 2.0665 2.2888
4.7072 3.3251 2.2888
3.8256 4.4329 2.2888
2.7009 5.3325 2.2888
0.9816 4.2615 1.6341
-0.0651 4.2697 1.5534
-1.6388 6.2586 2.2888
-2.9547 5.4573 2.1364
-4.2705 4.7173 2.1364
-5.3785 3.6489 2.1364
-6.6274 2.4758 2.2888
-7.0918 0.8493 2.2888
-7.1094 -0.8501 2.2888
-6.6759 -2.4918 2.2888
-5.4419 -3.6882 2.1364
-4.3378 -4.7845 2.1364
-3.0123 -5.5490 2.1364
-1.6795 -6.3735 2.2888
-0.1109 -6.4104 2.2888
1.3841 -6.0806 2.2888
2.7279 -5.4278 2.2888
2.6386 -3.0799 1.5641
3.8794 -2.7638 1.8726
5.3412 -2.1027 2.2888
5.6436 -0.7416 2.2888
5.6424 0.6457 2.2888
5.3394 2.0006 2.2888
4.7443 3.2653 2.2888
3.8757 4.3820 2.2888
2.7623 5.2934 2.2888
1.0360 4.2610 1.6408
-0.0136 4.2693 1.5552
-1.5613 6.2692 2.2888
-2.8852 5.4851 2.1364
-4.2088 4.7624 2.1364
-5.3295 3.7093 2.1364
-6.5931 2.5529 2.2888
-7.0789 0.9335 2.2888
-7.1193 -0.7654 2.2888
-6.7078 -2.4131 2.2888
-5.4895 -3.6257 2.1364
-4.3991 -4.7371 2.1364
-3.0823 -5.5193 2.1364
-1.7582 -6.3615 2.2888
-0.1883 -6.4175 2.2888
1.3124 -6.1051 2.2888
2.6653 -5.4673 2.2888
2.6381 -3.1561 1.5847
3.7794 -2.7626 1.8389
5.3182 -2.1690 2.2888
5.6357 -0.8107 2.2888
5.6497 0.5766 2.2888
5.3616 1.9345 2.2888
4.7808 3.2051 2.2888
3.9252 4.3305 2.2888
2.8232 5.2536 2.2888
1.0907 4.2606 1.6477
0.0379 4.2689 1.5573
-1.4837 6.2787 2.2888
-2.8155 5.5120 2.1364
-4.1466 4.8067 2.1364
-5.2798 3.7691 2.1364
-6.5578 2.6296 2.2888
-7.0650 1.0174 2.2888
-7.1282 -0.6806 2.2888
-6.7387 -2.3339 2.2888
-5.5364 -3.5625 2.1364
-4.4599 -4.6890 2.1364
-3.1519 -5.4886 2.1364
-1.8369 -6.3484 2.2888
-0.2659 -6.4238 2.2888
1.2403 -6.1289 2.2888
2.6022 -5.5061 2.2888
2.6107 -3.2016 1.5898
3.6828 -2.7615 1.8066
5.2944 -2.2351 2.2888
5.6270 -0.8798 2.2888
5.6562 0.5075 2.2888
5.3830 1.8682 2.2888
4.8165 3.1445 2.2888
3.9741 4.2786 2.2888
2.8836 5.2131 2.2888
1.3571 5.0462 1.9602
0.0894 4.2685 1.5595
-1.1237 5.0247 1.8292
-2.7455 5.5379 2.1364
-4.0840 4.8502 2.1364
-5.2293 3.8281 2.1364
-3.7542 1.5576 1.3176
-7.0499 1.1011 2.2888
-7.1359 -0.5957 2.2888
-6.7686 -2.2543 2.2888
-5.5824 -3.4988 2.1364
-4.5200 -4.6400 2.1364
-3.2212 -5.4571 2.1364
-1.9155 -6.3345 2.2888
-0.3436 -6.4291 2.2888
1.1678 -6.1518 2.2888
2.5385 -5.5442 2.2888
2.5732 -3.2351 1.5890
3.5894 -2.7604 1.7756
5.2699 -2.3010 2.2888
5.6176 -0.9488 2.2888
5.6620 0.4383 2.2888
5.4038 1.8016 2.2888
4.8516 3.0836 2.2888
4.0224 4.2262 2.2888
2.9434 5.1720 2.2888
1.6537 5.8652 2.2888
0.1410 4.2681 1.5620
-0.9024 4.2760 1.5547
-2.6753 5.5630 2.1364
-4.0208 4.8929 2.1364
-5.1781 3.8864 2.1364
-3.7384 1.6036 1.3196
-7.0337 1.1845 2.2888
-7.1424 -0.5106 2.2888
-6.7974 -2.1743 2.2888
-5.6276 -3.4341 2.1364
-4.5795 -4.5902 2.1364
-3.2903 -5.4246 2.1364
-1.9940 -6.3195 2.2888
-0.4215 -6.4334 2.2888
1.0950 -6.1739 2.2888
2.4743 -5.5817 2.2888
2.5415 -3.2761 1.5921
3.4990 -2.7593 1.7458
5.2447 -2.3666 2.2888
5.6073 -1.0178 2.2888
5.6670 0.3690 2.2888
5.4238 1.7350 2.2888
4.8859 3.0224 2.2888
4.0701 4.1732 2.2888
3.0028 5.1302 2.2888
1.7224 5.8373 2.2888
0.1926 4.2677 1.5648
-0.8487 4.2756 1.5529
-2.6049 5.5872 2.1364
-3.9572 4.9347 2.1364
-5.1263 3.9441 2.1364
-6.4460 2.8565 2.2888
-7.0164 1.2678 2.2888
-7.1478 -0.4255 2.2888
-6.8251 -2.0939 2.2888
-5.6720 -3.3693 2.1364
-4.6385 -4.5395 2.1364
-3.3589 -5.3913 2.1364
-2.0724 -6.3035 2.2888
-0.4996 -6.4369 2.2888
1.0218 -6.1952 2.2888
2.4097 -5.6184 2.2888
2.5164 -3.3264 1.5998
3.4114 -2.7582 1.7172
5.2187 -2.4319 2.2888
5.5964 -1.0866 2.2888
5.6712 0.2997 2.2888
5.4430 1.6681 2.2888
4.9196 2.9608 2.2888
4.1171 4.1197 2.2888
3.0616 5.0879 2.2888
1.7908 5.8087 2.2888
0.2442 4.2673 1.5677
-0.7953 4.2752 1.5514
-2.5343 5.6105 2.1364
-3.8931 4.9756 2.1364
-5.0737 4.0010 2.1364
-6.4068 2.9310 2.2888
-6.9980 1.3507 2.2888
-7.1521 -0.3404 2.2888
-6.8518 -2.0131 2.2888
-5.7155 -3.3036 2.1364
-4.6968 -4.4881 2.1364
-3.4272 -5.3570 2.1364
-2.1506 -6.2865 2.2888
-0.5777 -6.4394 2.2888
0.9483 -6.2157 2.2888
2.3445 -5.6544 2.2888
2.5014 -3.3913 1.6145
3.3265 -2.7572 1.6897
5.1920 -2.4971 2.2888
5.5847 -1.1553 2.2888
5.6747 0.2303 2.2888
5.4616 1.6010 2.2888
4.9526 2.8988 2.2888
4.1635 4.0659 2.2888
3.1198 5.0449 2.2888
1.8587 5.7794 2.2888
0.2959 4.2669 1.5709
-0.7421 4.2748 1.5500
-2.4634 5.6328 2.1364
-3.8286 5.0157 2.1364
-5.0204 4.0571 2.1364
-6.3667 3.0049 2.2888
-6.9785 1.4334 2.2888
-7.1552 -0.2552 2.2888
-6.8773 -1.9319 2.2888
-5.7582 -3.2373 2.1364
-4.7545 -4.4359 2.1364
-3.4951 -5.3219 2.1364
-2.2288 -6.2686 2.2888
-0.6560 -6.4409 2.2888
0.8745 -6.2353 2.2888
2.2789 -5.6897 2.2888
2.5162 -3.4995 1.6494
3.2441 -2.7563 1.6632
5.1646 -2.5622 2.2888
5.5722 -1.2240 2.2888
5.6774 0.1609 2.2888
5.4793 1.5337 2.2888
4.9848 2.8365 2.2888
4.2093 4.0116 2.2888
3.1775 5.0013 2.2888
1.9262 5.7493 2.2888
0.3477 4.2665 1.5743
-0.6891 4.2744 1.5489
-2.3924 5.6543 2.1364
-3.7636 5.0549 2.1364
-4.9664 4.1126 2.1364
-6.3256 3.0783 2.2888
-6.9579 1.5158 2.2888
-7.1572 -0.1699 2.2888
-6.9018 -1.8504 2.2888
-6.2137 -3.3966 2.2888
-4.8116 -4.3829 2.1364
-3.5626 -5.2858 2.1364
-2.3068 -6.2496 2.2888
-0.7344 -6.4415 2.2888
0.8004 -6.2540 2.2888
2.2127 -5.7243 2.2888
2.6337 -3.7583 1.7542
3.1641 -2.7553 1.6378
5.1364 -2.6265 2.2888
5.5589 -1.2925 2.2888
5.6794 0.0914 2.2888
5.4964 1.4663 2.2888
5.0164 2.7740 2.2888
4.2544 3.9567 2.2888
3.2347 4.9571 2.2888
1.9932 5.7185 2.2888
0.3996 4.2661 1.5780
-0.6364 4.2740 1.5481
-2.3212 5.6749 2.1364
-3.6982 5.0933 2.1364
-4.9118 4.1672 2.1364
-6.2835 3.1511 2.2888
-6.9362 1.5978 2.2888
-7.1580 -0.0847 2.2888
-6.9252 -1.7685 2.2888
-6.2576 -3.3243 2.2888
-4.8680 -4.3291 2.1364
-3.6297 -5.2489 2.1364
-2.3801 -6.2179 2.2845
-0.8129 -6.4412 2.2888
0.7259 -6.2719 2.2888
2.1461 -5.7582 2.2888
2.6330 -3.8561 1.7827
3.0864 -2.7544 1.6132
5.1075 -2.6908 2.2888
5.5449 -1.3608 2.2888
5.6806 0.0220 2.2888
5.5127 1.3986 2.2888
5.0472 2.7111 2.2888
4.2988 3.9015 2.2888
3.2913 4.9123 2.2888
2.0599 5.6869 2.2888
0.4516 4.2657 1.5819
-0.5838 4.2736 1.5474
-2.2498 5.6946 2.1364
-3.6324 5.1307 2.1364
-4.8566 4.2212 2.1364
-6.2406 3.2233 2.2888
-6.9135 1.6796 2.2888
-7.1577 0.0006 2.2888
-6.9475 -1.6864 2.2888
-6.3005 -3.2514 2.2888
-4.9237 -4.2745 2.1364
-3.6964 -5.2110 2.1364
-2.3856 -6.0152 2.2175
-0.8915 -6.4399 2.2888
0.6511 -6.2889 2.2888
2.0791 -5.7913 2.2888
2.6322 -3.9572 1.8125
3.0108 -2.7535 1.5896
5.0778 -2.7549 2.2888
5.5302 -1.4291 2.2888
5.6810 -0.0475 2.2888
5.5282 1.3309 2.2888
5.0774 2.6479 2.2888
4.3427 3.8457 2.2888
3.3473 4.8669 2.2888
2.1260 5.6547 2.2888
0.5037 4.2652 1.5860
-0.5314 4.2732 1.5470
-2.1783 5.7133 2.1364
-3.5663 5.1674 2.1364
-4.8007 4.2743 2.1364
-6.1967 3.2948 2.2888
-6.8896 1.7610 2.2888
-7.1562 0.0858 2.2888
-6.9687 -1.6039 2.2888
-6.3425 -3.1779 2.2888
-4.9787 -4.2192 2.1364
-3.7627 -5.1723 2.1364
-2.3907 -5.8234 2.1544
-0.9701 -6.4376 2.2888
0.5761 -6.3050 2.2888
2.0115 -5.8237 2.2888
2.6315 -4.0621 1.8436
2.9373 -2.7527 1.5669
5.0475 -2.8186 2.2888
5.5147 -1.4972 2.2888
5.6807 -0.1170 2.2888
5.5430 1.2629 2.2888
5.1068 2.5844 2.2888
4.3858 3.7896 2.2888
3.4028 4.8209 2.2888
2.1918 5.6217 2.2888
0.5560 4.2648 1.5903
-0.4792 4.2728 1.5468
-2.1067 5.7312 2.1364
-3.4997 5.2031 2.1364
-4.7441 4.3267 2.1364
-6.1519 3.3657 2.2888
-6.8647 1.8420 2.2888
-7.1536 0.1710 2.2888
-6.9888 -1.5211 2.2888
-6.3835 -3.1039 2.2888
-5.0331 -4.1631 2.1364
-3.8285 -5.1327 2.1364
-2.4429 -5.7535 2.1364
-1.0489 -6.4344 2.2888
0.5008 -6.3203 2.2888
1.9435 -5.8553 2.2888
2.6307 -4.1709 1.8762
2.8657 -2.7518 1.5449
5.0164 -2.8821 2.2888
5.4984 -1.5651 2.2888
5.6797 -0.1865 2.2888
5.5570 1.1948 2.2888
5.1356 2.5206 2.2888
4.4283 3.7330 2.2888
3.4577 4.7743 2.2888
2.2571 5.5880 2.2888
0.6085 4.2644 1.5949
-0.4271 4.2724 1.5469
-2.0604 5.8205 2.1633
-3.4327 5.2380 2.1364
-4.6869 4.3783 2.1364
-6.1062 3.4360 2.2888
-6.8387 1.9227 2.2888
-7.1499 0.2561 2.2888
-7.0078 -1.4380 2.2888
-6.4235 -3.0292 2.2888
-5.0868 -4.1062 2.1364
-3.8939 -5.0922 2.1364
-2.5149 -5.7311 2.1364
-1.1276 -6.4302 2.2888
0.4251 -6.3347 2.2888
1.8751 -5.8862 2.2888
2.6298 -4.2840 1.9102
2.7960 -2.7510 1.5237
4.9845 -2.9453 2.2888
5.4814 -1.6329 2.2888
5.6778 -0.2560 2.2888
5.5703 1.1266 2.2888
5.1636 2.4565 2.2888
4.4702 3.6759 2.2888
3.5120 4.7272 2.2888
2.3219 5.5535 2.2888
0.6611 4.2640 1.5998
-0.3751 4.2720 1.5471
-2.0449 6.0048 2.2256
-3.3654 5.2720 2.1364
-4.6292 4.4292 2.1364
-6.0596 3.5056 2.2888
-6.8116 2.0030 2.2888
-7.1450 0.3412 2.2888
-7.0257 -1.3547 2.2888
-6.4626 -2.9540 2.2888
-5.1398 -4.0486 2.1364
-3.9588 -5.0508 2.1364
-2.5867 -5.7079 2.1364
-1.2064 -6.4250 2.2888
0.3493 -6.3482 2.2888
1.8062 -5.9163 2.2888
2.6290 -4.4014 1.9459
2.7280 -2.7503 1.5033
4.9520 -3.0081 2.2888
5.4636 -1.7006 2.2888
5.6752 -0.3254 2.2888
5.5829 1.0583 2.2888
5.1908 2.3921 2.2888
4.5113 3.6185 2.2888
3.5658 4.6795 2.2888
2.3863 5.5184 2.2888
0.7139 4.2636 1.6049
-0.3233 4.2716 1.5476
-2.0258 6.1918 2.2888
-3.2978 5.3051 2.1364
-4.5708 4.4792 2.1364
-6.0122 3.5746 2.2888
-6.7835 2.0829 2.2888
-7.1390 0.4262 2.2888
-7.0425 -1.2710 2.2888
-6.5006 -2.8783 2.2888
-5.1920 -3.9904 2.1364
-4.0233 -5.0086 2.1364
-2.6582 -5.6837 2.1364
-1.2853 -6.4188 2.2888
0.2731 -6.3608 2.2888
0.9118 -3.1209 1.2014
2.6281 -4.5237 1.9833
2.6617 -2.7495 1.4836
4.4382 -2.7706 2.0652
5.4451 -1.7681 2.2888
5.6719 -0.3948 2.2888
5.5947 0.9898 2.2888
5.2174 2.3275 2.2888
4.5519 3.5606 2.2888
3.6189 4.6313 2.2888
2.4501 5.4826 2.2888
0.7670 4.2632 1.6102
-0.2715 4.2712 1.5483
-1.9486 6.2070 2.2888
-3.2298 5.3373 2.1364
-4.5119 4.5284 2.1364
-5.5667 3.4004 2.1364
-6.7544 2.1623 2.2888
-7.1318 0.5111 2.2888
-7.0581 -1.1873 2.2888
-6.5377 -2.8020 2.2888
-5.2434 -3.9314 2.1364
-4.0872 -4.9655 2.1364
-2.7296 -5.6586 2.1364
-1.3642 -6.4117 2.2888
0.1969 -6.3725 2.2888
1.6672 -5.9742 2.2888
2.6272 -4.6509 2.0226
2.6407 -2.7950 1.4892
4.3179 -2.7692 2.0232
5.4258 -1.8354 2.2888
5.6677 -0.4643 2.2888
5.6058 0.9211 2.2888
5.2432 2.2627 2.2888
4.5917 3.5023 2.2888
3.6715 4.5825 2.2888
2.5136 5.4461 2.2888
0.8202 4.2628 1.6158
-0.2199 4.2708 1.5492
-1.8713 6.2214 2.2888
-3.1615 5.3686 2.1364
-4.4524 4.5768 2.1364
-5.5209 3.4634 2.1364
-6.7242 2.2414 2.2888
-7.1235 0.5959 2.2888
-7.0726 -1.1034 2.2888
-6.5738 -2.7252 2.2888
-5.2942 -3.8716 2.1364
-4.1506 -4.9215 2.1364
-2.8006 -5.6326 2.1364
-1.4430 -6.4036 2.2888
0.1202 -6.3834 2.2888
1.5970 -6.0020 2.2888
2.6262 -4.7836 2.0637
2.6402 -2.8634 1.5068
4.2020 -2.7677 1.9830
5.4058 -1.9025 2.2888
5.6629 -0.5336 2.2888
5.6160 0.8525 2.2888
5.2684 2.1975 2.2888
4.6309 3.4436 2.2888
3.7234 4.5332 2.2888
2.5765 5.4090 2.2888
0.8737 4.2623 1.6217
-0.1682 4.2704 1.5504
-1.7939 6.2347 2.2888
-3.0929 5.3991 2.1364
-4.3923 4.6245 2.1364
-5.4742 3.5258 2.1364
-6.6929 2.3198 2.2888
-7.1141 0.6804 2.2888
-7.0860 -1.0191 2.2888
-6.6088 -2.6479 2.2888
-5.3441 -3.8112 2.1364
-4.2135 -4.8767 2.1364
-2.8714 -5.6056 2.1364
-1.5219 -6.3946 2.2888
0.0435 -6.3933 2.2888
1.5265 -6.0290 2.2888
2.8516 -5.3468 2.2888
2.6397 -2.9337 1.5252
4.0906 -2.7664 1.9446
5.3850 -1.9694 2.2888
5.6572 -0.6030 2.2888
5.6256 0.7836 2.2888
5.2927 2.1322 2.2888
4.6693 3.3846 2.2888
3.7748 4.4833 2.2888
2.6389 5.3711 2.2888
0.9275 4.2619 1.6278
-0.1167 4.2701 1.5518
-1.7164 6.2472 2.2888
-3.0239 5.4286 2.1364
-4.3317 4.6712 2.1364
-5.4268 3.5877 2.1364
-6.6607 2.3981 2.2888
-7.1035 0.7650 2.2888
-7.0982 -0.9348 2.2888
-6.6428 -2.5702 2.2888
-5.3934 -3.7500 2.1364
-4.2760 -4.8310 2.1364
-2.9419 -5.5778 2.1364
-1.6006 -6.3845 2.2888
-0.0336 -6.4023 2.2888
1.4555 -6.0552 2.2888
2.7901 -5.3876 2.2888
2.6391 -3.0057 1.5443
3.9831 -2.7651 1.9078
5.3635 -2.0362 2.2888
5.6508 -0.6722 2.2888
5.6344 0.7148 2.2888
5.3164 2.0665 2.2888
4.7072 3.3251 2.2888
3.8255 4.4330 2.2888
2.7008 5.3326 2.2888
0.9816 4.2615 1.6341
-0.0651 4.2697 1.5534
-1.6390 6.2586 2.2888
-2.9548 5.4573 2.1364
-4.2705 4.7172 2.1364
-5.3785 3.6488 2.1364
-6.6274 2.4757 2.2888
-7.0918 0.8492 2.2888
-7.1093 -0.8502 2.2888
-6.6758 -2.4918 2.2888
-5.4418 -3.6883 2.1364
-4.3378 -4.7846 2.1364
-3.0122 -5.5490 2.1364
-1.6794 -6.3735 2.2888
-0.1108 -6.4103 2.2888
1.3842 -6.0805 2.2888
2.7280 -5.4278 2.2888
2.6386 -3.0798 1.5641
3.8796 -2.7638 1.8727
5.3412 -2.1026 2.2888
5.6436 -0.7415 2.2888
5.6424 0.6457 2.2888
5.3393 2.0007 2.2888
4.7443 3.2654 2.2888
3.8757 4.3820 2.2888
2.7623 5.2934 2.2888
1.0359 4.2610 1.6408
-0.0136 4.2693 1.5552
-1.5614 6.2692 2.2888
-2.8853 5.4851 2.1364
-4.2089 4.7623 2.1364
-5.3296 3.7092 2.1364
-6.5931 2.5529 2.2888
-7.0789 0.9334 2.2888
-7.1193 -0.7656 2.2888
-6.7078 -2.4132 2.2888
-5.4895 -3.6258 2.1364
-4.3991 -4.7372 2.1364
-3.0821 -5.5193 2.1364
-1.7581 -6.3615 2.2888
-0.1882 -6.4175 2.2888
1.3124 -6.1051 2.2888
2.6654 -5.4672 2.2888
2.6381 -3.1559 1.5846
3.7795 -2.7626 1.8389
5.3182 -2.1690 2.2888
5.6357 -0.8106 2.2888
5.6497 0.5767 2.2888
5.3616 1.9346 2.2888
4.7807 3.2051 2.2888
3.9252 4.3306 2.2888
2.8231 5.2536 2.2888
1.0906 4.2606 1.6477
0.0379 4.2689 1.5573
-1.4838 6.2787 2.2888
-2.8156 5.5119 2.1364
-4.1467 4.8067 2.1364
-5.2798 3.7690 2.1364
-6.5579 2.6295 2.2888
-7.0650 1.0172 2.2888
-7.1282 -0.6807 2.2888
-6.7387 -2.3340 2.2888
-5.5363 -3.5627 2.1364
-4.4598 -4.6890 2.1364
-3.1518 -5.4887 2.1364
-1.8368 -6.3485 2.2888
-0.2658 -6.4238 2.2888
1.2404 -6.1289 2.2888
2.6022 -5.5061 2.2888
2.6108 -3.2016 1.5898
3.6829 -2.7615 1.8066
5.2945 -2.2350 2.2888
5.6270 -0.8798 2.2888
5.6562 0.5075 2.2888
5.3830 1.8683 2.2888
4.8164 3.1446 2.2888
3.9741 4.2786 2.2888
2.8835 5.2131 2.2888
1.3570 5.0461 1.9602
0.0894 4.2685 1.5595
-1.1238 5.0248 1.8292
-2.7456 5.5379 2.1364
-4.0840 4.8502 2.1364
-5.2294 3.8280 2.1364
-3.7542 1.5575 1.3176
-7.0499 1.1010 2.2888
-7.1359 -0.5957 2.2888
-6.7685 -2.2544 2.2888
-5.5823 -3.4988 2.1364
-4.5200 -4.6400 2.1364
-3.2212 -5.4571 2.1364
-1.9154 -6.3345 2.2888
-0.3435 -6.4291 2.2888
1.1679 -6.1518 2.2888
2.5386 -5.5442 2.2888
2.5733 -3.2350 1.5890
3.5895 -2.7604 1.7756
5.2700 -2.3009 2.2888
5.6176 -0.9488 2.2888
5.6620 0.4384 2.2888
5.4038 1.8019 2.2888
4.8515 3.0837 2.2888
4.0224 4.2262 2.2888
2.9434 5.1720 2.2888
1.6536 5.8652 2.2888
0.1409 4.2681 1.5620
-0.9024 4.2760 1.5547
-2.6754 5.5630 2.1364
-4.0209 4.8928 2.1364
-5.1782 3.8864 2.1364
-3.7384 1.6036 1.3196
-7.0338 1.1844 2.2888
-7.1424 -0.5108 2.2888
-6.7974 -2.1743 2.2888
-5.6276 -3.4341 2.1364
-4.5795 -4.5902 2.1364
-3.2902 -5.4247 2.1364
-1.9939 -6.3195 2.2888
-0.4215 -6.4334 2.2888
1.0951 -6.1739 2.2888
2.4744 -5.5816 2.2888
2.5415 -3.2760 1.5921
3.4990 -2.7593 1.7458
5.2447 -2.3665 2.2888
5.6074 -1.0177 2.2888
5.6670 0.3690 2.2888
5.4238 1.7350 2.2888
4.8859 3.0224 2.2888
4.0700 4.1733 2.2888
3.0027 5.1303 2.2888
1.7224 5.8373 2.2888
0.1925 4.2677 1.5648
-0.8488 4.2756 1.5529
-2.6049 5.5872 2.1364
-3.9572 4.9346 2.1364
-5.1263 3.9440 2.1364
-6.4461 2.8564 2.2888
-7.0164 1.2677 2.2888
-7.1478 -0.4256 2.2888
-6.8251 -2.0940 2.2888
-5.6719 -3.3693 2.1364
-4.6384 -4.5396 2.1364
-3.3588 -5.3913 2.1364
-2.0723 -6.3035 2.2888
-0.4994 -6.4369 2.2888
1.0219 -6.1952 2.2888
2.4097 -5.6184 2.2888
2.5165 -3.3263 1.5998
3.4115 -2.7582 1.7172
5.2188 -2.4319 2.2888
5.5964 -1.0866 2.2888
5.6712 0.2998 2.2888
5.4430 1.6682 2.2888
4.9196 2.9608 2.2888
4.1171 4.1199 2.2888
3.0615 5.0879 2.2888
1.7907 5.8088 2.2888
0.2442 4.2673 1.5677
-0.7953 4.2752 1.5514
-2.5344 5.6104 2.1364
-3.8932 4.9755 2.1364
-5.0737 4.0009 2.1364
-6.4069 2.9309 2.2888
-6.9981 1.3506 2.2888
-7.1521 -0.3405 2.2888
-6.8517 -2.0131 2.2888
-5.7155 -3.3036 2.1364
-4.6967 -4.4882 2.1364
-3.4271 -5.3571 2.1364
-2.1506 -6.2865 2.2888
-0.5777 -6.4394 2.2888
0.9484 -6.2156 2.2888
2.3446 -5.6544 2.2888
2.5014 -3.3913 1.6145
3.3265 -2.7572 1.6897
5.1921 -2.4970 2.2888
5.5847 -1.1552 2.2888
5.6747 0.2303 2.2888
5.4615 1.6010 2.2888
4.9525 2.8989 2.2888
4.1635 4.0660 2.2888
3.1198 5.0449 2.2888
1.8586 5.7794 2.2888
0.2958 4.2669 1.5709
-0.7422 4.2748 1.5500
-2.4635 5.6328 2.1364
-3.8286 5.0156 2.1364
-5.0205 4.0570 2.1364
-6.3667 3.0048 2.2888
-6.9785 1.4333 2.2888
-7.1552 -0.2552 2.2888
-6.8773 -1.9320 2.2888
-5.7581 -3.2374 2.1364
-4.7545 -4.4359 2.1364
-3.4950 -5.3219 2.1364
-2.2287 -6.2686 2.2888
-0.6559 -6.4409 2.2888
0.8746 -6.2352 2.2888
2.2789 -5.6897 2.2888
2.5161 -3.4992 1.6493
3.2442 -2.7563 1.6632
5.1646 -2.5619 2.2888
5.5722 -1.2239 2.2888
5.6774 0.1610 2.2888
5.4793 1.5338 2.2888
4.9848 2.8366 2.2888
4.2092 4.0116 2.2888
3.1774 5.0013 2.2888
1.9261 5.7494 2.2888
0.3476 4.2665 1.5743
-0.6892 4.2744 1.5489
-2.3925 5.6543 2.1364
-3.7637 5.0548 2.1364
-4.9665 4.1125 2.1364
-6.3256 3.0783 2.2888
-6.9580 1.5156 2.2888
-7.1572 -0.1700 2.2888
-6.9018 -1.8505 2.2888
-6.2137 -3.3966 2.2888
-4.8115 -4.3829 2.1364
-3.5625 -5.2859 2.1364
-2.3068 -6.2496 2.2888
-0.7344 -6.4415 2.2888
0.8005 -6.2540 2.2888
2.2128 -5.7243 2.2888
2.6337 -3.7583 1.7542
3.1641 -2.7553 1.6378
5.1364 -2.6264 2.2888
5.5589 -1.2924 2.2888
5.6794 0.0915 2.2888
5.4963 1.4663 2.2888
5.0163 2.7741 2.2888
4.2543 3.9568 2.2888
3.2346 4.9571 2.2888
1.9932 5.7185 2.2888
0.3995 4.2661 1.5780
-0.6365 4.2740 1.5481
-2.3212 5.6749 2.1364
-3.6983 5.0932 2.1364
-4.9119 4.1672 2.1364
-6.2836 3.1510 2.2888
-6.9363 1.5978 2.2888
-7.1580 -0.0847 2.2888
-6.9252 -1.7687 2.2888
-6.2575 -3.3244 2.2888
-4.8679 -4.3291 2.1364
-3.6297 -5.2489 2.1364
-2.3801 -6.2182 2.2846
-0.8128 -6.4412 2.2888
0.7260 -6.2719 2.2888
2.1462 -5.7582 2.2888
2.6330 -3.8559 1.7827
3.0865 -2.7544 1.6133
5.1075 -2.6908 2.2888
5.5449 -1.3608 2.2888
5.6806 0.0221 2.2888
5.5126 1.3987 2.2888
5.0472 2.7111 2.2888
4.2988 3.9015 2.2888
3.2912 4.9124 2.2888
2.0598 5.6870 2.2888
0.4515 4.2657 1.5819
-0.5839 4.2736 1.5474
-2.2499 5.6945 2.1364
-3.6325 5.1307 2.1364
-4.8566 4.2211 2.1364
-6.2406 3.2232 2.2888
-6.9135 1.6794 2.2888
-7.1577 0.0005 2.2888
-6.9475 -1.6864 2.2888
-6.3005 -3.2515 2.2888
-4.9236 -4.2746 2.1364
-3.6963 -5.2111 2.1364
-2.3856 -6.0153 2.2175
-0.8914 -6.4399 2.2888
0.6513 -6.2889 2.2888
2.0792 -5.7913 2.2888
2.6322 -3.9572 1.8125
3.0109 -2.7535 1.5896
5.0779 -2.7548 2.2888
5.5302 -1.4290 2.2888
5.6810 -0.0474 2.2888
5.5282 1.3309 2.2888
5.0773 2.6480 2.2888
4.3426 3.8458 2.2888
3.3473 4.8669 2.2888
2.1260 5.6547 2.2888
0.5036 4.2652 1.5860
-0.5315 4.2732 1.5470
-2.1784 5.7133 2.1364
-3.5663 5.1673 2.1364
-4.8007 4.2742 2.1364
-6.1968 3.2947 2.2888
-6.8896 1.7609 2.2888
-7.1563 0.0857 2.2888
-6.9687 -1.6040 2.2888
-6.3424 -3.1780 2.2888
-4.9787 -4.2192 2.1364
-3.7626 -5.1723 2.1364
-2.3907 -5.8237 2.1545
-0.9700 -6.4376 2.2888
0.5762 -6.3050 2.2888
2.0116 -5.8237 2.2888
2.6315 -4.0620 1.8436
2.9374 -2.7527 1.5669
5.0475 -2.8186 2.2888
5.5147 -1.4971 2.2888
5.6807 -0.1169 2.2888
5.5430 1.2630 2.2888
5.1068 2.5844 2.2888
4.3858 3.7896 2.2888
3.4027 4.8210 2.2888
2.1917 5.6217 2.2888
0.5560 4.2648 1.5903
-0.4792 4.2728 1.5468
-2.1068 5.7312 2.1364
-3.4998 5.2031 2.1364
-4.7442 4.3267 2.1364
-6.1519 3.3657 2.2888
-6.8647 1.8419 2.2888
-7.1537 0.1709 2.2888
-6.9888 -1.5211 2.2888
-6.3835 -3.1039 2.2888
-5.0331 -4.1631 2.1364
-3.8284 -5.1327 2.1364
-2.4429 -5.7535 2.1364
-1.0488 -6.4344 2.2888
0.5008 -6.3203 2.2888
1.9436 -5.8553 2.2888
2.6307 -4.1708 1.8761
2.8658 -2.7518 1.5449
5.0164 -2.8821 2.2888
5.4984 -1.5650 2.2888
5.6797 -0.1864 2.2888
5.5570 1.1949 2.2888
5.1355 2.5206 2.2888
4.4282 3.7330 2.2888
3.4576 4.7744 2.2888
2.2570 5.5880 2.2888
0.6044 4.2641 1.7058
-0.4311 4.2721 1.6570
-2.0374 5.7391 2.2888
-3.1995 4.8734 2.1364
-4.3600 4.0674 2.1364
-5.2944 2.9756 2.1364
-6.3461 1.7820 2.2888
-6.6315 0.2369 2.2888
-6.4999 -1.3329 2.2888
-5.5644 -2.6218 2.1364
-4.7259 -3.8107 2.1364
-3.6235 -4.7316 2.1364
-2.3771 -5.4047 2.1650
-1.0568 -5.9936 2.2888
0.2056 -3.1076 1.2026
0.9173 -2.8888 1.2012
2.6298 -4.2921 2.0437
2.7933 -2.7525 1.6259
4.6724 -2.7643 2.2888
5.1420 -1.5339 2.2888
5.3283 -0.2409 2.2888
5.2274 1.0578 2.2888
4.8437 2.3063 2.2888
4.1898 3.4492 2.2888
3.2875 4.4316 2.2888
2.1690 5.2001 2.2888
0.6571 4.2637 1.7108
-0.3791 4.2717 1.6571
-1.9658 5.7556 2.2888
-3.1371 4.9054 2.1364
-4.3067 4.1149 2.1364
-5.2543 3.0361 2.1364
-6.3212 1.8565 2.2888
-6.6270 0.3157 2.2888
-6.5164 -1.2557 2.2888
-5.5980 -2.5566 2.1364
-4.7748 -3.7571 2.1364
-3.6835 -4.6928 2.1364
-2.4123 -5.3112 2.1364
-1.1302 -5.9883 2.2888
0.1683 -3.1141 1.2027
0.8834 -2.9035 1.2013
2.8900 -4.8479 2.2888
2.7254 -2.7517 1.6042
4.6417 -2.8232 2.2888
5.1252 -1.5973 2.2888
5.3258 -0.3061 2.2888
5.2392 0.9936 2.2888
4.8694 2.2459 2.2888
4.2286 3.3954 2.2888
3.3381 4.3871 2.2888
2.2295 5.1675 2.2888
0.7099 4.2633 1.7161
-0.3273 4.2713 1.6575
-1.8940 5.7712 2.2888
-3.0744 4.9366 2.1364
-4.2527 4.1617 2.1364
-5.2135 3.0960 2.1364
-6.2954 1.9307 2.2888
-6.6215 0.3945 2.2888
-6.5319 -1.1782 2.2888
-5.6308 -2.4910 2.1364
-4.8230 -3.7028 2.1364
-3.7431 -4.6533 2.1364
-2.4787 -5.2883 2.1364
-1.2035 -5.9821 2.2888
0.1310 -3.1202 1.2027
0.8494 -2.9178 1.2013
2.8343 -4.8882 2.2888
2.6591 -2.7509 1.5832
4.6103 -2.8817 2.2888
5.1077 -1.6607 2.2888
5.3226 -0.3714 2.2888
5.2503 0.9293 2.2888
4.8945 2.1853 2.2888
4.2668 3.3412 2.2888
3.3881 4.3421 2.2888
2.2894 5.1343 2.2888
0.7629 4.2629 1.7217
-0.2755 4.2709 1.6581
-1.8222 5.7859 2.2888
-3.0113 4.9670 2.1364
-4.1983 4.2077 2.1364
-5.1719 3.1553 2.1364
-6.2686 2.0044 2.2888
-6.6150 0.4732 2.2888
-6.5463 -1.1006 2.2888
-5.6627 -2.4249 2.1364
-4.8705 -3.6478 2.1364
-3.8023 -4.6129 2.1364
-2.5448 -5.2646 2.1364
-1.2769 -5.9749 2.2888
0.1780 -5.9483 2.2888
0.8152 -2.9318 1.2014
2.7780 -4.9280 2.2888
2.6407 -2.7992 1.5908
4.5782 -2.9400 2.2888
5.0894 -1.7238 2.2888
5.3186 -0.4366 2.2888
5.2607 0.8648 2.2888
4.9188 2.1244 2.2888
4.3044 3.2866 2.2888
3.4376 4.2966 2.2888
2.3490 5.1005 2.2888
0.8162 4.2625 1.7276
-0.2238 4.2706 1.6590
-1.7502 5.7998 2.2888
-2.9480 4.9966 2.1364
-4.1433 4.2530 2.1364
-5.1296 3.2141 2.1364
-6.2408 2.0778 2.2888
-6.6074 0.5517 2.2888
-6.5597 -1.0227 2.2888
-5.6937 -2.3584 2.1364
-4.9173 -3.5922 2.1364
-3.8609 -4.5718 2.1364
-2.6107 -5.2399 2.1364
-1.3503 -5.9669 2.2888
0.1065 -5.9579 2.2888
0.7807 -2.9454 1.2015
2.7212 -4.9671 2.2888
2.6402 -2.8678 1.6099
4.5454 -2.9979 2.2888
5.0705 -1.7868 2.2888
5.3140 -0.5017 2.2888
5.2704 0.8000 2.2888
4.9425 2.0633 2.2888
4.3413 3.2317 2.2888
3.4865 4.2506 2.2888
2.4081 5.0660 2.2888
0.8697 4.2620 1.7337
-0.1722 4.2702 1.6601
-1.6782 5.8128 2.2888
-2.8844 5.0253 2.1364
-4.0877 4.2976 2.1364
-5.0866 3.2722 2.1364
-6.2121 2.1507 2.2888
-6.5988 0.6302 2.2888
-6.5720 -0.9447 2.2888
-5.7238 -2.2914 2.1364
-4.9634 -3.5360 2.1364
-3.9191 -4.5298 2.1364
-2.6764 -5.2145 2.1364
-1.4236 -5.9580 2.2888
0.0348 -5.9667 2.2888
0.7461 -2.9586 1.2015
2.6639 -5.0056 2.2888
2.6396 -2.9381 1.6296
4.0878 -2.7682 2.0737
5.0508 -1.8496 2.2888
5.3086 -0.5669 2.2888
5.2794 0.7357 2.2888
4.9656 2.0019 2.2888
4.3776 3.1764 2.2888
3.5348 4.2040 2.2888
2.4667 5.0309 2.2888
0.9234 4.2616 1.7401
-0.1206 4.2698 1.6614
-1.6061 5.8248 2.2888
-2.8204 5.0532 2.1364
-4.0317 4.3414 2.1364
-5.0428 3.3298 2.1364
-6.1824 2.2233 2.2888
-6.5891 0.7085 2.2888
-6.5833 -0.8665 2.2888
-6.1635 -2.3827 2.2888
-5.0089 -3.4791 2.1364
-3.9768 -4.4871 2.1364
-2.7418 -5.1881 2.1364
-1.4970 -5.9481 2.2888
-0.0371 -5.9746 2.2888
0.7113 -2.9714 1.2016
2.6061 -5.0434 2.2888
2.6391 -3.0104 1.6501
3.9804 -2.7669 2.0345
5.0305 -1.9122 2.2888
5.3025 -0.6319 2.2888
5.2877 0.6709 2.2888
4.9879 1.9403 2.2888
4.4132 3.1207 2.2888
3.5826 4.1570 2.2888
2.5249 4.9951 2.2888
0.9775 4.2612 1.7468
-0.0691 4.2694 1.6630
-1.5340 5.8360 2.2888
-2.7562 5.0803 2.1364
-3.9751 4.3845 2.1364
-4.9984 3.3867 2.1364
-6.1518 2.2953 2.2888
-6.5784 0.7865 2.2888
-6.5936 -0.7882 2.2888
-6.1939 -2.3101 2.2888
-5.0535 -3.4216 2.1364
-4.0340 -4.4436 2.1364
-2.8070 -5.1610 2.1364
-1.5702 -5.9373 2.2888
-0.1091 -5.9816 2.2888
0.6762 -2.9838 1.2017
2.5478 -5.0807 2.2888
2.6299 -3.0746 1.6659
3.8768 -2.7656 1.9971
5.0094 -1.9745 2.2888
5.2957 -0.6970 2.2888
5.2952 0.6061 2.2888
5.0095 1.8785 2.2888
4.4482 3.0646 2.2888
3.6298 4.1094 2.2888
2.5826 4.9587 2.2888
1.0318 4.2607 1.7537
-0.0176 4.2690 1.6648
-1.4618 5.8463 2.2888
-2.6918 5.1066 2.1364
-3.9181 4.4268 2.1364
-4.9532 3.4431 2.1364
-6.1203 2.3670 2.2888
-6.5666 0.8646 2.2888
-6.6028 -0.7097 2.2888
-6.2233 -2.2371 2.2888
-5.0975 -3.3635 2.1364
-4.0907 -4.3994 2.1364
-2.8718 -5.1329 2.1364
-1.6434 -5.9256 2.2888
-0.1813 -5.9878 2.2888
0.6410 -2.9958 1.2018
2.4890 -5.1173 2.2888
2.5841 -3.0964 1.6589
3.7768 -2.7643 1.9612
4.9877 -2.0367 2.2888
5.2882 -0.7619 2.2888
5.3021 0.5412 2.2888
5.0304 1.8165 2.2888
4.4826 3.0082 2.2888
3.6764 4.0614 2.2888
2.6398 4.9217 2.2888
1.0865 4.2603 1.7610
0.0339 4.2686 1.6669
-1.3895 5.8557 2.2888
-2.6271 5.1320 2.1364
-3.8606 4.4683 2.1364
-4.9074 3.4987 2.1364
-6.0878 2.4382 2.2888
-6.5538 0.9423 2.2888
-6.6110 -0.6311 2.2888
-6.2518 -2.1636 2.2888
-5.1407 -3.3048 2.1364
-4.1468 -4.3544 2.1364
-2.9363 -5.1041 2.1364
-1.7165 -5.9130 2.2888
-0.2537 -5.9931 2.2888
0.6056 -3.0074 1.2018
2.4298 -5.1532 2.2888
2.5430 -3.1236 1.6551
3.6802 -2.7632 1.9268
4.9652 -2.0987 2.2888
5.2800 -0.8268 2.2888
5.3082 0.4763 2.2888
5.0507 1.7543 2.2888
4.5163 2.9515 2.2888
3.7225 4.0129 2.2888
2.6965 4.8841 2.2888
1.4773 5.5131 2.2888
0.0854 4.2682 1.6692
-1.1250 5.0085 1.9548
-2.5621 5.1566 2.1364
-3.8026 4.5091 2.1364
-4.8608 3.5538 2.1364
-3.7547 1.5559 1.4194
-6.5400 1.0200 2.2888
-6.6181 -0.5524 2.2888
-6.2793 -2.0898 2.2888
-5.1832 -3.2454 2.1364
-4.2024 -4.3086 2.1364
-3.0006 -5.0744 2.1364
-1.7896 -5.8995 2.2888
-0.3262 -5.9976 2.2888
0.5701 -3.0186 1.2019
2.3700 -5.1885 2.2888
2.5062 -3.1559 1.6542
3.5868 -2.7620 1.8938
4.9421 -2.1605 2.2888
