ply
format ascii 1.0
element vertex 2176
property float32 x
property float32 y
property float32 z
end_header
7.0142 0.1148 2.2898
6.7907 1.8086 2.2898
6.2090 3.4250 2.2898
5.2834 4.8978 2.2898
4.0376 6.1594 2.2898
2.5082 7.1399 2.2898
0.3703 3.8453 1.1332
-0.5632 3.8525 1.1047
-2.9314 7.2187 2.1374
-4.7125 6.5209 2.1374
-6.7517 5.7496 2.2898
-8.1052 4.0781 2.2898
-8.9791 2.0754 2.2898
-9.2808 -0.1088 2.2898
-8.9741 -2.2969 2.2898
-8.0874 -4.3084 2.2898
-6.7090 -5.9870 2.2898
-4.6390 -6.7400 2.1374
-2.8189 -7.4206 2.1374
-1.0076 -8.1656 2.2898
0.9369 -7.8991 2.2898
2.7089 -7.2077 2.2898
2.7382 -3.9889 1.4820
4.5088 -4.0069 1.8946
6.3309 -3.3226 2.2898
6.8558 -1.6755 2.2898
7.0158 0.0293 2.2898
6.8105 1.7252 2.2898
6.2464 3.3470 2.2898
5.3375 4.8286 2.2898
4.1070 6.1023 2.2898
2.5906 7.0986 2.2898
0.4172 3.8449 1.1364
-0.5158 3.8521 1.1046
-2.8397 7.2413 2.1374
-4.6268 6.5669 2.1374
-6.6737 5.8224 2.2898
-8.0479 4.1706 2.2898
-8.9484 2.1812 2.2898
-9.2801 0.0020 2.2898
-9.0037 -2.1903 2.2898
-8.1443 -4.2146 2.2898
-6.7877 -5.9130 2.2898
-4.7260 -6.6933 2.1374
-2.9124 -7.3981 2.1374
-1.1076 -8.1666 2.2898
0.8430 -7.9230 2.2898
2.6257 -7.2513 2.2898
2.6672 -3.9882 1.4676
4.3987 -4.0058 1.8665
6.2951 -3.4022 2.2898
6.8382 -1.7598 2.2898
7.0165 -0.0563 2.2898
6.8294 1.6416 2.2898
6.2830 3.2687 2.2898
5.3909 4.7585 2.2898
4.1757 6.0447 2.2898
2.6725 7.0565 2.2898
0.4642 3.8446 1.1397
-0.4686 3.8517 1.1047
-2.7479 7.2628 2.1374
-4.5407 6.6116 2.1374
-6.5948 5.8941 2.2898
-7.9895 4.2623 2.2898
-8.9163 2.2866 2.2898
-9.2779 0.1128 2.2898
-9.0318 -2.0832 2.2898
-8.2001 -4.1200 2.2898
-6.8654 -5.8378 2.2898
-4.8125 -6.6455 2.1374
-3.0057 -7.3743 2.1374
-1.2077 -8.1665 2.2898
0.7487 -7.9459 2.2898
2.5419 -7.2940 2.2898
2.6378 -4.0495 1.4762
4.2916 -4.0046 1.8394
6.2585 -3.4815 2.2898
6.8196 -1.8439 2.2898
7.0163 -0.1419 2.2898
6.8473 1.5579 2.2898
6.3186 3.1900 2.2898
5.4434 4.6887 2.2898
4.2436 5.9863 2.2898
2.7538 7.0134 2.2898
0.5113 3.8442 1.1431
-0.4216 3.8514 1.1049
-2.6560 7.2831 2.1374
-4.4542 6.6553 2.1374
-6.5151 5.9647 2.2898
-7.9299 4.3530 2.2898
-8.8828 2.3914 2.2898
-9.2742 0.2236 2.2898
-9.0585 -1.9757 2.2898
-8.2545 -4.0245 2.2898
-6.9423 -5.7615 2.2898
-4.8985 -6.5965 2.1374
-3.0988 -7.3494 2.1374
-1.3080 -8.1651 2.2898
0.6540 -7.9677 2.2898
2.4574 -7.3358 2.2898
2.6370 -4.1576 1.5017
4.1873 -4.0036 1.8134
6.2210 -3.5605 2.2898
6.8002 -1.9279 2.2898
7.0152 -0.2275 2.2898
6.8644 1.4740 2.2898
6.3535 3.1110 2.2898
5.4951 4.6179 2.2898
4.3109 5.9272 2.2898
2.8345 6.9696 2.2898
0.5587 3.8439 1.1468
-0.3746 3.8510 1.1053
-2.5639 7.3023 2.1374
-4.3672 6.6977 2.1374
-6.4345 6.0342 2.2898
-7.8691 4.4429 2.2898
-8.8478 2.4958 2.2898
-9.2689 0.3342 2.2898
-9.0837 -1.8678 2.2898
-8.3076 -3.9283 2.2898
-7.0182 -5.6841 2.2898
-4.9840 -6.5463 2.1374
-3.1918 -7.3232 2.1374
-1.4084 -8.1625 2.2898
0.5588 -7.9885 2.2898
2.3724 -7.3766 2.2898
2.6362 -4.2699 1.5285
4.0857 -4.0025 1.7882
6.1826 -3.6391 2.2898
6.7798 -2.0117 2.2898
7.0131 -0.3131 2.2898
6.8806 1.3899 2.2898
6.3874 3.0317 2.2898
5.5459 4.5467 2.2898
4.3774 5.8675 2.2898
2.9145 6.9249 2.2898
0.6061 3.8435 1.1506
-0.3278 3.8507 1.1058
-2.4718 7.3202 2.1374
-4.2799 6.7390 2.1374
-6.3531 6.1025 2.2898
-7.8072 4.5319 2.2898
-8.8115 2.5996 2.2898
-9.2621 0.4448 2.2898
-9.1074 -1.7596 2.2898
-8.3595 -3.8313 2.2898
-7.0931 -5.6056 2.2898
-5.0688 -6.4950 2.1374
-3.2846 -7.2958 2.1374
-1.5089 -8.1586 2.2898
0.4633 -8.0081 2.2898
2.2868 -7.4166 2.2898
2.6354 -4.3865 1.5565
3.9867 -4.0015 1.7639
6.1434 -3.7174 2.2898
6.7586 -2.0953 2.2898
7.0101 -0.3987 2.2898
6.8958 1.3057 2.2898
6.4205 2.9521 2.2898
5.5960 4.4750 2.2898
4.4431 5.8072 2.2898
2.9940 6.8794 2.2898
0.6537 3.8431 1.1546
-0.2811 3.8503 1.1065
-2.3796 7.3371 2.1374
-4.1921 6.7792 2.1374
-6.2710 6.1696 2.2898
-7.7441 4.6200 2.2898
-8.7737 2.7028 2.2898
-9.2538 0.5552 2.2898
-9.1295 -1.6511 2.2898
-8.4100 -3.7336 2.2898
-7.1670 -5.5261 2.2898
-5.1531 -6.4425 2.1374
-3.3772 -7.2672 2.1374
-1.6096 -8.1535 2.2898
0.3674 -8.0266 2.2898
2.2005 -7.4556 2.2898
2.6281 -4.4968 1.5819
3.8901 -4.0005 1.7404
6.1032 -3.7953 2.2898
6.7364 -2.1787 2.2898
7.0063 -0.4842 2.2898
6.9102 1.2213 2.2898
6.4527 2.8721 2.2898
5.6453 4.4028 2.2898
4.5081 5.7462 2.2898
3.0728 6.8330 2.2898
0.7015 3.8427 1.1588
-0.2344 3.8500 1.1074
-2.2875 7.3528 2.1374
-4.1040 6.8182 2.1374
-6.1880 6.2356 2.2898
-7.6799 4.7072 2.2898
-8.7346 2.8054 2.2898
-9.2439 0.6655 2.2898
-9.1502 -1.5422 2.2898
-8.4593 -3.6350 2.2898
-7.2398 -5.4456 2.2898
-5.2368 -6.3888 2.1374
-3.4694 -7.2374 2.1374
-1.7104 -8.1472 2.2898
0.2712 -8.0440 2.2898
2.1138 -7.4937 2.2898
2.5802 -4.5402 1.5838
3.7957 -3.9995 1.7177
6.0622 -3.8727 2.2898
6.7133 -2.2620 2.2898
7.0015 -0.5697 2.2898
6.9236 1.1367 2.2898
6.4839 2.7920 2.2898
5.6936 4.3302 2.2898
4.5724 5.6845 2.2898
3.1510 6.7858 2.2898
0.7495 3.8424 1.1631
-0.1879 3.8496 1.1084
-2.1951 7.3674 2.1374
-4.0154 6.8560 2.1374
-6.1044 6.3004 2.2898
-7.6147 4.7934 2.2898
-8.6941 2.9075 2.2898
-9.2325 0.7757 2.2898
-9.1694 -1.4331 2.2898
-8.5072 -3.5359 2.2898
-7.3117 -5.3639 2.2898
-5.3200 -6.3339 2.1374
-3.5613 -7.2064 2.1374
-1.8111 -8.1396 2.2898
0.1746 -8.0603 2.2898
2.0263 -7.5308 2.2898
2.5443 -4.6059 1.5935
3.7037 -3.9986 1.6958
6.0203 -3.9500 2.2898
6.6893 -2.3451 2.2898
6.9958 -0.6552 2.2898
6.9362 1.0521 2.2898
6.5144 2.7114 2.2898
5.7412 4.2571 2.2898
4.6358 5.6223 2.2898
3.2285 6.7379 2.2898
0.7978 3.8420 1.1677
-0.1414 3.8492 1.1096
-2.1029 7.3807 2.1374
-3.9266 6.8926 2.1374
-6.0200 6.3642 2.2898
-7.5483 4.8787 2.2898
-8.6523 3.0089 2.2898
-9.2197 0.8855 2.2898
-9.1871 -1.3236 2.2898
-8.5538 -3.4359 2.2898
-7.3824 -5.2813 2.2898
-5.4024 -6.2780 2.1374
-3.6531 -7.1741 2.1374
-1.9120 -8.1308 2.2898
0.0777 -8.0755 2.2898
1.9385 -7.5670 2.2898
2.6316 -4.9033 1.6828
3.6136 -3.9976 1.6746
5.9775 -4.0266 2.2898
6.6644 -2.4279 2.2898
6.9891 -0.7407 2.2898
6.9478 0.9673 2.2898
6.5439 2.6306 2.2898
5.7880 4.1835 2.2898
4.6986 5.5593 2.2898
3.3055 6.6891 2.2898
0.8463 3.8416 1.1724
-0.0949 3.8489 1.1109
-2.0184 7.4218 2.1458
-3.8374 6.9281 2.1374
-5.9349 6.4266 2.2898
-7.4809 4.9629 2.2898
-8.6090 3.1097 2.2898
-9.2052 0.9953 2.2898
-9.2032 -1.2140 2.2898
-8.5989 -3.3354 2.2898
-7.4522 -5.1976 2.2898
-5.4842 -6.2208 2.1374
-3.7445 -7.1407 2.1374
-2.0128 -8.1207 2.2898
-0.0196 -8.0895 2.2898
1.8499 -7.6022 2.2898
2.6305 -5.0470 1.7185
3.5257 -3.9968 1.6541
5.9338 -4.1031 2.2898
6.6386 -2.5105 2.2898
6.9816 -0.8260 2.2898
6.9586 0.8825 2.2898
6.5726 2.5495 2.2898
5.8339 4.1095 2.2898
4.7605 5.4958 2.2898
3.3817 6.6396 2.2898
0.8951 3.8412 1.1774
-0.0485 3.8485 1.1124
-1.9970 7.7082 2.2252
-3.7480 6.9624 2.1374
-5.4598 6.0562 2.1374
-7.4124 5.0463 2.2898
-8.5645 3.2097 2.2898
-9.1893 1.1047 2.2898
-9.2179 -1.1041 2.2898
-8.6428 -3.2341 2.2898
-7.5208 -5.1130 2.2898
-5.5653 -6.1626 2.1374
-3.8357 -7.1060 2.1374
-2.1137 -8.1093 2.2898
-0.1172 -8.1024 2.2898
1.7610 -7.6364 2.2898
2.6294 -5.1975 1.7562
3.4396 -3.9959 1.6343
5.8893 -4.1790 2.2898
6.6119 -2.5928 2.2898
6.9731 -0.9114 2.2898
6.9684 0.7975 2.2898
6.6004 2.4682 2.2898
5.8789 4.0351 2.2898
4.8218 5.4317 2.2898
3.4573 6.5892 2.2898
0.9440 3.8409 1.1825
-0.0021 3.8482 1.1141
-1.9561 7.9428 2.2898
-3.6582 6.9956 2.1374
-5.3791 6.1123 2.1374
-7.3430 5.1285 2.2898
-8.5186 3.3092 2.2898
-9.1719 1.2139 2.2898
-9.2310 -0.9941 2.2898
-8.6852 -3.1324 2.2898
-7.5884 -5.0273 2.2898
-5.6458 -6.1032 2.1374
-3.9264 -7.0702 2.1374
-2.2146 -8.0967 2.2898
-0.2151 -8.1141 2.2898
1.6713 -7.6697 2.2898
2.6283 -5.3550 1.7959
3.3554 -3.9950 1.6151
5.8439 -4.2546 2.2898
6.5843 -2.6750 2.2898
6.9638 -0.9966 2.2898
6.9773 0.7125 2.2898
6.6273 2.3865 2.2898
5.9232 3.9602 2.2898
4.8822 5.3670 2.2898
3.5322 6.5381 2.2898
0.9934 3.8405 1.1878
0.0444 3.8478 1.1159
-0.9004 3.8550 1.1101
-3.5682 7.0275 2.1374
-5.2977 6.1673 2.1374
-7.2724 5.2098 2.2898
-8.4714 3.4079 2.2898
-9.1530 1.3228 2.2898
-9.2426 -0.8837 2.2898
-8.7263 -3.0298 2.2898
-7.6548 -4.9408 2.2898
-5.7255 -6.0428 2.1374
-4.0170 -7.0331 2.1374
-2.3155 -8.0828 2.2898
-0.3134 -8.1247 2.2898
1.5813 -7.7019 2.2898
2.6271 -5.5205 1.8378
3.2728 -3.9942 1.5966
5.7976 -4.3297 2.2898
6.5558 -2.7569 2.2898
6.9535 -1.0819 2.2898
6.9853 0.6272 2.2898
6.6534 2.3046 2.2898
5.9665 3.8850 2.2898
4.9419 5.3016 2.2898
3.6065 6.4862 2.2898
1.0430 3.8401 1.1933
0.0908 3.8475 1.1179
-0.8515 3.8547 1.1088
-3.4778 7.0584 2.1374
-5.2157 6.2213 2.1374
-7.2009 5.2901 2.2898
-3.7529 1.5621 1.0203
-9.1326 1.4314 2.2898
-9.2527 -0.7733 2.2898
-8.7660 -2.9268 2.2898
-7.7201 -4.8531 2.2898
-5.8046 -5.9811 2.1374
-3.9795 -6.7775 2.0710
-2.4163 -8.0676 2.2898
-0.4118 -8.1341 2.2898
1.4907 -7.7332 2.2898
2.6258 -5.6945 1.8821
3.1921 -3.9934 1.5786
5.7505 -4.4044 2.2898
6.5263 -2.8386 2.2898
6.9423 -1.1671 2.2898
6.9924 0.5421 2.2898
6.6785 2.2226 2.2898
6.0091 3.8093 2.2898
5.0008 5.2357 2.2898
3.6800 6.4336 2.2898
2.0872 7.3329 2.2898
0.1372 3.8471 1.1200
-0.8028 3.8543 1.1077
-3.3873 7.0880 2.1374
-5.1333 6.2740 2.1374
-7.1284 5.3693 2.2898
-3.7418 1.6103 1.0233
-9.1107 1.5396 2.2898
-9.2612 -0.6628 2.2898
-8.8042 -2.8231 2.2898
-7.7843 -4.7646 2.2898
-6.3022 -6.3404 2.2898
-4.1967 -6.9554 2.1374
-2.4362 -7.7923 2.2162
-0.5105 -8.1423 2.2898
1.3996 -7.7634 2.2898
2.6245 -5.8774 1.9290
3.1128 -3.9926 1.5612
5.7024 -4.4786 2.2898
6.4960 -2.9199 2.2898
6.9301 -1.2520 2.2898
6.9986 0.4567 2.2898
6.7027 2.1402 2.2898
6.0508 3.7332 2.2898
5.0589 5.1693 2.2898
3.7530 6.3802 2.2898
2.1726 7.2961 2.2898
0.1837 3.8467 1.1224
-0.7545 3.8539 1.1068
-3.2965 7.1165 2.1374
-5.0501 6.3257 2.1374
-7.0550 5.4475 2.2898
-8.3220 3.6998 2.2898
-9.0873 1.6476 2.2898
-9.2682 -0.5521 2.2898
-8.8410 -2.7190 2.2898
-7.8473 -4.6752 2.2898
-6.3853 -6.2721 2.2898
-4.2861 -6.9147 2.1374
-2.4436 -7.4988 2.1374
-0.6094 -8.1493 2.2898
1.3080 -7.7926 2.2898
2.6231 -6.0706 1.9788
3.0351 -3.9918 1.5443
5.6536 -4.5524 2.2898
6.4648 -3.0010 2.2898
6.9171 -1.3370 2.2898
7.0038 0.3714 2.2898
6.7260 2.0577 2.2898
6.0916 3.6567 2.2898
5.1162 5.1022 2.2898
3.8251 6.3261 2.2898
2.2572 7.2584 2.2898
0.2303 3.8464 1.1248
-0.7064 3.8536 1.1060
-3.2056 7.1437 2.1374
-4.9666 6.3762 2.1374
-6.9805 5.5247 2.2898
-8.2697 3.7956 2.2898
-9.0625 1.7551 2.2898
-9.2736 -0.4414 2.2898
-8.8765 -2.6142 2.2898
-7.9091 -4.5848 2.2898
-6.4675 -6.2026 2.2898
-4.3749 -6.8728 2.1374
-2.5376 -7.4811 2.1374
-0.7087 -8.1552 2.2898
1.2160 -7.8208 2.2898
2.6216 -6.2743 2.0316
2.9588 -3.9911 1.5280
5.6038 -4.6257 2.2898
6.4327 -3.0818 2.2898
6.9031 -1.4217 2.2898
7.0082 0.2859 2.2898
6.7485 1.9748 2.2898
6.1316 3.5799 2.2898
5.1727 5.0347 2.2898
3.8967 6.2712 2.2898
2.3415 7.2198 2.2898
0.2768 3.8460 1.1275
-0.6585 3.8532 1.1054
-3.1143 7.1699 2.1374
-4.8824 6.4256 2.1374
-6.9052 5.6007 2.2898
-8.2161 3.8905 2.2898
-9.0361 1.8623 2.2898
-9.2776 -0.3305 2.2898
-8.9104 -2.5090 2.2898
-7.9697 -4.4936 2.2898
-6.5489 -6.1319 2.2898
-4.4634 -6.8297 2.1374
-2.6314 -7.4621 2.1374
-0.8080 -8.1599 2.2898
1.1234 -7.8479 2.2898
2.8734 -7.1179 2.2898
2.8840 -3.9903 1.5122
5.5533 -4.6986 2.2898
6.3996 -3.1624 2.2898
6.8883 -1.5065 2.2898
7.0117 0.2005 2.2898
6.7701 1.8919 2.2898
6.1707 3.5026 2.2898
5.2285 4.9665 2.2898
3.9674 6.2157 2.2898
2.4250 7.1803 2.2898
0.3235 3.8457 1.1303
-0.6107 3.8528 1.1050
-3.0230 7.1948 2.1374
-4.7978 6.4738 2.1374
-6.8289 5.6757 2.2898
-8.1613 3.9847 2.2898
-9.0084 1.9690 2.2898
-9.2800 -0.2198 2.2898
-8.9430 -2.4032 2.2898
-8.0292 -4.4015 2.2898
-6.6293 -6.0601 2.2898
-4.5514 -6.7855 2.1374
-2.7252 -7.4420 2.1374
-0.9077 -8.1633 2.2898
1.0305 -7.8740 2.2898
2.7916 -7.1632 2.2898
2.8105 -3.9896 1.4968
4.6221 -4.0081 1.9237
6.3657 -3.2426 2.2898
6.8725 -1.5910 2.2898
7.0142 0.1149 2.2898
6.7907 1.8087 2.2898
6.2090 3.4251 2.2898
5.2834 4.8979 2.2898
4.0376 6.1593 2.2898
2.5081 7.1399 2.2898
0.3703 3.8453 1.1332
-0.5632 3.8525 1.1047
-2.9314 7.2187 2.1374
-4.7125 6.5209 2.1374
-6.7518 5.7495 2.2898
-8.1053 4.0780 2.2898
-8.9791 2.0753 2.2898
-9.2808 -0.1089 2.2898
-8.9740 -2.2971 2.2898
-8.0873 -4.3086 2.2898
-6.7089 -5.9871 2.2898
-4.6389 -6.7400 2.1374
-2.8187 -7.4207 2.1374
-1.0075 -8.1656 2.2898
0.9370 -7.8990 2.2898
2.7089 -7.2077 2.2898
2.7383 -3.9889 1.4820
4.5089 -4.0069 1.8946
6.3309 -3.3226 2.2898
6.8558 -1.6755 2.2898
7.0158 0.0294 2.2898
6.8105 1.7253 2.2898
6.2464 3.3471 2.2898
5.3375 4.8286 2.2898
4.1069 6.1024 2.2898
2.5905 7.0986 2.2898
0.4172 3.8449 1.1363
-0.5159 3.8521 1.1046
-2.8398 7.2413 2.1374
-4.6270 6.5668 2.1374
-6.6737 5.8224 2.2898
-8.0480 4.1705 2.2898
-8.9485 2.1811 2.2898
-9.2801 0.0019 2.2898
-9.0037 -2.1904 2.2898
-8.1443 -4.2147 2.2898
-6.7876 -5.9131 2.2898
-4.7259 -6.6934 2.1374
-2.9123 -7.3981 2.1374
-1.1075 -8.1666 2.2898
0.8432 -7.9230 2.2898
2.6258 -7.2512 2.2898
2.6673 -3.9882 1.4676
4.3988 -4.0058 1.8665
6.2952 -3.4021 2.2898
6.8382 -1.7597 2.2898
7.0165 -0.0562 2.2898
6.8294 1.6417 2.2898
6.2829 3.2688 2.2898
5.3908 4.7582 2.2898
4.1756 6.0447 2.2898
2.6725 7.0565 2.2898
0.4641 3.8446 1.1396
-0.4687 3.8517 1.1047
-2.7480 7.2628 2.1374
-4.5408 6.6116 2.1374
-6.5949 5.8940 2.2898
-7.9896 4.2621 2.2898
-8.9163 2.2865 2.2898
-9.2779 0.1127 2.2898
-9.0318 -2.0834 2.2898
-8.2000 -4.1201 2.2898
-6.8654 -5.8378 2.2898
-4.8125 -6.6455 2.1374
-3.0055 -7.3744 2.1374
-1.2076 -8.1665 2.2898
0.7488 -7.9459 2.2898
2.5419 -7.2940 2.2898
2.6378 -4.0494 1.4762
4.2917 -4.0046 1.8395
6.2586 -3.4815 2.2898
6.8196 -1.8439 2.2898
7.0163 -0.1417 2.2898
6.8473 1.5580 2.2898
6.3186 3.1901 2.2898
5.4433 4.6887 2.2898
4.2435 5.9864 2.2898
2.7537 7.0135 2.2898
0.5113 3.8442 1.1431
-0.4216 3.8514 1.1049
-2.6561 7.2831 2.1374
-4.4543 6.6552 2.1374
-6.5151 5.9646 2.2898
-7.9299 4.3530 2.2898
-8.8828 2.3913 2.2898
-9.2742 0.2234 2.2898
-9.0585 -1.9758 2.2898
-8.2544 -4.0246 2.2898
-6.9423 -5.7615 2.2898
-4.8984 -6.5966 2.1374
-3.0988 -7.3494 2.1374
-1.3079 -8.1651 2.2898
0.6540 -7.9677 2.2898
2.4576 -7.3357 2.2898
2.6370 -4.1575 1.5017
4.1874 -4.0036 1.8134
6.2211 -3.5605 2.2898
6.8002 -1.9278 2.2898
7.0152 -0.2274 2.2898
6.8644 1.4740 2.2898
6.3535 3.1111 2.2898
5.4950 4.6180 2.2898
4.3108 5.9273 2.2898
2.8344 6.9696 2.2898
0.5552 3.8438 1.2423
-0.3781 3.8509 1.2002
-2.3618 6.7080 2.1374
-4.0086 6.1372 2.1374
-5.4979 5.1491 2.1374
-7.1876 4.0535 2.2898
-8.0693 2.2736 2.2898
-8.4468 0.3038 2.2898
-8.2782 -1.7012 2.2898
-7.5774 -3.5800 2.2898
-6.4116 -5.1873 2.2898
-4.5637 -5.9859 2.1374
-2.9318 -6.7118 2.1374
-1.3009 -7.4998 2.2898
0.5080 -7.3584 2.2898
2.1837 -6.8109 2.2898
2.6362 -4.2776 1.6549
4.0817 -4.0042 1.9300
5.7319 -3.3779 2.2898
6.2921 -1.8693 2.2898
6.5119 -0.2915 2.2898
6.3888 1.2912 2.2898
5.9276 2.8158 2.2898
5.1412 4.2193 2.2898
4.0510 5.4377 2.2898
2.6903 6.4065 2.2898
0.6027 3.8434 1.2463
-0.3313 3.8506 1.2006
-2.2774 6.7253 2.1374
-3.9290 6.1758 2.1374
-5.4291 5.2073 2.1374
-7.1317 4.1351 2.2898
-8.0366 2.3683 2.2898
-8.4407 0.4045 2.2898
-8.2996 -1.6026 2.2898
-7.6242 -3.4914 2.2898
-6.4794 -5.1153 2.2898
-4.6408 -5.9383 2.1374
-3.0164 -6.6859 2.1374
-1.3931 -7.4953 2.2898
0.4200 -7.3756 2.2898
2.1044 -6.8470 2.2898
2.6059 -4.3456 1.6667
3.9827 -4.0032 1.9039
5.6951 -3.4504 2.2898
6.2721 -1.9469 2.2898
6.5090 -0.3710 2.2898
6.4030 1.2129 2.2898
5.9586 2.7419 2.2898
5.1879 4.1529 2.2898
4.1123 5.3822 2.2898
2.7641 6.3650 2.2898
0.6503 3.8430 1.2505
-0.2845 3.8502 1.2012
-2.1930 6.7417 2.1374
-3.8490 6.2134 2.1374
-5.3595 5.2659 2.1374
-7.0748 4.2158 2.2898
-8.0027 2.4625 2.2898
-8.4333 0.5050 2.2898
-8.3197 -1.5038 2.2898
-7.6699 -3.4021 2.2898
-6.5462 -5.0423 2.2898
-4.7174 -5.8896 2.1374
-3.1008 -6.6589 2.1374
-1.4854 -7.4897 2.2898
0.3316 -7.3917 2.2898
2.0246 -6.8823 2.2898
2.5513 -4.3738 1.6633
3.8861 -4.0022 1.8787
5.6575 -3.5224 2.2898
6.2513 -2.0243 2.2898
6.5054 -0.4505 2.2898
6.4164 1.1345 2.2898
5.9887 2.6677 2.2898
5.2339 4.0862 2.2898
4.1728 5.3261 2.2898
2.8373 6.3227 2.2898
0.6981 3.8427 1.2549
-0.2379 3.8499 1.2020
-2.1085 6.7570 2.1374
-3.7686 6.2499 2.1374
-5.2893 5.3228 2.1374
-7.0168 4.2958 2.2898
-7.9675 2.5562 2.2898
-8.4246 0.6055 2.2898
-8.3384 -1.4046 2.2898
-7.7144 -3.3122 2.2898
-6.6122 -4.9683 2.2898
-4.7934 -5.8400 2.1374
-3.1850 -6.6308 2.1374
-1.5777 -7.4829 2.2898
0.2429 -7.4068 2.2898
1.9442 -6.9166 2.2898
2.5023 -4.4117 1.6638
3.7918 -4.0012 1.8544
5.6191 -3.5942 2.2898
6.2296 -2.1016 2.2898
6.5008 -0.5300 2.2898
6.4290 1.0560 2.2898
6.0180 2.5933 2.2898
5.2792 4.0190 2.2898
4.2327 5.2693 2.2898
2.9100 6.2796 2.2898
0.7461 3.8423 1.2594
-0.1913 3.8495 1.2030
-2.0351 6.8085 2.1492
-3.6880 6.2853 2.1374
-5.2185 5.3788 2.1374
-6.9579 4.3749 2.2898
-7.9311 2.6493 2.2898
-8.4144 0.7058 2.2898
-8.3558 -1.3052 2.2898
-7.7576 -3.2217 2.2898
-6.6772 -4.8935 2.2898
-4.8689 -5.7892 2.1374
-3.2689 -6.6016 2.1374
-1.6701 -7.4750 2.2898
0.1539 -7.4209 2.2898
1.8634 -6.9501 2.2898
2.4591 -4.4605 1.6685
3.6998 -4.0002 1.8309
5.5798 -3.6655 2.2898
6.2070 -2.1786 2.2898
6.4954 -0.6095 2.2898
6.4407 0.9773 2.2898
6.0464 2.5185 2.2898
5.3236 3.9513 2.2898
4.2919 5.2120 2.2898
2.9820 6.2358 2.2898
0.7944 3.8419 1.2642
-0.1448 3.8492 1.2041
-2.0161 7.0528 2.2220
-3.6070 6.3197 2.1374
-5.1470 5.4337 2.1374
-6.8979 4.4531 2.2898
-7.8934 2.7419 2.2898
-8.4029 0.8059 2.2898
-8.3718 -1.2056 2.2898
-7.7997 -3.1305 2.2898
-6.7412 -4.8177 2.2898
-4.9437 -5.7375 2.1374
-3.3526 -6.5713 2.1374
-1.7625 -7.4659 2.2898
0.0647 -7.4339 2.2898
1.7820 -6.9827 2.2898
2.4230 -4.5238 1.6788
3.6098 -3.9993 1.8081
5.5398 -3.7365 2.2898
6.1836 -2.2555 2.2898
6.4891 -0.6889 2.2898
6.4515 0.8985 2.2898
6.0741 2.4435 2.2898
5.3673 3.8830 2.2898
4.3504 5.1540 2.2898
3.0535 6.1913 2.2898
0.8428 3.8415 1.2692
-0.0983 3.8488 1.2054
-1.9869 7.2811 2.2898
-3.5256 6.3530 2.1374
-5.0749 5.4878 2.1374
-6.8370 4.5305 2.2898
-7.8545 2.8340 2.2898
-8.3900 0.9058 2.2898
-8.3864 -1.1057 2.2898
-7.8405 -3.0388 2.2898
-6.8043 -4.7410 2.2898
-5.0180 -5.6847 2.1374
-3.4359 -6.5398 2.1374
-1.8549 -7.4557 2.2898
-0.0249 -7.4459 2.2898
1.7002 -7.0144 2.2898
2.3991 -4.6126 1.6985
3.5218 -3.9984 1.7861
5.4989 -3.8071 2.2898
6.1594 -2.3321 2.2898
6.4820 -0.7682 2.2898
6.4615 0.8196 2.2898
6.1009 2.3683 2.2898
5.4102 3.8147 2.2898
4.4082 5.0955 2.2898
3.1244 6.1459 2.2898
0.8916 3.8412 1.2744
-0.0519 3.8484 1.2069
-1.8962 7.2930 2.2898
-3.4440 6.3853 2.1374
-5.0022 5.5407 2.1374
-6.7751 4.6069 2.2898
-7.8144 2.9254 2.2898
-8.3758 1.0055 2.2898
-8.3997 -1.0057 2.2898
-7.8801 -2.9464 2.2898
-6.8664 -4.6634 2.2898
-5.0916 -5.6309 2.1374
-3.5190 -6.5073 2.1374
-1.9473 -7.4444 2.2898
-0.1147 -7.4568 2.2898
1.6178 -7.0451 2.2898
2.6294 -5.2083 1.9033
3.4358 -3.9975 1.7649
5.4572 -3.8773 2.2898
6.1343 -2.4085 2.2898
6.4740 -0.8475 2.2898
6.4707 0.7407 2.2898
6.1269 2.2927 2.2898
5.4523 3.7460 2.2898
4.4653 5.0364 2.2898
3.1947 6.0999 2.2898
0.9406 3.8408 1.2798
-0.0055 3.8481 1.2086
-1.8055 7.3037 2.2898
-3.3620 6.4165 2.1374
-4.9289 5.5928 2.1374
-6.7123 4.6825 2.2898
-7.7731 3.0162 2.2898
-8.3602 1.1050 2.2898
-8.4116 -0.9054 2.2898
-7.9184 -2.8535 2.2898
-6.9275 -4.5850 2.2898
-5.1645 -5.5761 2.1374
-3.6017 -6.4737 2.1374
-2.0396 -7.4318 2.2898
-0.2048 -7.4667 2.2898
1.5350 -7.0750 2.2898
2.6282 -5.3666 1.9467
3.3515 -3.9966 1.7443
5.4147 -3.9472 2.2898
6.1084 -2.4847 2.2898
6.4651 -0.9267 2.2898
6.4790 0.6616 2.2898
6.1520 2.2170 2.2898
5.4936 3.6765 2.2898
4.5217 4.9767 2.2898
3.2643 6.0531 2.2898
0.9899 3.8404 1.2854
0.0409 3.8477 1.2104
-0.9039 3.8549 1.2070
-3.2799 6.4466 2.1374
-4.8550 5.6437 2.1374
-6.6486 4.7572 2.2898
-7.7306 3.1065 2.2898
-8.3432 1.2042 2.2898
-8.4221 -0.8051 2.2898
-7.9555 -2.7601 2.2898
-6.9875 -4.5057 2.2898
-5.2369 -5.5202 2.1374
-3.6841 -6.4390 2.1374
-2.1319 -7.4182 2.2898
-0.2951 -7.4754 2.2898
1.4518 -7.1039 2.2898
2.6270 -5.5326 1.9924
3.2691 -3.9958 1.7244
5.3715 -4.0166 2.2898
6.0817 -2.5606 2.2898
6.4554 -1.0059 2.2898
6.4865 0.5824 2.2898
6.1763 2.1410 2.2898
5.5342 3.6068 2.2898
4.5773 4.9165 2.2898
3.3334 6.0056 2.2898
1.0395 3.8400 1.2913
0.0874 3.8474 1.2124
-0.8550 3.8546 1.2055
-3.1974 6.4757 2.1374
-4.7805 5.6937 2.1374
-6.5839 4.8310 2.2898
-3.7534 1.5606 1.1181
-8.3249 1.3031 2.2898
-8.4312 -0.7045 2.2898
-7.9913 -2.6661 2.2898
-7.0466 -4.4255 2.2898
-5.3085 -5.4634 2.1374
-3.7661 -6.4032 2.1374
-2.2242 -7.4033 2.2898
-0.3856 -7.4831 2.2898
1.3680 -7.1318 2.2898
2.6257 -5.7072 2.0408
3.1882 -3.9949 1.7052
5.3274 -4.0856 2.2898
6.0541 -2.6363 2.2898
6.4449 -1.0849 2.2898
6.4930 0.5032 2.2898
6.1998 2.0647 2.2898
5.5739 3.5367 2.2898
4.6323 4.8557 2.2898
3.4018 5.9574 2.2898
1.0894 3.8396 1.2973
0.1338 3.8470 1.2146
-0.8064 3.8542 1.2041
-3.1147 6.5037 2.1374
-4.7055 5.7427 2.1374
-6.5183 4.9038 2.2898
-3.7407 1.6079 1.1208
-8.3053 1.4018 2.2898
-8.4390 -0.6039 2.2898
-8.0258 -2.5716 2.2898
-7.1045 -4.3445 2.2898
-5.3795 -5.4056 2.1374
-3.8478 -6.3663 2.1374
-2.3164 -7.3873 2.2898
-0.4764 -7.4898 2.2898
1.2839 -7.1589 2.2898
2.8725 -6.4480 2.2898
3.1090 -3.9941 1.6865
5.2824 -4.1542 2.2898
6.0256 -2.7117 2.2898
6.4334 -1.1639 2.2898
6.4988 0.4239 2.2898
6.2225 1.9882 2.2898
5.6129 3.4662 2.2898
4.6865 4.7943 2.2898
3.4696 5.9085 2.2898
2.0020 6.7438 2.2898
0.1803 3.8467 1.2169
-0.7580 3.8538 1.2030
-3.0318 6.5307 2.1374
-4.6300 5.7907 2.1374
-6.4518 4.9757 2.2898
-7.5960 3.3733 2.2898
-8.2843 1.5002 2.2898
-8.4454 -0.5031 2.2898
-8.0591 -2.4766 2.2898
-7.1615 -4.2626 2.2898
-5.4497 -5.3468 2.1374
-3.9291 -6.3284 2.1374
-2.4086 -7.3701 2.2898
-0.5674 -7.4953 2.2898
1.1993 -7.1849 2.2898
2.7983 -6.4916 2.2898
3.0313 -3.9933 1.6684
5.2367 -4.2223 2.2898
5.9963 -2.7869 2.2898
6.4212 -1.2428 2.2898
6.5037 0.3446 2.2898
6.2443 1.9115 2.2898
5.6511 3.3953 2.2898
4.7400 4.7325 2.2898
3.5368 5.8589 2.2898
2.0805 6.7097 2.2898
0.2268 3.8463 1.2195
-0.7099 3.8535 1.2020
-2.9486 6.5565 2.1374
-4.5540 5.8376 2.1374
-6.3845 5.0467 2.2898
-7.5489 3.4608 2.2898
-8.2620 1.5982 2.2898
-8.4504 -0.4023 2.2898
-8.0911 -2.3812 2.2898
-7.2174 -4.1800 2.2898
-5.5193 -5.2871 2.1374
-4.0100 -6.2893 2.1374
-2.4173 -7.1069 2.2136
-0.6585 -7.4998 2.2898
1.1142 -7.2101 2.2898
2.7235 -6.5344 2.2898
2.9551 -3.9926 1.6509
5.1903 -4.2900 2.2898
5.9662 -2.8618 2.2898
6.4080 -1.3216 2.2898
6.5077 0.2652 2.2898
6.2653 1.8347 2.2898
5.6885 3.3241 2.2898
4.7927 4.6701 2.2898
3.6034 5.8086 2.2898
2.1586 6.6747 2.2898
0.2734 3.8459 1.2222
-0.6620 3.8531 1.2012
-2.8653 6.5814 2.1374
-4.4775 5.8835 2.1374
-6.3163 5.1167 2.2898
-7.5006 3.5477 2.2898
-8.2384 1.6958 2.2898
-8.4540 -0.3015 2.2898
-8.1217 -2.2853 2.2898
-7.2722 -4.0966 2.2898
-5.5881 -5.2264 2.1374
-4.0905 -6.2492 2.1374
-2.4224 -6.8511 2.1396
-0.7499 -7.5031 2.2898
1.0288 -7.2342 2.2898
2.6481 -6.5764 2.2898
2.8803 -3.9918 1.6340
5.1430 -4.3572 2.2898
5.9352 -2.9364 2.2898
6.3940 -1.4002 2.2898
6.5109 0.1857 2.2898
6.2855 1.7576 2.2898
5.7250 3.2525 2.2898
4.8447 4.6072 2.2898
3.6693 5.7576 2.2898
2.2361 6.6388 2.2898
0.3201 3.8456 1.2251
-0.6142 3.8527 1.2006
-2.7818 6.6051 2.1374
-4.4004 5.9284 2.1374
-6.2473 5.1858 2.2898
-7.4512 3.6339 2.2898
-8.2135 1.7931 2.2898
-8.4563 -0.2006 2.2898
-8.1511 -2.1889 2.2898
-7.3259 -4.0123 2.2898
-5.6562 -5.1646 2.1374
-4.1705 -6.2080 2.1374
-2.5056 -6.8249 2.1374
-0.8414 -7.5053 2.2898
0.9430 -7.2574 2.2898
2.5722 -6.6175 2.2898
2.8068 -3.9911 1.6176
4.6180 -4.0099 2.0755
5.9034 -3.0108 2.2898
6.3792 -1.4787 2.2898
6.5132 0.1063 2.2898
6.3048 1.6803 2.2898
5.7608 3.1806 2.2898
4.8960 4.5438 2.2898
3.7345 5.7059 2.2898
2.3131 6.6021 2.2898
0.3669 3.8452 1.2281
-0.5667 3.8524 1.2002
-2.6981 6.6278 2.1374
-4.3230 5.9722 2.1374
-6.1774 5.2538 2.2898
-7.4006 3.7193 2.2898
-8.1873 1.8901 2.2898
-8.4571 -0.0997 2.2898
-8.1792 -2.0922 2.2898
-7.3784 -3.9273 2.2898
-5.7235 -5.1020 2.1374
-4.2501 -6.1657 2.1374
-2.5912 -6.8045 2.1374
-0.9330 -7.5065 2.2898
0.8567 -7.2796 2.2898
2.4956 -6.6579 2.2898
2.7346 -3.9903 1.6017
4.5048 -4.0087 2.0443
5.8708 -3.0848 2.2898
6.3635 -1.5571 2.2898
6.5146 0.0268 2.2898
6.3233 1.6028 2.2898
5.7958 3.1083 2.2898
4.9465 4.4799 2.2898
3.7991 5.6536 2.2898
2.3896 6.5646 2.2898
0.4137 3.8449 1.2314
-0.5194 3.8520 1.1999
-2.6142 6.6494 2.1374
-4.2450 6.0150 2.1374
-6.1067 5.3209 2.2898
-7.3490 3.8040 2.2898
-8.1597 1.9866 2.2898
-8.4566 0.0012 2.2898
-8.2059 -1.9950 2.2898
-7.4299 -3.8416 2.2898
-5.7900 -5.0384 2.1374
-4.3292 -6.1224 2.1374
-2.6766 -6.7830 2.1374
-1.0248 -7.5065 2.2898
0.7701 -7.3008 2.2898
2.4185 -6.6974 2.2898
2.6636 -3.9896 1.5862
4.3948 -4.0076 2.0141
5.8373 -3.1585 2.2898
6.3469 -1.6354 2.2898
6.5152 -0.0528 2.2898
6.3409 1.5252 2.2898
5.8300 3.0356 2.2898
4.9963 4.4155 2.2898
3.8631 5.6006 2.2898
2.4656 6.5263 2.2898
0.4607 3.8445 1.2348
-0.4721 3.8517 1.1998
-2.5302 6.6700 2.1374
-4.1667 6.0568 2.1374
-6.0353 5.3870 2.2898
-7.2963 3.8879 2.2898
-8.1309 2.0826 2.2898
-8.4547 0.1021 2.2898
-8.2314 -1.8975 2.2898
-7.4802 -3.7551 2.2898
-6.2733 -5.3286 2.2898
-4.4079 -6.0779 2.1374
-2.7618 -6.7604 2.1374
-1.1167 -7.5054 2.2898
0.6832 -7.3210 2.2898
2.3408 -6.7361 2.2898
2.6378 -4.0566 1.5979
4.2877 -4.0064 1.9851
5.8030 -3.2320 2.2898
6.3295 -1.7135 2.2898
6.5150 -0.1323 2.2898
6.3577 1.4474 2.2898
5.8633 2.9627 2.2898
5.0453 4.3506 2.2898
3.9264 5.5470 2.2898
2.5410 6.4872 2.2898
0.5079 3.8441 1.2385
-0.4251 3.8513 1.1999
-2.4461 6.6895 2.1374
-4.0879 6.0975 2.1374
-5.9630 5.4521 2.2898
-7.2425 3.9711 2.2898
-8.1008 2.1783 2.2898
-8.4514 0.2029 2.2898
-8.2554 -1.7996 2.2898
-7.5294 -3.6680 2.2898
-6.3428 -5.2585 2.2898
-4.4860 -6.0325 2.1374
-2.8468 -6.7367 2.1374
-1.2087 -7.5031 2.2898
0.5958 -7.3402 2.2898
2.2626 -6.7739 2.2898
2.6370 -4.1649 1.6258
4.1834 -4.0053 1.9571
5.7679 -3.3051 2.2898
6.3112 -1.7914 2.2898
6.5139 -0.2119 2.2898
6.3736 1.3694 2.2898
5.8959 2.8894 2.2898
5.0936 4.2852 2.2898
3.9890 5.4927 2.2898
2.6159 6.4473 2.2898
0.5552 3.8438 1.2423
-0.3781 3.8509 1.2002
-2.3618 6.7079 2.1374
-4.0087 6.1372 2.1374
-5.4980 5.1491 2.1374
-7.1877 4.0534 2.2898
-8.0693 2.2735 2.2898
-8.4468 0.3037 2.2898
-8.2782 -1.7013 2.2898
-7.5774 -3.5801 2.2898
-6.4115 -5.1874 2.2898
-4.5636 -5.9859 2.1374
-2.9317 -6.7118 2.1374
-1.3008 -7.4998 2.2898
0.5081 -7.3584 2.2898
2.1838 -6.8109 2.2898
2.6362 -4.2775 1.6549
4.0819 -4.0042 1.9300
5.7319 -3.3779 2.2898
6.2921 -1.8692 2.2898
6.5119 -0.2915 2.2898
6.3887 1.2913 2.2898
5.9276 2.8158 2.2898
5.1411 4.2193 2.2898
4.0510 5.4379 2.2898
2.6903 6.4065 2.2898
0.6026 3.8434 1.2463
-0.3313 3.8506 1.2006
-2.2775 6.7253 2.1374
-3.9291 6.1758 2.1374
-5.4291 5.2079 2.1374
-7.1318 4.1350 2.2898
-8.0367 2.3682 2.2898
-8.4408 0.4044 2.2898
-8.2996 -1.6027 2.2898
-7.6242 -3.4915 2.2898
-6.4793 -5.1153 2.2898
-4.6408 -5.9383 2.1374
-3.0164 -6.6859 2.1374
-1.3930 -7.4953 2.2898
0.4200 -7.3755 2.2898
2.1045 -6.8470 2.2898
2.6060 -4.3456 1.6667
3.9828 -4.0032 1.9039
5.6951 -3.4503 2.2898
6.2721 -1.9468 2.2898
6.5090 -0.3710 2.2898
6.4030 1.2130 2.2898
5.9585 2.7420 2.2898
5.1879 4.1530 2.2898
4.1122 5.3822 2.2898
2.7640 6.3650 2.2898
0.6502 3.8430 1.2505
-0.2846 3.8502 1.2012
-2.1931 6.7417 2.1374
-3.8491 6.2133 2.1374
-5.3596 5.2658 2.1374
-7.0748 4.2157 2.2898
-8.0027 2.4624 2.2898
-8.4333 0.5049 2.2898
-8.3197 -1.5039 2.2898
-7.6699 -3.4022 2.2898
-6.5462 -5.0423 2.2898
-4.7173 -5.8897 2.1374
-3.1008 -6.6589 2.1374
-1.4853 -7.4897 2.2898
0.3317 -7.3917 2.2898
2.0246 -6.8823 2.2898
2.5514 -4.3738 1.6633
3.8862 -4.0022 1.8787
5.6575 -3.5224 2.2898
6.2513 -2.0242 2.2898
6.5054 -0.4504 2.2898
6.4164 1.1346 2.2898
5.9886 2.6678 2.2898
5.2339 4.0862 2.2898
4.1728 5.3262 2.2898
2.8372 6.3227 2.2898
0.6980 3.8427 1.2549
-0.2379 3.8499 1.2020
-2.1086 6.7569 2.1374
-3.7687 6.2498 2.1374
-5.2894 5.3228 2.1374
-7.0169 4.2957 2.2898
-7.9676 2.5560 2.2898
-8.4246 0.6054 2.2898
-8.3384 -1.4047 2.2898
-7.7143 -3.3123 2.2898
-6.6121 -4.9685 2.2898
-4.7933 -5.8400 2.1374
-3.1850 -6.6308 2.1374
-1.5777 -7.4829 2.2898
0.2431 -7.4068 2.2898
1.9443 -6.9166 2.2898
2.5024 -4.4117 1.6638
3.7919 -4.0012 1.8544
5.6191 -3.5941 2.2898
6.2296 -2.1015 2.2898
6.5008 -0.5300 2.2898
6.4290 1.0560 2.2898
6.0179 2.5934 2.2898
5.2791 4.0190 2.2898
4.2327 5.2694 2.2898
2.9099 6.2797 2.2898
0.7460 3.8423 1.2594
-0.1914 3.8495 1.2030
-2.0351 6.8084 2.1492
-3.6880 6.2853 2.1374
-5.2186 5.3787 2.1374
-6.9579 4.3748 2.2898
-7.9311 2.6493 2.2898
-8.4144 0.7057 2.2898
-8.3558 -1.3054 2.2898
-7.7576 -3.2218 2.2898
-6.6771 -4.8935 2.2898
-4.8688 -5.7893 2.1374
-3.2688 -6.6016 2.1374
-1.6700 -7.4750 2.2898
0.1540 -7.4209 2.2898
1.8634 -6.9501 2.2898
2.4591 -4.4604 1.6685
3.6999 -4.0002 1.8309
5.5799 -3.6655 2.2898
6.2070 -2.1786 2.2898
6.4954 -0.6094 2.2898
6.4407 0.9774 2.2898
6.0464 2.5186 2.2898
5.3236 3.9514 2.2898
4.2918 5.2120 2.2898
2.9819 6.2359 2.2898
0.7943 3.8419 1.2642
-0.1448 3.8492 1.2041
-2.0161 7.0525 2.2219
-3.6070 6.3197 2.1374
-5.1471 5.4337 2.1374
-6.8980 4.4532 2.2898
-7.8935 2.7418 2.2898
-8.4029 0.8057 2.2898
-8.3718 -1.2057 2.2898
-7.7996 -3.1306 2.2898
-6.7411 -4.8178 2.2898
-4.9436 -5.7375 2.1374
-3.3525 -6.5713 2.1374
-1.7624 -7.4659 2.2898
0.0648 -7.4339 2.2898
1.7821 -6.9826 2.2898
2.4230 -4.5237 1.6788
3.6098 -3.9993 1.8081
5.5399 -3.7364 2.2898
6.1837 -2.2554 2.2898
6.4891 -0.6888 2.2898
6.4515 0.8986 2.2898
6.0740 2.4437 2.2898
5.3672 3.8833 2.2898
4.3504 5.1541 2.2898
3.0535 6.1913 2.2898
0.8428 3.8415 1.2692
-0.0984 3.8488 1.2054
-1.9870 7.2810 2.2898
-3.5257 6.3530 2.1374
-5.0750 5.4877 2.1374
-6.8371 4.5303 2.2898
-7.8545 2.8339 2.2898
-8.3900 0.9057 2.2898
-8.3864 -1.1059 2.2898
-7.8404 -3.0389 2.2898
-6.8042 -4.7411 2.2898
-5.0179 -5.6847 2.1374
-3.4358 -6.5399 2.1374
-1.8547 -7.4557 2.2898
-0.0248 -7.4459 2.2898
1.7002 -7.0143 2.2898
2.3992 -4.6124 1.6984
3.5219 -3.9984 1.7862
5.4990 -3.8071 2.2898
6.1594 -2.3321 2.2898
6.4820 -0.7681 2.2898
6.4615 0.8197 2.2898
6.1008 2.3683 2.2898
5.4102 3.8148 2.2898
4.4081 5.0956 2.2898
3.1243 6.1460 2.2898
0.8915 3.8412 1.2744
-0.0519 3.8484 1.2069
-1.8964 7.2929 2.2898
-3.4441 6.3853 2.1374
-5.0022 5.5407 2.1374
-6.7752 4.6069 2.2898
-7.8145 2.9252 2.2898
-8.3758 1.0054 2.2898
-8.3997 -1.0058 2.2898
-7.8800 -2.9465 2.2898
-6.8663 -4.6636 2.2898
-5.0915 -5.6309 2.1374
-3.5189 -6.5074 2.1374
-1.9472 -7.4444 2.2898
-0.1145 -7.4568 2.2898
1.6179 -7.0451 2.2898
2.6294 -5.2082 1.9033
3.4358 -3.9975 1.7649
5.4573 -3.8772 2.2898
6.1344 -2.4084 2.2898
6.4740 -0.8474 2.2898
6.4707 0.7407 2.2898
6.1268 2.2929 2.2898
5.4522 3.7460 2.2898
4.4652 5.0364 2.2898
3.1946 6.0999 2.2898
0.9405 3.8408 1.2798
-0.0056 3.8481 1.2086
-1.8056 7.3037 2.2898
-3.3621 6.4165 2.1374
-4.9290 5.5927 2.1374
-6.7124 4.6824 2.2898
-7.7731 3.0161 2.2898
-8.3602 1.1049 2.2898
-8.4115 -0.9056 2.2898
-7.9183 -2.8537 2.2898
-6.9274 -4.5851 2.2898
-5.1645 -5.5761 2.1374
-3.6016 -6.4738 2.1374
-2.0395 -7.4319 2.2898
-0.2047 -7.4667 2.2898
1.5351 -7.0749 2.2898
2.6282 -5.3663 1.9466
3.3517 -3.9966 1.7443
5.4148 -3.9471 2.2898
6.1084 -2.4846 2.2898
6.4652 -0.9266 2.2898
6.4790 0.6617 2.2898
6.1520 2.2170 2.2898
5.4936 3.6765 2.2898
4.5216 4.9768 2.2898
3.2642 6.0532 2.2898
0.9898 3.8404 1.2854
0.0409 3.8477 1.2104
-0.9040 3.8549 1.2070
-3.2800 6.4466 2.1374
-4.8551 5.6437 2.1374
-6.6486 4.7571 2.2898
-7.7307 3.1063 2.2898
-8.3433 1.2040 2.2898
-8.4221 -0.8052 2.2898
-7.9554 -2.7602 2.2898
-6.9874 -4.5058 2.2898
-5.2368 -5.5203 2.1374
-3.6840 -6.4391 2.1374
-2.1319 -7.4182 2.2898
-0.2950 -7.4754 2.2898
1.4519 -7.1038 2.2898
2.6270 -5.5324 1.9924
3.2691 -3.9958 1.7244
5.3715 -4.0165 2.2898
6.0817 -2.5605 2.2898
6.4554 -1.0058 2.2898
6.4864 0.5825 2.2898
6.1763 2.1410 2.2898
5.5341 3.6069 2.2898
4.5773 4.9165 2.2898
3.3333 6.0057 2.2898
1.0395 3.8400 1.2913
0.0873 3.8474 1.2124
-0.8551 3.8546 1.2055
-3.1975 6.4757 2.1374
-4.7806 5.6937 2.1374
-6.5840 4.8309 2.2898
-3.7534 1.5605 1.1181
-8.3250 1.3031 2.2898
-8.4312 -0.7046 2.2898
-7.9912 -2.6662 2.2898
-7.0465 -4.4256 2.2898
-5.3085 -5.4635 2.1374
-3.7661 -6.4033 2.1374
-2.2241 -7.4033 2.2898
-0.3855 -7.4831 2.2898
1.3681 -7.1318 2.2898
2.6257 -5.7071 2.0408
3.1884 -3.9949 1.7052
5.3274 -4.0855 2.2898
6.0541 -2.6363 2.2898
6.4449 -1.0849 2.2898
6.4930 0.5033 2.2898
6.1998 2.0648 2.2898
5.5739 3.5367 2.2898
4.6322 4.8557 2.2898
3.4017 5.9575 2.2898
1.0894 3.8396 1.2973
0.1338 3.8470 1.2146
-0.8064 3.8542 1.2041
-3.1148 6.5037 2.1374
-4.7056 5.7427 2.1374
-6.5184 4.9038 2.2898
-3.7407 1.6079 1.1208
-8.3053 1.4017 2.2898
-8.4390 -0.6040 2.2898
-8.0258 -2.5717 2.2898
-7.1045 -4.3445 2.2898
-5.3794 -5.4057 2.1374
-3.8477 -6.3664 2.1374
-2.3164 -7.3873 2.2898
-0.4763 -7.4898 2.2898
1.2840 -7.1588 2.2898
2.8726 -6.4480 2.2898
3.1091 -3.9941 1.6865
5.2825 -4.1541 2.2898
6.0256 -2.7116 2.2898
6.4335 -1.1638 2.2898
6.4988 0.4240 2.2898
6.2225 1.9883 2.2898
5.6129 3.4663 2.2898
4.6864 4.7944 2.2898
3.4696 5.9085 2.2898
2.0019 6.7439 2.2898
0.1802 3.8467 1.2169
-0.7581 3.8538 1.2030
-3.0318 6.5307 2.1374
-4.6301 5.7907 2.1374
-6.4519 4.9756 2.2898
-7.5961 3.3731 2.2898
-8.2844 1.5001 2.2898
-8.4454 -0.5032 2.2898
-8.0590 -2.4768 2.2898
-7.1614 -4.2627 2.2898
-5.4497 -5.3469 2.1374
-3.9290 -6.3284 2.1374
-2.4084 -7.3702 2.2898
-0.5672 -7.4953 2.2898
1.1993 -7.1849 2.2898
2.7984 -6.4916 2.2898
3.0315 -3.9933 1.6685
5.2368 -4.2220 2.2898
5.9963 -2.7869 2.2898
6.4212 -1.2428 2.2898
6.5037 0.3447 2.2898
6.2443 1.9116 2.2898
5.6511 3.3954 2.2898
4.7399 4.7325 2.2898
3.5367 5.8589 2.2898
2.0804 6.7097 2.2898
0.2268 3.8463 1.2195
-0.7099 3.8535 1.2020
-2.9488 6.5565 2.1374
-4.5541 5.8376 2.1374
-6.3845 5.0466 2.2898
-7.5489 3.4608 2.2898
-8.2621 1.5980 2.2898
-8.4504 -0.4025 2.2898
-8.0910 -2.3812 2.2898
-7.2174 -4.1800 2.2898
-5.5192 -5.2872 2.1374
-4.0099 -6.2894 2.1374
-2.4173 -7.1071 2.2136
-0.6585 -7.4998 2.2898
1.1144 -7.2100 2.2898
2.7236 -6.5343 2.2898
2.9552 -3.9926 1.6509
5.1903 -4.2899 2.2898
5.9662 -2.8617 2.2898
6.4080 -1.3215 2.2898
6.5077 0.2652 2.2898
6.2653 1.8347 2.2898
5.6884 3.3242 2.2898
4.7926 4.6702 2.2898
3.6033 5.8086 2.2898
2.1585 6.6747 2.2898
0.2734 3.8459 1.2222
-0.6620 3.8531 1.2012
-2.8654 6.5813 2.1374
-4.4775 5.8835 2.1374
-6.3164 5.1167 2.2898
-7.5006 3.5476 2.2898
-8.2385 1.6958 2.2898
-8.4540 -0.3015 2.2898
-8.1217 -2.2854 2.2898
-7.2721 -4.0967 2.2898
-5.5881 -5.2264 2.1374
-4.0904 -6.2492 2.1374
-2.4224 -6.8515 2.1397
-0.7497 -7.5031 2.2898
1.0289 -7.2342 2.2898
2.6482 -6.5764 2.2898
2.8804 -3.9918 1.6340
5.1430 -4.3571 2.2898
5.9352 -2.9364 2.2898
6.3940 -1.4002 2.2898
6.5109 0.1858 2.2898
6.2855 1.7577 2.2898
5.7250 3.2525 2.2898
4.8447 4.6072 2.2898
3.6692 5.7576 2.2898
2.2360 6.6389 2.2898
0.3201 3.8456 1.2251
-0.6143 3.8527 1.2006
-2.7819 6.6051 2.1374
-4.4006 5.9283 2.1374
-6.2473 5.1857 2.2898
-7.4512 3.6338 2.2898
-8.2135 1.7930 2.2898
-8.4563 -0.2007 2.2898
-8.1511 -2.1890 2.2898
-7.3258 -4.0124 2.2898
-5.6561 -5.1647 2.1374
-4.1704 -6.2081 2.1374
-2.5056 -6.8249 2.1374
-0.8413 -7.5053 2.2898
0.9431 -7.2573 2.2898
2.5723 -6.6175 2.2898
2.8068 -3.9911 1.6176
4.6181 -4.0100 2.0755
5.9035 -3.0107 2.2898
6.3792 -1.4786 2.2898
6.5132 0.1063 2.2898
6.3048 1.6803 2.2898
5.7608 3.1807 2.2898
4.8959 4.5439 2.2898
3.7345 5.7060 2.2898
2.3131 6.6022 2.2898
0.3668 3.8452 1.2281
-0.5668 3.8524 1.2002
-2.6981 6.6278 2.1374
-4.3230 5.9722 2.1374
-6.1775 5.2537 2.2898
-7.4007 3.7192 2.2898
-8.1873 1.8900 2.2898
-8.4571 -0.0997 2.2898
-8.1792 -2.0923 2.2898
-7.3784 -3.9275 2.2898
-5.7234 -5.1021 2.1374
-4.2500 -6.1657 2.1374
-2.5910 -6.8045 2.1374
-0.9329 -7.5065 2.2898
0.8568 -7.2795 2.2898
2.4957 -6.6579 2.2898
2.7347 -3.9903 1.6017
4.5050 -4.0087 2.0443
5.8708 -3.0848 2.2898
6.3635 -1.5571 2.2898
6.5146 0.0269 2.2898
6.3232 1.6029 2.2898
5.7958 3.1083 2.2898
4.9465 4.4799 2.2898
3.7991 5.6537 2.2898
2.3895 6.5647 2.2898
0.4137 3.8449 1.2314
-0.5194 3.8520 1.1999
-2.6143 6.6494 2.1374
-4.2451 6.0150 2.1374
-6.1068 5.3208 2.2898
-7.3490 3.8039 2.2898
-8.1598 1.9864 2.2898
-8.4566 0.0011 2.2898
-8.2059 -1.9951 2.2898
-7.4298 -3.8417 2.2898
-5.7899 -5.0385 2.1374
-4.3291 -6.1224 2.1374
-2.6765 -6.7830 2.1374
-1.0247 -7.5065 2.2898
0.7703 -7.3007 2.2898
2.4186 -6.6973 2.2898
2.6636 -3.9896 1.5862
4.3949 -4.0076 2.0141
5.8374 -3.1584 2.2898
6.3469 -1.6353 2.2898
6.5152 -0.0527 2.2898
6.3409 1.5252 2.2898
5.8299 3.0358 2.2898
4.9962 4.4155 2.2898
3.8630 5.6007 2.2898
2.4655 6.5264 2.2898
0.4607 3.8445 1.2348
-0.4722 3.8517 1.1998
-2.5303 6.6700 2.1374
-4.1667 6.0568 2.1374
-6.0354 5.3869 2.2898
-7.2964 3.8878 2.2898
-8.1309 2.0826 2.2898
-8.4547 0.1020 2.2898
-8.2313 -1.8976 2.2898
-7.4801 -3.7553 2.2898
-6.2732 -5.3286 2.2898
-4.4078 -6.0780 2.1374
-2.7617 -6.7604 2.1374
-1.1166 -7.5054 2.2898
0.6832 -7.3210 2.2898
2.3409 -6.7361 2.2898
2.6378 -4.0564 1.5979
4.2878 -4.0064 1.9851
5.8030 -3.2319 2.2898
6.3295 -1.7134 2.2898
6.5150 -0.1322 2.2898
6.3577 1.4475 2.2898
5.8633 2.9628 2.2898
5.0453 4.3506 2.2898
3.9263 5.5471 2.2898
2.5409 6.4872 2.2898
0.5078 3.8441 1.2385
-0.4251 3.8513 1.1999
-2.4462 6.6895 2.1374
-4.0880 6.0974 2.1374
-5.9631 5.4521 2.2898
-7.2425 3.9710 2.2898
-8.1008 2.1781 2.2898
-8.4514 0.2028 2.2898
-8.2554 -1.7996 2.2898
-7.5293 -3.6680 2.2898
-6.3428 -5.2585 2.2898
-4.4859 -6.0325 2.1374
-2.8468 -6.7367 2.1374
-1.2087 -7.5032 2.2898
0.5958 -7.3402 2.2898
2.2627 -6.7739 2.2898
2.6370 -4.1649 1.6257
4.1835 -4.0053 1.9571
5.7679 -3.3051 2.2898
6.3112 -1.7913 2.2898
6.5139 -0.2118 2.2898
6.3736 1.3694 2.2898
5.8959 2.8894 2.2898
5.0935 4.2853 2.2898
3.9889 5.4928 2.2898
2.6159 6.4473 2.2898
0.5517 3.8437 1.3391
-0.3816 3.8508 1.2964
-2.1878 6.1964 2.1374
-3.7014 5.6570 2.1374
-5.0644 4.7367 2.1374
-6.6084 3.7225 2.2898
-7.4094 2.0851 2.2898
-7.7509 0.2780 2.2898
-7.5964 -1.5602 2.2898
-6.9584 -3.2848 2.2898
-5.5036 -4.4480 2.1374
-4.2052 -5.5078 2.1374
-2.7089 -6.1881 2.1374
-1.2083 -6.9294 2.2898
0.4641 -6.8135 2.2898
2.0199 -6.3195 2.2898
2.6212 -4.2612 1.7735
4.0778 -4.0060 2.0739
5.3365 -3.1488 2.2898
5.8635 -1.7441 2.2898
6.0711 -0.2725 2.2898
5.9562 1.2044 2.2898
5.5236 2.6261 2.2898
4.7861 3.9321 2.2898
3.7654 5.0617 2.2898
2.4948 5.9544 2.2898
0.5991 3.8433 1.3433
-0.3348 3.8505 1.2967
-2.1101 6.2132 2.1374
-3.6284 5.6932 2.1374
-5.0015 4.7913 2.1374
-6.5576 3.7977 2.2898
-7.3798 2.1721 2.2898
-7.7455 0.3703 2.2898
-7.6159 -1.4698 2.2898
-7.0010 -3.2034 2.2898
-5.5613 -4.3859 2.1374
-4.2757 -5.4635 2.1374
-2.7867 -6.1635 2.1374
-1.2934 -6.9245 2.2898
0.3825 -6.8286 2.2898
1.9461 -6.3524 2.2898
2.5624 -4.2811 1.7665
3.9788 -4.0049 2.0460
5.3020 -3.2161 2.2898
5.8446 -1.8164 2.2898
6.0683 -0.3467 2.2898
5.9695 1.1314 2.2898
5.5526 2.5572 2.2898
4.8299 3.8705 2.2898
3.8227 5.0104 2.2898
2.5636 5.9163 2.2898
0.6467 3.8429 1.3477
-0.2881 3.8501 1.2973
-2.0491 6.2802 2.1550
-3.5550 5.7284 2.1374
-4.9380 4.8450 2.1374
-6.5058 3.8721 2.2898
-7.3490 2.2587 2.2898
-7.7388 0.4625 2.2898
-7.6342 -1.3792 2.2898
-7.0426 -3.1213 2.2898
-5.6182 -4.3230 2.1374
-4.3458 -5.4183 2.1374
-2.8642 -6.1380 2.1374
-1.3784 -6.9185 2.2898
0.3007 -6.8428 2.2898
1.8719 -6.3844 2.2898
2.5089 -4.3093 1.7632
3.8823 -4.0039 2.0191
5.2666 -3.2831 2.2898
5.8250 -1.8886 2.2898
6.0648 -0.4209 2.2898
5.9821 1.0583 2.2898
5.5809 2.4881 2.2898
4.8730 3.8084 2.2898
3.8794 4.9584 2.2898
2.6319 5.8775 2.2898
0.6945 3.8426 1.3523
-0.2414 3.8498 1.2980
-2.0319 6.4912 2.2221
-3.4813 5.7627 2.1374
-4.8739 4.8979 2.1374
-6.4530 3.9459 2.2898
-7.3171 2.3447 2.2898
-7.7309 0.5546 2.2898
-7.6513 -1.2882 2.2898
-7.0830 -3.0387 2.2898
-5.6743 -4.2593 2.1374
-4.4153 -5.3721 2.1374
-2.9415 -6.1114 2.1374
-1.4636 -6.9115 2.2898
0.2186 -6.8561 2.2898
1.7972 -6.4157 2.2898
2.4601 -4.3458 1.7636
3.7880 -4.0029 1.9931
5.2306 -3.3498 2.2898
5.8046 -1.9606 2.2898
6.0605 -0.4950 2.2898
5.9939 0.9850 2.2898
5.6083 2.4187 2.2898
4.9154 3.7459 2.2898
3.9354 4.9059 2.2898
2.6996 5.8380 2.2898
0.7426 3.8422 1.3571
-0.1949 3.8494 1.2989
-2.0103 6.7038 2.2898
-3.4072 5.7960 2.1374
-4.8091 4.9499 2.1374
-6.3994 4.0188 2.2898
-7.2840 2.4303 2.2898
-7.7218 0.6465 2.2898
-7.6671 -1.1971 2.2898
-7.1224 -2.9556 2.2898
-5.7297 -4.1949 2.1374
-4.4843 -5.3249 2.1374
-3.0185 -6.0839 2.1374
-1.5487 -6.9035 2.2898
0.1362 -6.8684 2.2898
1.7220 -6.4461 2.2898
2.4161 -4.3914 1.7678
3.6959 -4.0019 1.9679
5.1937 -3.4161 2.2898
5.7834 -2.0324 2.2898
6.0554 -0.5692 2.2898
6.0048 0.9116 2.2898
5.6351 2.3491 2.2898
4.9571 3.6830 2.2898
3.9908 4.8528 2.2898
2.7668 5.7977 2.2898
0.7908 3.8418 1.3621
-0.1483 3.8491 1.3000
-1.9267 6.7175 2.2898
-3.3329 5.8283 2.1374
-4.7438 5.0009 2.1374
-6.3448 4.0910 2.2898
-7.2499 2.5154 2.2898
-7.7114 0.7383 2.2898
-7.6817 -1.1058 2.2898
-7.1607 -2.8718 2.2898
-5.7842 -4.1297 2.1374
-4.5527 -5.2769 2.1374
-3.0953 -6.0553 2.1374
-1.6339 -6.8944 2.2898
0.0536 -6.8797 2.2898
1.6464 -6.4756 2.2898
2.3776 -4.4481 1.7766
3.6059 -4.0009 1.9436
5.1561 -3.4820 2.2898
5.7614 -2.1040 2.2898
6.0494 -0.6433 2.2898
6.0150 0.8381 2.2898
5.6610 2.2792 2.2898
4.9980 3.6197 2.2898
4.0455 4.7992 2.2898
2.8335 5.7567 2.2898
0.8393 3.8414 1.3674
-0.1019 3.8487 1.3013
-1.8431 6.7303 2.2898
-3.2582 5.8597 2.1374
-4.6778 5.0511 2.1374
-6.2893 4.1625 2.2898
-7.2145 2.6000 2.2898
-7.6998 0.8300 2.2898
-7.6950 -1.0142 2.2898
-7.1979 -2.7876 2.2898
-6.2541 -4.3534 2.2898
-4.6206 -5.2279 2.1374
-3.1718 -6.0258 2.1374
-1.7190 -6.8842 2.2898
-0.0293 -6.8901 2.2898
1.5703 -6.5044 2.2898
2.3469 -4.5216 1.7921
3.5180 -4.0000 1.9201
5.1177 -3.5477 2.2898
5.7386 -2.1754 2.2898
6.0427 -0.7173 2.2898
6.0244 0.7644 2.2898
5.6861 2.2090 2.2898
5.0382 3.5560 2.2898
4.0996 4.7450 2.2898
2.8997 5.7151 2.2898
0.8880 3.8411 1.3728
-0.0554 3.8483 1.3027
-1.7595 6.7420 2.2898
-3.1832 5.8901 2.1374
-4.6113 5.1004 2.1374
-6.2329 4.2331 2.2898
-7.1781 2.6841 2.2898
-7.6869 0.9214 2.2898
-7.7072 -0.9225 2.2898
-7.2339 -2.7028 2.2898
-6.3107 -4.2819 2.2898
-4.6879 -5.1779 2.1374
-3.2480 -5.9952 2.1374
-1.8041 -6.8730 2.2898
-0.1124 -6.8994 2.2898
1.4938 -6.5322 2.2898
2.3328 -4.6308 1.8216
3.4320 -3.9991 1.8974
5.0786 -3.6129 2.2898
5.7150 -2.2465 2.2898
6.0351 -0.7913 2.2898
6.0329 0.6907 2.2898
5.7105 2.1386 2.2898
5.0777 3.4919 2.2898
4.1530 4.6902 2.2898
2.9653 5.6727 2.2898
0.9370 3.8407 1.3785
-0.0090 3.8480 1.3044
-1.6758 6.7527 2.2898
-3.1080 5.9195 2.1374
-4.5443 5.1488 2.1374
-6.1757 4.3029 2.2898
-7.1406 2.7676 2.2898
-7.6728 1.0126 2.2898
-7.7180 -0.8306 2.2898
-7.2688 -2.6175 2.2898
-6.3663 -4.2096 2.2898
-4.7546 -5.1271 2.1374
-3.3238 -5.9636 2.1374
-1.8892 -6.8607 2.2898
-0.1957 -6.9078 2.2898
1.4169 -6.5592 2.2898
2.8655 -5.8638 2.2898
3.3478 -3.9982 1.8754
5.0387 -3.6777 2.2898
5.6906 -2.3175 2.2898
6.0267 -0.8652 2.2898
6.0407 0.6170 2.2898
5.7341 2.0680 2.2898
5.1165 3.4274 2.2898
4.2058 4.6349 2.2898
3.0303 5.6296 2.2898
0.9863 3.8403 1.3845
0.0374 3.8476 1.3062
-0.9076 3.8549 1.3053
-3.0325 5.9479 2.1374
-4.4767 5.1963 2.1374
-6.1176 4.3719 2.2898
-7.1020 2.8505 2.2898
-7.6575 1.1037 2.2898
-7.7276 -0.7386 2.2898
-7.3025 -2.5317 2.2898
-6.4211 -4.1365 2.2898
-4.8207 -5.0753 2.1374
-3.3994 -5.9311 2.1374
-1.9742 -6.8473 2.2898
-0.2793 -6.9152 2.2898
1.3395 -6.5853 2.2898
2.7980 -5.9059 2.2898
3.2653 -3.9973 1.8542
4.9981 -3.7422 2.2898
5.6654 -2.3882 2.2898
6.0176 -0.9390 2.2898
6.0477 0.5431 2.2898
5.7570 1.9971 2.2898
5.1545 3.3626 2.2898
4.2579 4.5791 2.2898
3.0948 5.5859 2.2898
1.0359 3.8399 1.3906
0.0838 3.8473 1.3082
-0.8587 3.8545 1.3035
-2.9567 5.9754 2.1374
-4.4086 5.2428 2.1374
-6.0586 4.4400 2.2898
-3.7539 1.5589 1.2171
-7.6410 1.1944 2.2898
-7.7360 -0.6464 2.2898
-7.3351 -2.4454 2.2898
-6.4749 -4.0627 2.2898
-4.8861 -5.0227 2.1374
-3.4746 -5.8975 2.1374
-2.0592 -6.8328 2.2898
-0.3630 -6.9215 2.2898
1.2618 -6.6106 2.2898
2.7300 -5.9473 2.2898
3.1845 -3.9965 1.8336
4.9567 -3.8062 2.2898
5.6394 -2.4587 2.2898
6.0076 -1.0127 2.2898
6.0538 0.4692 2.2898
5.7790 1.9260 2.2898
5.1918 3.2974 2.2898
4.3093 4.5228 2.2898
3.1587 5.5415 2.2898
1.0858 3.8395 1.3970
0.1303 3.8469 1.3105
-0.8101 3.8541 1.3019
-2.8807 6.0019 2.1374
-4.3399 5.2885 2.1374
-5.9989 4.5074 2.2898
-3.7395 1.6055 1.2195
-7.6232 1.2849 2.2898
-7.7431 -0.5541 2.2898
-7.3666 -2.3587 2.2898
-6.5277 -3.9881 2.2898
-4.9509 -4.9691 2.1374
-3.5495 -5.8630 2.1374
-2.1440 -6.8173 2.2898
-0.4469 -6.9269 2.2898
1.1837 -6.6350 2.2898
2.6613 -5.9879 2.2898
3.1053 -3.9957 1.8137
4.9146 -3.8699 2.2898
5.6126 -2.5289 2.2898
5.9968 -1.0864 2.2898
6.0592 0.3952 2.2898
5.8003 1.8547 2.2898
5.2284 3.2318 2.2898
4.3601 4.4659 2.2898
3.2220 5.4964 2.2898
1.8534 6.2630 2.2898
0.1768 3.8466 1.3129
-0.7616 3.8537 1.3005
-2.8044 6.0274 2.1374
-4.2708 5.3332 2.1374
-5.5430 4.2695 2.1374
-6.9798 3.0960 2.2898
-7.6042 1.3752 2.2898
-7.7490 -0.4618 2.2898
-7.3969 -2.2715 2.2898
-6.5796 -3.9127 2.2898
-5.0151 -4.9147 2.1374
-3.6240 -5.8274 2.1374
-2.2288 -6.8007 2.2898
-0.5310 -6.9313 2.2898
1.1051 -6.6584 2.2898
2.5922 -6.0279 2.2898
3.0276 -3.9949 1.7944
4.8717 -3.9331 2.2898
5.5851 -2.5989 2.2898
5.9852 -1.1600 2.2898
6.0637 0.3211 2.2898
5.8207 1.7831 2.2898
5.2642 3.1658 2.2898
4.4102 4.4085 2.2898
3.2848 5.4506 2.2898
1.9265 6.2319 2.2898
0.2233 3.8462 1.3155
-0.7135 3.8534 1.2994
-2.7280 6.0520 2.1374
-4.2012 5.3769 2.1374
-5.4857 4.3307 2.1374
-6.9370 3.1766 2.2898
-7.5841 1.4651 2.2898
-7.7536 -0.3694 2.2898
-7.4260 -2.1839 2.2898
-6.6305 -3.8366 2.2898
-5.0786 -4.8594 2.1374
-3.6981 -5.7909 2.1374
-2.3135 -6.7831 2.2898
-0.6152 -6.9346 2.2898
1.0262 -6.6810 2.2898
2.5225 -6.0670 2.2898
2.9514 -3.9941 1.7757
4.8281 -3.9959 2.2898
5.5567 -2.6686 2.2898
5.9728 -1.2334 2.2898
6.0675 0.2470 2.2898
5.8404 1.7114 2.2898
5.2992 3.0995 2.2898
4.4596 4.3506 2.2898
3.3470 5.4042 2.2898
1.9992 6.1999 2.2898
0.2699 3.8458 1.3183
-0.6656 3.8530 1.2984
-2.6513 6.0755 2.1374
-4.1311 5.4198 2.1374
-5.4277 4.3915 2.1374
-6.8931 3.2566 2.2898
-7.5627 1.5547 2.2898
-7.7570 -0.2769 2.2898
-7.4539 -2.0959 2.2898
-6.6804 -3.7598 2.2898
-5.1415 -4.8032 2.1374
-3.7718 -5.7534 2.1374
-2.3951 -6.7561 2.2871
-0.6996 -6.9370 2.2898
0.9470 -6.7027 2.2898
2.4523 -6.1054 2.2898
2.8766 -3.9933 1.7576
4.7838 -4.0583 2.2898
5.5276 -2.7381 2.2898
5.9596 -1.3068 2.2898
6.0704 0.1729 2.2898
5.8593 1.6395 2.2898
5.3335 3.0327 2.2898
4.5083 4.2923 2.2898
3.4086 5.3572 2.2898
2.0714 6.1672 2.2898
0.3166 3.8455 1.3212
-0.6178 3.8527 1.2976
-2.5745 6.0981 2.1374
-4.0606 5.4617 2.1374
-5.3689 4.4509 2.1374
-6.8482 3.3359 2.2898
-7.5401 1.6440 2.2898
-7.7591 -0.1844 2.2898
-7.4806 -2.0075 2.2898
-6.7293 -3.6823 2.2898
-5.2036 -4.7461 2.1374
-3.8452 -5.7149 2.1374
-2.4006 -6.5222 2.2144
-0.7841 -6.9383 2.2898
0.8673 -6.7235 2.2898
2.3815 -6.1430 2.2898
2.8031 -3.9926 1.7401
4.7387 -4.1202 2.2898
5.4977 -2.8072 2.2898
5.9456 -1.3800 2.2898
6.0725 0.0987 2.2898
5.8775 1.5675 2.2898
5.3671 2.9659 2.2898
4.5563 4.2334 2.2898
3.4695 5.3095 2.2898
2.1432 6.1336 2.2898
0.3633 3.8451 1.3244
-0.5703 3.8523 1.2969
-2.4975 6.1197 2.1374
-3.9896 5.5026 2.1374
-5.3094 4.5097 2.1374
-6.8022 3.4148 2.2898
-7.5163 1.7330 2.2898
-7.7600 -0.0919 2.2898
-7.5062 -1.9188 2.2898
-6.7772 -3.6042 2.2898
-5.2650 -4.6882 2.1374
-3.9180 -5.6754 2.1374
-2.4058 -6.3020 2.1463
-0.8687 -6.9386 2.2898
0.7874 -6.7433 2.2898
2.3102 -6.1799 2.2898
2.7309 -3.9918 1.7231
4.6929 -4.1817 2.2898
5.4671 -2.8761 2.2898
5.9308 -1.4531 2.2898
6.0738 0.0245 2.2898
5.8948 1.4952 2.2898
5.3999 2.8985 2.2898
4.6037 4.1741 2.2898
3.5299 5.2612 2.2898
2.2145 6.0993 2.2898
0.4102 3.8448 1.3278
-0.5229 3.8519 1.2965
-2.4203 6.1404 2.1374
-3.9182 5.5427 2.1374
-5.2492 4.5677 2.1374
-6.7553 3.4924 2.2898
-7.4914 1.8216 2.2898
-7.7596 0.0006 2.2898
-7.5306 -1.8297 2.2898
-6.8240 -3.5253 2.2898
-5.3258 -4.6294 2.1374
-3.9905 -5.6350 2.1374
-2.4744 -6.2556 2.1374
-0.9535 -6.9378 2.2898
0.7071 -6.7623 2.2898
2.2384 -6.2160 2.2898
2.6599 -3.9911 1.7066
4.6463 -4.2427 2.2898
5.4356 -2.9447 2.2898
5.9151 -1.5260 2.2898
6.0744 -0.0497 2.2898
5.9113 1.4228 2.2898
5.4320 2.8308 2.2898
4.6503 4.1143 2.2898
3.5897 5.2123 2.2898
2.2853 6.0642 2.2898
0.4572 3.8444 1.3314
-0.4757 3.8516 1.2963
-2.3430 6.1600 2.1374
-3.8463 5.5817 2.1374
-5.1883 4.6248 2.1374
-6.7073 3.5699 2.2898
-7.4652 1.9098 2.2898
-7.7579 0.0931 2.2898
-7.5537 -1.7402 2.2898
-6.8698 -3.4458 2.2898
-5.3857 -4.5698 2.1374
-4.0625 -5.5936 2.1374
-2.5527 -6.2341 2.1374
-1.0383 -6.9361 2.2898
0.6264 -6.7803 2.2898
2.1661 -6.2513 2.2898
2.6377 -4.0637 1.7217
4.5991 -4.3033 2.2898
5.4034 -3.0130 2.2898
5.8987 -1.5989 2.2898
6.0741 -0.1239 2.2898
5.9271 1.3502 2.2898
5.4633 2.7630 2.2898
4.6963 4.0540 2.2898
3.6489 5.1627 2.2898
2.3556 6.0284 2.2898
0.5043 3.8440 1.3351
-0.4286 3.8512 1.2963
-2.2655 6.1787 2.1374
-3.7741 5.6198 2.1374
-5.1267 4.6812 2.1374
-6.6584 3.6465 2.2898
-7.4379 1.9976 2.2898
-7.7550 0.1855 2.2898
