ply
format ascii 1.0
element vertex 2176
property float32 x
property float32 y
property float32 z
end_header
6.4456 -1.0845 2.2902
6.4937 0.5038 2.2902
6.2004 2.0655 2.2902
5.5743 3.5376 2.2902
4.6324 4.8568 2.2902
3.4018 5.9586 2.2902
0.9784 3.4495 1.1655
0.1199 3.4565 1.0913
-0.7249 3.4630 1.0819
-3.1159 6.5047 2.1378
-4.7070 5.7435 2.1378
-6.5200 4.9042 2.2902
-3.7405 1.6075 1.1207
-8.3070 1.4014 2.2902
-8.4405 -0.6047 2.2902
-8.0270 -2.5727 2.2902
-7.1054 -4.3458 2.2902
-5.3799 -5.4069 2.1378
-3.8479 -6.3676 2.1378
-2.3161 -7.3884 2.2902
-0.4759 -7.4907 2.2902
1.2846 -7.1595 2.2902
2.4425 -5.4814 1.9467
4.2222 -5.4232 2.2902
5.2833 -4.1541 2.2902
6.0264 -2.7115 2.2902
6.4342 -1.1635 2.2902
6.4994 0.4245 2.2902
6.2230 1.9890 2.2902
5.6133 3.4671 2.2902
4.6867 4.7954 2.2902
3.4696 5.9097 2.2902
1.0236 3.4492 1.1711
0.1617 3.4562 1.0934
-0.6814 3.4627 1.0809
-3.0329 6.5317 2.1378
-4.6315 5.7915 2.1378
-6.4535 4.9762 2.2902
-7.5978 3.3733 2.2902
-8.2861 1.4998 2.2902
-8.4469 -0.5039 2.2902
-8.0603 -2.4777 2.2902
-7.1624 -4.2639 2.2902
-5.4502 -5.3481 2.1378
-3.9292 -6.3296 2.1378
-2.4083 -7.3713 2.2902
-0.5668 -7.4962 2.2902
1.2000 -7.1856 2.2902
2.3872 -5.5367 1.9531
4.1612 -5.4808 2.2902
5.2376 -4.2222 2.2902
5.9971 -2.7867 2.2902
6.4219 -1.2424 2.2902
6.5043 0.3452 2.2902
6.2449 1.9123 2.2902
5.6515 3.3962 2.2902
4.7402 4.7336 2.2902
3.5368 5.8600 2.2902
1.0690 3.4488 1.1769
0.2035 3.4558 1.0956
-0.6382 3.4624 1.0800
-2.9498 6.5576 2.1378
-4.5554 5.8384 2.1378
-6.3862 5.0474 2.2902
-7.5506 3.4609 2.2902
-8.2638 1.5978 2.2902
-8.4519 -0.4031 2.2902
-8.0923 -2.3823 2.2902
-7.2182 -4.1813 2.2902
-5.5198 -5.2884 2.1378
-4.0101 -6.2906 2.1378
-2.4173 -7.1089 2.2142
-0.6580 -7.5007 2.2902
1.1150 -7.2107 2.2902
2.3404 -5.6140 1.9674
4.0996 -5.5378 2.2902
5.1911 -4.2900 2.2902
5.9670 -2.8616 2.2902
6.4088 -1.3212 2.2902
6.5084 0.2658 2.2902
6.2659 1.8354 2.2902
5.6889 3.3250 2.2902
4.7929 4.6712 2.2902
3.6034 5.8097 2.2902
2.1583 6.6759 2.2902
0.2454 3.4555 1.0981
-0.5951 3.4620 1.0793
-2.8664 6.5824 2.1378
-4.4789 5.8843 2.1378
-6.3180 5.1173 2.2902
-7.5023 3.5478 2.2902
-8.2402 1.6955 2.2902
-8.4556 -0.3022 2.2902
-8.1230 -2.2863 2.2902
-7.2730 -4.0978 2.2902
-5.5886 -5.2276 2.1378
-4.0906 -6.2505 2.1378
-2.4224 -6.8530 2.1402
-0.7493 -7.5040 2.2902
1.0295 -7.2349 2.2902
2.3126 -5.7418 1.9994
4.0372 -5.5942 2.2902
5.1438 -4.3572 2.2902
5.9361 -2.9362 2.2902
6.3948 -1.3998 2.2902
6.5115 0.1863 2.2902
6.2860 1.7583 2.2902
5.7255 3.2534 2.2902
4.8450 4.6083 2.2902
3.6693 5.7587 2.2902
2.2359 6.6401 2.2902
0.2873 3.4552 1.1007
-0.5522 3.4617 1.0787
-2.7829 6.6062 2.1378
-4.4018 5.9292 2.1378
-6.2489 5.1862 2.2902
-7.4529 3.6340 2.2902
-8.2152 1.7928 2.2902
-8.4578 -0.2013 2.2902
-8.1524 -2.1900 2.2902
-7.3267 -4.0136 2.2902
-5.6567 -5.1660 2.1378
-4.1706 -6.2093 2.1378
-2.5054 -6.8261 2.1378
-0.8408 -7.5063 2.2902
0.9437 -7.2581 2.2902
2.5730 -6.6180 2.2902
3.9742 -5.6500 2.2902
5.0958 -4.4240 2.2902
5.9043 -3.0106 2.2902
6.3799 -1.4783 2.2902
6.5139 0.1068 2.2902
6.3054 1.6810 2.2902
5.7612 3.1815 2.2902
4.8962 4.5448 2.2902
3.7346 5.7071 2.2902
2.3129 6.6034 2.2902
0.3293 3.4548 1.1034
-0.5095 3.4614 1.0783
-2.6992 6.6289 2.1378
-4.3244 5.9731 2.1378
-6.1791 5.2543 2.2902
-7.4024 3.7194 2.2902
-8.1890 1.8897 2.2902
-8.4587 -0.1004 2.2902
-8.1805 -2.0932 2.2902
-7.3793 -3.9286 2.2902
-5.7240 -5.1033 2.1378
-4.2502 -6.1670 2.1378
-2.5910 -6.8057 2.1378
-0.9325 -7.5074 2.2902
0.8574 -7.2803 2.2902
2.4964 -6.6584 2.2902
3.9104 -5.7051 2.2902
5.0469 -4.4903 2.2902
5.8716 -3.0846 2.2902
6.3642 -1.5567 2.2902
6.5153 0.0273 2.2902
6.3238 1.6036 2.2902
5.7962 3.1092 2.2902
4.9468 4.4809 2.2902
3.7992 5.6548 2.2902
2.3894 6.5659 2.2902
0.3714 3.4545 1.1063
-0.4670 3.4611 1.0781
-2.6153 6.6505 2.1378
-4.2464 6.0159 2.1378
-6.1084 5.3214 2.2902
-7.3508 3.8041 2.2902
-8.1615 1.9863 2.2902
-8.4582 0.0005 2.2902
-8.2072 -1.9960 2.2902
-7.4308 -3.8429 2.2902
-5.7905 -5.0397 2.1378
-4.3294 -6.1237 2.1378
-2.6764 -6.7842 2.1378
-1.0243 -7.5075 2.2902
0.7708 -7.3015 2.2902
2.4193 -6.6979 2.2902
3.4760 -5.2055 2.0699
4.9973 -4.5562 2.2902
5.8382 -3.1584 2.2902
6.3477 -1.6350 2.2902
6.5159 -0.0522 2.2902
6.3415 1.5259 2.2902
5.8304 3.0365 2.2902
4.9966 4.4165 2.2902
3.8631 5.6018 2.2902
2.4654 6.5275 2.2902
0.4136 3.4542 1.1094
-0.4245 3.4607 1.0780
-2.5313 6.6711 2.1378
-4.1680 6.0577 2.1378
-6.0369 5.3875 2.2902
-7.2980 3.8881 2.2902
-8.1326 2.0824 2.2902
-8.4563 0.1014 2.2902
-8.2327 -1.8985 2.2902
-7.4811 -3.7564 2.2902
-6.2738 -5.3299 2.2902
-4.4080 -6.0792 2.1378
-2.7616 -6.7616 2.1378
-1.1162 -7.5064 2.2902
0.6838 -7.3217 2.2902
2.3416 -6.7366 2.2902
3.3833 -5.2021 2.0494
4.9469 -4.6215 2.2902
5.8039 -3.2318 2.2902
6.3303 -1.7131 2.2902
6.5157 -0.1318 2.2902
6.3583 1.4481 2.2902
5.8638 2.9636 2.2902
5.0456 4.3516 2.2902
3.9264 5.5481 2.2902
2.5408 6.4884 2.2902
0.4560 3.4538 1.1127
-0.3822 3.4604 1.0781
-2.4472 6.6906 2.1378
-4.0892 6.0984 2.1378
-5.9647 5.4526 2.2902
-7.2443 3.9712 2.2902
-8.1025 2.1780 2.2902
-8.4531 0.2023 2.2902
-8.2568 -1.8006 2.2902
-7.5303 -3.6692 2.2902
-6.3434 -5.2598 2.2902
-4.4862 -6.0338 2.1378
-2.8467 -6.7379 2.1378
-1.2083 -7.5042 2.2902
0.5965 -7.3409 2.2902
2.2634 -6.7744 2.2902
3.2922 -5.1988 2.0295
4.8957 -4.6864 2.2902
5.7687 -3.3049 2.2902
6.3120 -1.7911 2.2902
6.5146 -0.2114 2.2902
6.3742 1.3701 2.2902
5.8964 2.8903 2.2902
5.0939 4.2862 2.2902
3.9891 5.4938 2.2902
2.6157 6.4485 2.2902
0.4985 3.4535 1.1161
-0.3401 3.4601 1.0783
-2.3629 6.7090 2.1378
-4.0100 6.1381 2.1378
-5.4995 5.1497 2.1378
-7.1894 4.0536 2.2902
-8.0711 2.2733 2.2902
-8.4484 0.3031 2.2902
-8.2796 -1.7022 2.2902
-7.5784 -3.5813 2.2902
-6.4121 -5.1887 2.2902
-4.5639 -5.9872 2.1378
-2.9316 -6.7130 2.1378
-1.3004 -7.5008 2.2902
0.5087 -7.3591 2.2902
2.1846 -6.8114 2.2902
3.2025 -5.1956 2.0103
4.8437 -4.7508 2.2902
5.7328 -3.3777 2.2902
6.2929 -1.8689 2.2902
6.5126 -0.2909 2.2902
6.3893 1.2920 2.2902
5.9281 2.8167 2.2902
5.1414 4.2203 2.2902
4.0510 5.4390 2.2902
2.6901 6.4078 2.2902
0.5411 3.4531 1.1197
-0.2980 3.4598 1.0787
-2.2785 6.7264 2.1378
-3.9304 6.1767 2.1378
-5.4307 5.2077 2.1378
-7.1335 4.1352 2.2902
-8.0384 2.3680 2.2902
-8.4424 0.4038 2.2902
-8.3010 -1.6037 2.2902
-7.6252 -3.4927 2.2902
-6.4799 -5.1167 2.2902
-4.6410 -5.9396 2.1378
-3.0163 -6.6871 2.1378
-1.3926 -7.4963 2.2902
0.4207 -7.3763 2.2902
2.1053 -6.8475 2.2902
3.1144 -5.1924 1.9916
4.7910 -4.8146 2.2902
5.6960 -3.4502 2.2902
6.2729 -1.9465 2.2902
6.5098 -0.3704 2.2902
6.4036 1.2137 2.2902
5.9590 2.7428 2.2902
5.1882 4.1540 2.2902
4.1123 5.3834 2.2902
2.7639 6.3663 2.2902
0.5839 3.4528 1.1234
-0.2560 3.4594 1.0793
-2.1941 6.7428 2.1378
-3.8504 6.2143 2.1378
-5.3611 5.2665 2.1378
-7.0766 4.2160 2.2902
-8.0045 2.4622 2.2902
-8.4350 0.5043 2.2902
-8.3211 -1.5047 2.2902
-7.6709 -3.4035 2.2902
-6.5468 -5.0437 2.2902
-4.7176 -5.8910 2.1378
-3.1006 -6.6601 2.1378
-1.4849 -7.4907 2.2902
0.3323 -7.3925 2.2902
2.0255 -6.8828 2.2902
3.0276 -5.1893 1.9735
4.7375 -4.8780 2.2902
5.6584 -3.5222 2.2902
6.2521 -2.0240 2.2902
6.5061 -0.4499 2.2902
6.4170 1.1353 2.2902
5.9891 2.6686 2.2902
5.2342 4.0872 2.2902
4.1729 5.3273 2.2902
2.8371 6.3240 2.2902
0.6268 3.4524 1.1274
-0.2141 3.4591 1.0800
-2.1096 6.7580 2.1378
-3.7700 6.2508 2.1378
-5.2909 5.3234 2.1378
-7.0186 4.2960 2.2902
-7.9693 2.5559 2.2902
-8.4262 0.6048 2.2902
-8.3398 -1.4056 2.2902
-7.7154 -3.3135 2.2902
-6.6127 -4.9698 2.2902
-4.7936 -5.8413 2.1378
-3.1849 -6.6320 2.1378
-1.5773 -7.4840 2.2902
0.2437 -7.4076 2.2902
1.9451 -6.9172 2.2902
2.9422 -5.1862 1.9560
4.6832 -4.9408 2.2902
5.6200 -3.5939 2.2902
6.2304 -2.1012 2.2902
6.5015 -0.5294 2.2902
6.4296 1.0567 2.2902
6.0184 2.5942 2.2902
5.2794 4.0200 2.2902
4.2328 5.2705 2.2902
2.9098 6.2809 2.2902
0.6700 3.4521 1.1315
-0.1723 3.4588 1.0809
-2.0353 6.8068 2.1487
-3.6893 6.2863 2.1378
-5.2201 5.3793 2.1378
-6.9597 4.3750 2.2902
-7.9329 2.6491 2.2902
-8.4161 0.7051 2.2902
-8.3572 -1.3063 2.2902
-7.7586 -3.2230 2.2902
-6.6778 -4.8949 2.2902
-4.8691 -5.7906 2.1378
-3.2687 -6.6028 2.1378
-1.6696 -7.4761 2.2902
0.1546 -7.4217 2.2902
1.8642 -6.9507 2.2902
2.8581 -5.1832 1.9390
4.6282 -5.0031 2.2902
5.5807 -3.6654 2.2902
6.2078 -2.1783 2.2902
6.4961 -0.6088 2.2902
6.4413 0.9781 2.2902
6.0469 2.5194 2.2902
5.3239 3.9523 2.2902
4.2920 5.2132 2.2902
2.9818 6.2371 2.2902
0.7133 3.4517 1.1358
-0.1304 3.4585 1.0819
-2.0163 7.0509 2.2214
-3.6083 6.3206 2.1378
-5.1486 5.4344 2.1378
-6.8997 4.4532 2.2902
-7.8952 2.7417 2.2902
-8.4046 0.8052 2.2902
-8.3732 -1.2066 2.2902
-7.8007 -3.1318 2.2902
-6.7418 -4.8191 2.2902
-4.9439 -5.7388 2.1378
-3.3524 -6.5725 2.1378
-1.7620 -7.4670 2.2902
0.0654 -7.4347 2.2902
1.7829 -6.9832 2.2902
2.7752 -5.1802 1.9226
4.5724 -5.0648 2.2902
5.5407 -3.7363 2.2902
6.1845 -2.2551 2.2902
6.4899 -0.6883 2.2902
6.4522 0.8992 2.2902
6.0745 2.4445 2.2902
5.3676 3.8846 2.2902
4.3505 5.1552 2.2902
3.0534 6.1925 2.2902
0.7568 3.4514 1.1403
-0.0887 3.4581 1.0830
-1.9880 7.2822 2.2902
-3.5269 6.3540 2.1378
-5.0765 5.4883 2.1378
-6.8388 4.5307 2.2902
-7.8563 2.8338 2.2902
-8.3917 0.9052 2.2902
-8.3878 -1.1068 2.2902
-7.8415 -3.0401 2.2902
-6.8050 -4.7424 2.2902
-5.0182 -5.6860 2.1378
-3.4358 -6.5411 2.1378
-1.8544 -7.4568 2.2902
-0.0242 -7.4467 2.2902
1.7010 -7.0149 2.2902
2.6935 -5.1772 1.9066
4.5159 -5.1259 2.2902
5.4998 -3.8070 2.2902
6.1602 -2.3318 2.2902
6.4827 -0.7676 2.2902
6.4622 0.8204 2.2902
6.1013 2.3692 2.2902
5.4105 3.8158 2.2902
4.4083 5.0967 2.2902
3.1242 6.1472 2.2902
0.8007 3.4510 1.1449
-0.0470 3.4578 1.0844
-0.9011 3.4643 1.0877
-3.4453 6.3862 2.1378
-5.0037 5.5414 2.1378
-6.7769 4.6072 2.2902
-7.8162 2.9252 2.2902
-8.3775 1.0048 2.2902
-8.4011 -1.0067 2.2902
-7.8812 -2.9477 2.2902
-6.8670 -4.6649 2.2902
-5.0918 -5.6323 2.1378
-3.5189 -6.5086 2.1378
-1.9468 -7.4455 2.2902
-0.1139 -7.4576 2.2902
1.6187 -7.0457 2.2902
2.6463 -5.2406 1.9153
4.4586 -5.1866 2.2902
5.4582 -3.8771 2.2902
6.1352 -2.4081 2.2902
6.4747 -0.8470 2.2902
6.4713 0.7414 2.2902
6.1273 2.2937 2.2902
5.4526 3.7467 2.2902
4.4654 5.0375 2.2902
3.1945 6.1011 2.2902
0.8446 3.4506 1.1498
-0.0053 3.4575 1.0859
-0.8567 3.4640 1.0860
-3.3633 6.4175 2.1378
-4.9305 5.5934 2.1378
-6.7141 4.6828 2.2902
-7.7749 3.0161 2.2902
-8.3619 1.1044 2.2902
-8.4130 -0.9065 2.2902
-7.9195 -2.8548 2.2902
-6.9282 -4.5864 2.2902
-5.1649 -5.5774 2.1378
-3.6016 -6.4750 2.1378
-2.0391 -7.4330 2.2902
-0.2041 -7.4675 2.2902
1.5358 -7.0756 2.2902
2.6409 -5.3911 1.9557
4.4007 -5.2466 2.2902
5.4157 -3.9470 2.2902
6.1093 -2.4844 2.2902
6.4659 -0.9261 2.2902
6.4796 0.6624 2.2902
6.1525 2.2178 2.2902
5.4940 3.6775 2.2902
4.5217 4.9779 2.2902
3.2642 6.0544 2.2902
0.8890 3.4503 1.1548
0.0364 3.4572 1.0875
-0.8125 3.4637 1.0845
-3.2812 6.4476 2.1378
-4.8565 5.6444 2.1378
-6.6503 4.7575 2.2902
-7.7324 3.1063 2.2902
-8.3450 1.2036 2.2902
-8.4236 -0.8060 2.2902
-7.9566 -2.7613 2.2902
-6.9882 -4.5071 2.2902
-5.2372 -5.5216 2.1378
-3.6840 -6.4403 2.1378
-2.1315 -7.4193 2.2902
-0.2945 -7.4763 2.2902
1.4526 -7.1045 2.2902
2.5720 -5.4155 1.9504
4.3419 -5.3060 2.2902
5.3723 -4.0165 2.2902
6.0825 -2.5602 2.2902
6.4562 -1.0053 2.2902
6.4871 0.5831 2.2902
6.1769 2.1418 2.2902
5.5345 3.6078 2.2902
4.5774 4.9176 2.2902
3.3333 6.0068 2.2902
0.9335 3.4499 1.1600
0.0781 3.4568 1.0893
-0.7686 3.4633 1.0831
-3.1987 6.4767 2.1378
-4.7820 5.6945 2.1378
-6.5857 4.8312 2.2902
-3.7535 1.5602 1.1180
-8.3267 1.3026 2.2902
-8.4327 -0.7054 2.2902
-7.9924 -2.6674 2.2902
-7.0473 -4.4269 2.2902
-5.3089 -5.4648 2.1378
-3.7661 -6.4045 2.1378
-2.2238 -7.4044 2.2902
-0.3850 -7.4840 2.2902
1.3688 -7.1325 2.2902
2.5042 -5.4417 1.9460
4.2824 -5.3649 2.2902
5.3283 -4.0854 2.2902
6.0549 -2.6360 2.2902
6.4456 -1.0845 2.2902
6.4937 0.5040 2.2902
6.2003 2.0656 2.2902
5.5743 3.5377 2.2902
4.6324 4.8568 2.2902
3.4017 5.9586 2.2902
0.9784 3.4495 1.1655
0.1199 3.4565 1.0913
-0.7249 3.4630 1.0819
-3.1160 6.5047 2.1378
-4.7071 5.7434 2.1378
-6.5200 4.9042 2.2902
-3.7405 1.6075 1.1207
-8.3071 1.4012 2.2902
-8.4405 -0.6048 2.2902
-8.0270 -2.5728 2.2902
-7.1054 -4.3458 2.2902
-5.3798 -5.4070 2.1378
-3.8478 -6.3677 2.1378
-2.3161 -7.3884 2.2902
-0.4758 -7.4907 2.2902
1.2847 -7.1595 2.2902
2.4426 -5.4814 1.9467
4.2222 -5.4231 2.2902
5.2833 -4.1541 2.2902
6.0265 -2.7114 2.2902
6.4342 -1.1634 2.2902
6.4994 0.4246 2.2902
6.2230 1.9891 2.2902
5.6132 3.4672 2.2902
4.6866 4.7955 2.2902
3.4696 5.9097 2.2902
1.0235 3.4492 1.1711
0.1616 3.4562 1.0934
-0.6815 3.4627 1.0809
-3.0330 6.5317 2.1378
-4.6315 5.7914 2.1378
-6.4536 4.9760 2.2902
-7.5979 3.3732 2.2902
-8.2861 1.4997 2.2902
-8.4469 -0.5040 2.2902
-8.0603 -2.4779 2.2902
-7.1623 -4.2640 2.2902
-5.4501 -5.3482 2.1378
-3.9291 -6.3297 2.1378
-2.4081 -7.3713 2.2902
-0.5667 -7.4962 2.2902
1.2001 -7.1856 2.2902
2.3873 -5.5366 1.9531
4.1613 -5.4807 2.2902
5.2377 -4.2228 2.2902
5.9972 -2.7866 2.2902
6.4219 -1.2423 2.2902
6.5043 0.3453 2.2902
6.2449 1.9124 2.2902
5.6515 3.3963 2.2902
4.7401 4.7336 2.2902
3.5367 5.8601 2.2902
1.0690 3.4488 1.1769
0.2035 3.4558 1.0956
-0.6382 3.4624 1.0800
-2.9499 6.5575 2.1378
-4.5555 5.8384 2.1378
-6.3862 5.0470 2.2902
-7.5507 3.4608 2.2902
-8.2638 1.5977 2.2902
-8.4519 -0.4032 2.2902
-8.0923 -2.3823 2.2902
-7.2182 -4.1813 2.2902
-5.5197 -5.2885 2.1378
-4.0100 -6.2907 2.1378
-2.4173 -7.1091 2.2142
-0.6579 -7.5007 2.2902
1.1151 -7.2107 2.2902
2.3405 -5.6138 1.9674
4.0996 -5.5378 2.2902
5.1912 -4.2899 2.2902
5.9671 -2.8615 2.2902
6.4088 -1.3210 2.2902
6.5084 0.2658 2.2902
6.2659 1.8355 2.2902
5.6888 3.3251 2.2902
4.7929 4.6713 2.2902
3.6033 5.8098 2.2902
2.1582 6.6759 2.2902
0.2453 3.4555 1.0981
-0.5952 3.4620 1.0793
-2.8665 6.5824 2.1378
-4.4789 5.8843 2.1378
-6.3181 5.1172 2.2902
-7.5024 3.5477 2.2902
-8.2402 1.6954 2.2902
-8.4556 -0.3023 2.2902
-8.1230 -2.2865 2.2902
-7.2730 -4.0979 2.2902
-5.5885 -5.2277 2.1378
-4.0905 -6.2505 2.1378
-2.4224 -6.8534 2.1403
-0.7492 -7.5040 2.2902
1.0296 -7.2349 2.2902
2.3126 -5.7416 1.9993
4.0373 -5.5942 2.2902
5.1439 -4.3571 2.2902
5.9361 -2.9362 2.2902
6.3948 -1.3998 2.2902
6.5115 0.1864 2.2902
6.2860 1.7584 2.2902
5.7254 3.2535 2.2902
4.8449 4.6083 2.2902
3.6692 5.7588 2.2902
2.2357 6.6401 2.2902
0.2873 3.4552 1.1007
-0.5522 3.4617 1.0787
-2.7830 6.6061 2.1378
-4.4020 5.9292 2.1378
-6.2490 5.1862 2.2902
-7.4530 3.6339 2.2902
-8.2153 1.7927 2.2902
-8.4578 -0.2015 2.2902
-8.1524 -2.1900 2.2902
-7.3267 -4.0137 2.2902
-5.6566 -5.1661 2.1378
-4.1705 -6.2093 2.1378
-2.5054 -6.8261 2.1378
-0.8408 -7.5063 2.2902
0.9438 -7.2580 2.2902
2.5731 -6.6180 2.2902
3.9742 -5.6500 2.2902
5.0958 -4.4240 2.2902
5.9043 -3.0105 2.2902
6.3800 -1.4782 2.2902
6.5139 0.1069 2.2902
6.3054 1.6811 2.2902
5.7612 3.1816 2.2902
4.8962 4.5449 2.2902
3.7345 5.7071 2.2902
2.3128 6.6034 2.2902
0.3293 3.4548 1.1034
-0.5096 3.4614 1.0783
-2.6992 6.6288 2.1378
-4.3244 5.9731 2.1378
-6.1792 5.2542 2.2902
-7.4025 3.7193 2.2902
-8.1890 1.8897 2.2902
-8.4587 -0.1004 2.2902
-8.1804 -2.0933 2.2902
-7.3793 -3.9287 2.2902
-5.7240 -5.1034 2.1378
-4.2502 -6.1670 2.1378
-2.5909 -6.8057 2.1378
-0.9324 -7.5074 2.2902
0.8575 -7.2803 2.2902
2.4965 -6.6583 2.2902
3.9105 -5.7050 2.2902
5.0470 -4.4902 2.2902
5.8716 -3.0846 2.2902
6.3642 -1.5567 2.2902
6.5153 0.0274 2.2902
6.3238 1.6037 2.2902
5.7962 3.1092 2.2902
4.9467 4.4810 2.2902
3.7991 5.6548 2.2902
2.3893 6.5659 2.2902
0.3714 3.4545 1.1063
-0.4670 3.4611 1.0781
-2.6154 6.6505 2.1378
-4.2465 6.0158 2.1378
-6.1084 5.3214 2.2902
-7.3508 3.8041 2.2902
-8.1615 1.9861 2.2902
-8.4582 0.0004 2.2902
-8.2072 -1.9961 2.2902
-7.4308 -3.8429 2.2902
-5.7905 -5.0398 2.1378
-4.3293 -6.1237 2.1378
-2.6763 -6.7842 2.1378
-1.0242 -7.5075 2.2902
0.7709 -7.3015 2.2902
2.4194 -6.6978 2.2902
3.4761 -5.2055 2.0699
4.9973 -4.5561 2.2902
5.8382 -3.1582 2.2902
6.3477 -1.6349 2.2902
6.5159 -0.0522 2.2902
6.3415 1.5260 2.2902
5.8304 3.0367 2.2902
4.9965 4.4166 2.2902
3.8631 5.6018 2.2902
2.4653 6.5276 2.2902
0.4136 3.4542 1.1094
-0.4246 3.4607 1.0780
-2.5314 6.6711 2.1378
-4.1681 6.0576 2.1378
-6.0370 5.3874 2.2902
-7.2981 3.8880 2.2902
-8.1327 2.0823 2.2902
-8.4563 0.1014 2.2902
-8.2326 -1.8986 2.2902
-7.4811 -3.7565 2.2902
-6.2737 -5.3300 2.2902
-4.4080 -6.0793 2.1378
-2.7615 -6.7616 2.1378
-1.1161 -7.5064 2.2902
0.6839 -7.3217 2.2902
2.3417 -6.7366 2.2902
3.3834 -5.2021 2.0494
4.9469 -4.6215 2.2902
5.8039 -3.2317 2.2902
6.3303 -1.7131 2.2902
6.5157 -0.1316 2.2902
6.3583 1.4482 2.2902
5.8637 2.9636 2.2902
5.0456 4.3516 2.2902
3.9263 5.5482 2.2902
2.5407 6.4885 2.2902
0.4560 3.4538 1.1127
-0.3823 3.4604 1.0781
-2.4473 6.6906 2.1378
-4.0893 6.0983 2.1378
-5.9647 5.4526 2.2902
-7.2443 3.9712 2.2902
-8.1026 2.1779 2.2902
-8.4531 0.2021 2.2902
-8.2568 -1.8006 2.2902
-7.5303 -3.6693 2.2902
-6.3434 -5.2598 2.2902
-4.4861 -6.0338 2.1378
-2.8466 -6.7379 2.1378
-1.2082 -7.5042 2.2902
0.5965 -7.3409 2.2902
2.2635 -6.7744 2.2902
3.2923 -5.1988 2.0295
4.8957 -4.6864 2.2902
5.7687 -3.3049 2.2902
6.3120 -1.7910 2.2902
6.5146 -0.2113 2.2902
6.3742 1.3702 2.2902
5.8963 2.8903 2.2902
5.0938 4.2863 2.2902
3.9890 5.4939 2.2902
2.6157 6.4485 2.2902
0.4953 3.4530 1.2030
-0.3432 3.4596 1.1647
-2.1888 6.1975 2.1378
-3.7026 5.6578 2.1378
-5.0658 4.7372 2.1378
-6.6100 3.7226 2.2902
-7.4110 2.0849 2.2902
-7.7523 0.2774 2.2902
-7.5976 -1.5611 2.2902
-6.9593 -3.2859 2.2902
-5.5041 -4.4492 2.1378
-4.2054 -5.5090 2.1378
-2.7088 -6.1892 2.1378
-1.2079 -6.9304 2.2902
0.4647 -6.8142 2.2902
2.0207 -6.3200 2.2902
3.3851 -5.5021 2.2902
4.5032 -4.4231 2.2902
5.3373 -3.1486 2.2902
5.8642 -1.7438 2.2902
6.0717 -0.2720 2.2902
5.9568 1.2051 2.2902
5.5241 2.6269 2.2902
4.7863 3.9330 2.2902
3.7655 5.0628 2.2902
2.4946 5.9555 2.2902
0.5379 3.4527 1.2067
-0.3011 3.4593 1.1650
-2.1111 6.2142 2.1378
-3.6296 5.6940 2.1378
-5.0029 4.7919 2.1378
-6.5592 3.7979 2.2902
-7.3814 2.1719 2.2902
-7.7469 0.3697 2.2902
-7.6172 -1.4707 2.2902
-7.0019 -3.2045 2.2902
-5.5618 -4.3871 2.1378
-4.2759 -5.4647 2.1378
-2.7866 -6.1646 2.1378
-1.2930 -6.9255 2.2902
0.3831 -6.8294 2.2902
1.9469 -6.3529 2.2902
3.3224 -5.5497 2.2902
4.4538 -4.4822 2.2902
5.3028 -3.2160 2.2902
5.8454 -1.8161 2.2902
6.0690 -0.3462 2.2902
5.9701 1.1321 2.2902
5.5531 2.5581 2.2902
4.8302 3.8714 2.2902
3.8228 5.0114 2.2902
2.5634 5.9175 2.2902
0.5807 3.4523 1.2107
-0.2591 3.4590 1.1655
-2.0492 6.2789 2.1546
-3.5562 5.7292 2.1378
-4.9394 4.8456 2.1378
-6.5074 3.8723 2.2902
-7.3506 2.2585 2.2902
-7.7403 0.4619 2.2902
-7.6355 -1.3800 2.2902
-7.0435 -3.1224 2.2902
-5.6188 -4.3242 2.1378
-4.3460 -5.4195 2.1378
-2.8641 -6.1391 2.1378
-1.3781 -6.9195 2.2902
0.3013 -6.8436 2.2902
1.8726 -6.3850 2.2902
3.2590 -5.5967 2.2902
4.4037 -4.5409 2.2902
5.2674 -3.2830 2.2902
5.8258 -1.8883 2.2902
6.0655 -0.4204 2.2902
5.9827 1.0589 2.2902
5.5813 2.4889 2.2902
4.8733 3.8093 2.2902
3.8795 4.9595 2.2902
2.6317 5.8786 2.2902
0.6236 3.4520 1.2148
-0.2172 3.4587 1.1661
-2.0321 6.4898 2.2216
-3.4825 5.7635 2.1378
-4.8753 4.8984 2.1378
-6.4546 3.9461 2.2902
-7.3187 2.3446 2.2902
-7.7324 0.5540 2.2902
-7.6525 -1.2891 2.2902
-7.0840 -3.0398 2.2902
-5.6749 -4.2605 2.1378
-4.4156 -5.3733 2.1378
-2.9414 -6.1125 2.1378
-1.4632 -6.9125 2.2902
0.2192 -6.8569 2.2902
1.7979 -6.4162 2.2902
3.1950 -5.6430 2.2902
4.3528 -4.5990 2.2902
5.2314 -3.3497 2.2902
5.8054 -1.9603 2.2902
6.0612 -0.4946 2.2902
5.9945 0.9856 2.2902
5.6088 2.4195 2.2902
4.9157 3.7469 2.2902
3.9355 4.9070 2.2902
2.6995 5.8391 2.2902
0.6668 3.4516 1.2191
-0.1754 3.4583 1.1669
-2.0113 6.7048 2.2902
-3.4084 5.7968 2.1378
-4.8105 4.9504 2.1378
-6.4009 4.0191 2.2902
-7.2856 2.4302 2.2902
-7.7233 0.6460 2.2902
-7.6684 -1.1980 2.2902
-7.1234 -2.9567 2.2902
-5.7303 -4.1960 2.1378
-4.4846 -5.3261 2.1378
-3.0185 -6.0850 2.1378
-1.5484 -6.9045 2.2902
0.1368 -6.8692 2.2902
1.7227 -6.4466 2.2902
3.1305 -5.6886 2.2902
4.3013 -4.6566 2.2902
5.1945 -3.4160 2.2902
5.7841 -2.0321 2.2902
6.0560 -0.5687 2.2902
6.0054 0.9122 2.2902
5.6355 2.3499 2.2902
4.9574 3.6840 2.2902
3.9909 4.8539 2.2902
2.7667 5.7988 2.2902
0.7101 3.4513 1.2236
-0.1336 3.4580 1.1679
-1.9277 6.7185 2.2902
-3.3340 5.8292 2.1378
-4.7451 5.0015 2.1378
-6.3464 4.0913 2.2902
-7.2515 2.5153 2.2902
-7.7129 0.7378 2.2902
-7.6830 -1.1066 2.2902
-7.1617 -2.8729 2.2902
-5.7848 -4.1308 2.1378
-4.5530 -5.2781 2.1378
-3.0952 -6.0565 2.1378
-1.6335 -6.8954 2.2902
0.0541 -6.8805 2.2902
1.6471 -6.4762 2.2902
2.7703 -5.1817 2.0697
4.2491 -4.7137 2.2902
5.1569 -3.4820 2.2902
5.7621 -2.1037 2.2902
6.0501 -0.6428 2.2902
6.0156 0.8387 2.2902
5.6615 2.2799 2.2902
4.9983 3.6207 2.2902
4.0456 4.8002 2.2902
2.8334 5.7579 2.2902
0.7536 3.4509 1.2283
-0.0918 3.4577 1.1690
-1.8440 6.7313 2.2902
-3.2593 5.8606 2.1378
-4.6792 5.0518 2.1378
-6.2909 4.1627 2.2902
-7.2161 2.5999 2.2902
-7.7013 0.8295 2.2902
-7.6963 -1.0150 2.2902
-7.1989 -2.7886 2.2902
-6.2547 -4.3546 2.2902
-4.6209 -5.2291 2.1378
-3.1717 -6.0269 2.1378
-1.7187 -6.8852 2.2902
-0.0288 -6.8909 2.2902
1.5710 -6.5049 2.2902
2.6885 -5.1787 2.0527
4.1962 -4.7703 2.2902
5.1185 -3.5476 2.2902
5.7393 -2.1751 2.2902
6.0434 -0.7168 2.2902
6.0250 0.7651 2.2902
5.6866 2.2098 2.2902
5.0386 3.5570 2.2902
4.0997 4.7460 2.2902
2.8996 5.7162 2.2902
0.7974 3.4506 1.2332
-0.0501 3.4574 1.1703
-0.9043 3.4639 1.1764
-3.1844 5.8909 2.1378
-4.6127 5.1010 2.1378
-6.2345 4.2333 2.2902
-7.1797 2.6840 2.2902
-7.6884 0.9209 2.2902
-7.7085 -0.9233 2.2902
-7.2349 -2.7038 2.2902
-6.3113 -4.2831 2.2902
-4.6882 -5.1791 2.1378
-3.2480 -5.9963 2.1378
-1.8038 -6.8740 2.2902
-0.1119 -6.9002 2.2902
1.4945 -6.5328 2.2902
2.6451 -5.2495 2.0652
4.1426 -4.8263 2.2902
5.0794 -3.6128 2.2902
5.7157 -2.2463 2.2902
6.0358 -0.7908 2.2902
6.0335 0.6914 2.2902
5.7110 2.1394 2.2902
5.0781 3.4929 2.2902
4.1532 4.6913 2.2902
2.9652 5.6738 2.2902
0.8414 3.4502 1.2383
-0.0084 3.4570 1.1718
-0.8598 3.4635 1.1745
-3.1091 5.9204 2.1378
-4.5456 5.1494 2.1378
-6.1773 4.3032 2.2902
-7.1422 2.7675 2.2902
-7.6743 1.0122 2.2902
-7.7193 -0.8314 2.2902
-7.2698 -2.6185 2.2902
-6.3670 -4.2108 2.2902
-4.7549 -5.1283 2.1378
-3.3238 -5.9648 2.1378
-1.8889 -6.8617 2.2902
-0.1952 -6.9086 2.2902
1.4176 -6.5598 2.2902
2.6727 -5.4681 2.1355
4.0883 -4.8818 2.2902
5.0395 -3.6776 2.2902
5.6913 -2.3172 2.2902
6.0274 -0.8647 2.2902
6.0413 0.6176 2.2902
5.7346 2.0687 2.2902
5.1168 3.4284 2.2902
4.2059 4.6359 2.2902
3.0303 5.6307 2.2902
0.8857 3.4498 1.2436
0.0333 3.4567 1.1735
-0.8157 3.4632 1.1727
-3.0336 5.9488 2.1378
-4.4780 5.1969 2.1378
-6.1191 4.3722 2.2902
-7.1037 2.8505 2.2902
-7.6590 1.1032 2.2902
-7.7290 -0.7393 2.2902
-7.3036 -2.5327 2.2902
-6.4218 -4.1377 2.2902
-4.8210 -5.0765 2.1378
-3.3994 -5.9322 2.1378
-1.9739 -6.8483 2.2902
-0.2787 -6.9160 2.2902
1.3402 -6.5860 2.2902
2.5912 -5.4682 2.1203
4.0333 -4.9367 2.2902
4.9989 -3.7421 2.2902
5.6661 -2.3880 2.2902
6.0183 -0.9386 2.2902
6.0483 0.5437 2.2902
5.7575 1.9978 2.2902
5.1549 3.3635 2.2902
4.2581 4.5801 2.2902
3.0948 5.5870 2.2902
0.9302 3.4495 1.2492
0.0750 3.4564 1.1753
-0.7718 3.4629 1.1711
-2.9578 5.9763 2.1378
-4.4099 5.2435 2.1378
-6.0602 4.4404 2.2902
-3.7540 1.5586 1.2171
-7.6425 1.1940 2.2902
-7.7374 -0.6472 2.2902
-7.3362 -2.4464 2.2902
-6.4756 -4.0638 2.2902
-4.8865 -5.0239 2.1378
-3.4746 -5.8987 2.1378
-2.0589 -6.8339 2.2902
-0.3625 -6.9224 2.2902
1.2625 -6.6112 2.2902
2.5216 -5.4921 2.1147
3.9777 -4.9911 2.2902
4.9575 -3.8061 2.2902
5.6402 -2.4584 2.2902
6.0083 -1.0123 2.2902
6.0544 0.4697 2.2902
5.7795 1.9267 2.2902
5.1922 3.2982 2.2902
4.3095 4.5238 2.2902
3.1587 5.5426 2.2902
0.9751 3.4491 1.2549
0.1167 3.4561 1.1773
-0.7281 3.4626 1.1696
-2.8818 6.0028 2.1378
-4.3413 5.2892 2.1378
-6.0004 4.5077 2.2902
-3.7394 1.6051 1.2193
-7.6247 1.2845 2.2902
-7.7445 -0.5549 2.2902
-7.3677 -2.3597 2.2902
-6.5284 -3.9893 2.2902
-4.9513 -4.9703 2.1378
-3.5496 -5.8641 2.1378
-2.1438 -6.8184 2.2902
-0.4464 -6.9278 2.2902
1.1843 -6.6356 2.2902
2.4613 -5.5367 2.1174
3.9214 -5.0449 2.2902
4.9154 -3.8698 2.2902
5.6134 -2.5287 2.2902
5.9975 -1.0860 2.2902
6.0598 0.3957 2.2902
5.8008 1.8554 2.2902
5.2287 3.2326 2.2902
4.3603 4.4669 2.2902
3.2220 5.4975 2.2902
1.0202 3.4487 1.2608
0.1585 3.4557 1.1794
-0.6846 3.4622 1.1684
-2.8055 6.0283 2.1378
-4.2721 5.3339 2.1378
-5.5445 4.2699 2.1378
-6.9814 3.0960 2.2902
-7.6058 1.3748 2.2902
-7.7504 -0.4625 2.2902
-7.3980 -2.2725 2.2902
-6.5804 -3.9139 2.2902
-5.0155 -4.9159 2.1378
-3.6241 -5.8286 2.1378
-2.2286 -6.8018 2.2902
-0.5305 -6.9321 2.2902
1.1058 -6.6591 2.2902
2.4126 -5.6089 2.1309
3.8644 -5.0981 2.2902
4.8725 -3.9331 2.2902
5.5859 -2.5987 2.2902
5.9859 -1.1596 2.2902
6.0643 0.3217 2.2902
5.8213 1.7839 2.2902
5.2645 3.1667 2.2902
4.4104 4.4095 2.2902
3.2848 5.4517 2.2902
1.0657 3.4483 1.2670
0.2003 3.4554 1.1818
-0.6413 3.4619 1.1673
-2.7290 6.0529 2.1378
-4.2025 5.3777 2.1378
-5.4872 4.3312 2.1378
-6.9386 3.1766 2.2902
-7.5856 1.4648 2.2902
-7.7550 -0.3701 2.2902
-7.4271 -2.1849 2.2902
-6.6313 -3.8378 2.2902
-5.0791 -4.8606 2.1378
-3.6982 -5.7921 2.1378
-2.3132 -6.7841 2.2902
-0.6147 -6.9355 2.2902
1.0269 -6.6817 2.2902
2.5233 -6.0674 2.2902
3.8068 -5.1507 2.2902
4.8289 -3.9959 2.2902
5.5575 -2.6684 2.2902
5.9735 -1.2330 2.2902
6.0681 0.2476 2.2902
5.8410 1.7122 2.2902
5.2996 3.1004 2.2902
4.4598 4.3516 2.2902
3.3470 5.4053 2.2902
1.9989 6.2010 2.2902
0.2422 3.4551 1.1843
-0.5983 3.4616 1.1664
-2.6524 6.0765 2.1378
-4.1324 5.4205 2.1378
-5.4291 4.3916 2.1378
-6.8947 3.2566 2.2902
-7.5642 1.5544 2.2902
-7.7584 -0.2776 2.2902
-7.4550 -2.0969 2.2902
-6.6812 -3.7610 2.2902
-5.1419 -4.8044 2.1378
-3.7719 -5.7546 2.1378
-2.3952 -6.7579 2.2876
-0.6991 -6.9379 2.2902
0.9476 -6.7034 2.2902
2.4530 -6.1058 2.2902
3.7485 -5.2028 2.2902
4.7846 -4.0582 2.2902
5.5284 -2.7379 2.2902
5.9603 -1.3064 2.2902
6.0710 0.1734 2.2902
5.8599 1.6402 2.2902
5.3339 3.0339 2.2902
4.5085 4.2933 2.2902
3.4086 5.3583 2.2902
2.0712 6.1683 2.2902
0.2841 3.4547 1.1869
-0.5554 3.4613 1.1657
-2.5755 6.0991 2.1378
-4.0618 5.4624 2.1378
-5.3704 4.4513 2.1378
-6.8498 3.3359 2.2902
-7.5417 1.6437 2.2902
-7.7605 -0.1851 2.2902
-7.4818 -2.0085 2.2902
-6.7301 -3.6835 2.2902
-5.2041 -4.7473 2.1378
-3.8453 -5.7161 2.1378
-2.4007 -6.5240 2.2149
-0.7836 -6.9392 2.2902
0.8680 -6.7242 2.2902
2.3822 -6.1435 2.2902
3.6895 -5.2542 2.2902
4.7395 -4.1202 2.2902
5.4985 -2.8071 2.2902
5.9463 -1.3796 2.2902
6.0732 0.0993 2.2902
5.8780 1.5682 2.2902
5.3675 2.9667 2.2902
4.5566 4.2344 2.2902
3.4696 5.3106 2.2902
2.1429 6.1348 2.2902
0.3261 3.4544 1.1898
-0.5127 3.4609 1.1652
-2.4985 6.1207 2.1378
-3.9909 5.5034 2.1378
-5.3108 4.5101 2.1378
-6.8038 3.4146 2.2902
-7.5179 1.7327 2.2902
-7.7614 -0.0926 2.2902
-7.5074 -1.9197 2.2902
-6.7780 -3.6053 2.2902
-5.2655 -4.6894 2.1378
-3.9182 -5.6766 2.1378
-2.4058 -6.3037 2.1468
-0.8683 -6.9395 2.2902
0.7880 -6.7440 2.2902
2.3110 -6.1804 2.2902
3.6300 -5.3050 2.2902
4.6937 -4.1817 2.2902
5.4678 -2.8759 2.2902
5.9315 -1.4527 2.2902
6.0745 0.0250 2.2902
5.8953 1.4959 2.2902
5.4003 2.8994 2.2902
4.6039 4.1751 2.2902
3.5300 5.2623 2.2902
2.2142 6.1004 2.2902
0.3682 3.4541 1.1928
-0.4701 3.4606 1.1648
-2.4213 6.1413 2.1378
-3.9194 5.5434 2.1378
-5.2506 4.5681 2.1378
-6.7569 3.4928 2.2902
-7.4929 1.8213 2.2902
-7.7610 -0.0001 2.2902
-7.5317 -1.8306 2.2902
-6.8249 -3.5265 2.2902
-5.3263 -4.6306 2.1378
-3.9907 -5.6362 2.1378
-2.4742 -6.2567 2.1378
-0.9530 -6.9388 2.2902
0.7077 -6.7630 2.2902
2.2392 -6.2164 2.2902
3.5697 -5.3552 2.2902
4.6472 -4.2427 2.2902
5.4364 -2.9446 2.2902
5.9159 -1.5257 2.2902
6.0750 -0.0492 2.2902
5.9119 1.4234 2.2902
5.4324 2.8315 2.2902
4.6506 4.1153 2.2902
3.5897 5.2133 2.2902
2.2851 6.0654 2.2902
0.4104 3.4537 1.1960
-0.4277 3.4603 1.1646
-2.3440 6.1610 2.1378
-3.8476 5.5825 2.1378
-5.1897 4.6254 2.1378
-6.7089 3.5700 2.2902
-7.4668 1.9095 2.2902
-7.7594 0.0924 2.2902
-7.5549 -1.7411 2.2902
-6.8707 -3.4469 2.2902
-5.3863 -4.5710 2.1378
-4.0627 -5.5948 2.1378
-2.5526 -6.2352 2.1378
-1.0379 -6.9370 2.2902
0.6270 -6.7810 2.2902
2.1668 -6.2517 2.2902
3.5088 -5.4048 2.2902
4.5999 -4.3033 2.2902
5.4042 -3.0128 2.2902
5.8995 -1.5985 2.2902
6.0747 -0.1234 2.2902
5.9276 1.3508 2.2902
5.4637 2.7638 2.2902
4.6965 4.0550 2.2902
3.6489 5.1638 2.2902
2.3554 6.0295 2.2902
0.4528 3.4534 1.1994
-0.3854 3.4600 1.1645
-2.2665 6.1797 2.1378
-3.7753 5.6206 2.1378
-5.1282 4.6817 2.1378
-6.6600 3.6466 2.2902
-7.4395 1.9974 2.2902
-7.7565 0.1849 2.2902
-7.5769 -1.6513 2.2902
-6.9155 -3.3668 2.2902
-5.4455 -4.5105 2.1378
-4.1342 -5.5524 2.1378
-2.6307 -6.2127 2.1378
-1.1228 -6.9342 2.2902
0.5461 -6.7980 2.2902
2.0940 -6.2863 2.2902
3.4473 -5.4537 2.2902
4.5519 -4.3634 2.2902
5.3711 -3.0809 2.2902
5.8822 -1.6712 2.2902
6.0736 -0.1977 2.2902
5.9426 1.2781 2.2902
5.4942 2.6955 2.2902
4.7418 3.9943 2.2902
3.7075 5.1136 2.2902
2.4252 5.9929 2.2902
0.4953 3.4530 1.2030
-0.3432 3.4596 1.1647
-2.1888 6.1974 2.1378
-3.7027 5.6578 2.1378
-5.0659 4.7372 2.1378
-6.6101 3.7226 2.2902
-7.4110 2.0849 2.2902
-7.7523 0.2773 2.2902
-7.5976 -1.5612 2.2902
-6.9592 -3.2860 2.2902
-5.5041 -4.4492 2.1378
-4.2053 -5.5091 2.1378
-2.7088 -6.1892 2.1378
-1.2078 -6.9303 2.2902
0.4648 -6.8142 2.2902
2.0207 -6.3200 2.2902
3.3852 -5.5020 2.2902
4.5032 -4.4230 2.2902
5.3373 -3.1486 2.2902
5.8642 -1.7437 2.2902
6.0717 -0.2719 2.2902
5.9567 1.2052 2.2902
5.5240 2.6270 2.2902
4.7863 3.9331 2.2902
3.7654 5.0628 2.2902
2.4945 5.9556 2.2902
0.5379 3.4527 1.2067
-0.3012 3.4593 1.1650
-2.1111 6.2142 2.1378
-3.6297 5.6940 2.1378
-5.0030 4.7918 2.1378
-6.5592 3.7978 2.2902
-7.3814 2.1719 2.2902
-7.7469 0.3696 2.2902
-7.6171 -1.4708 2.2902
-7.0019 -3.2045 2.2902
-5.5618 -4.3871 2.1378
-4.2759 -5.4648 2.1378
-2.7865 -6.1646 2.1378
-1.2929 -6.9255 2.2902
0.3832 -6.8294 2.2902
1.9470 -6.3529 2.2902
3.3224 -5.5497 2.2902
4.4538 -4.4822 2.2902
5.3028 -3.2159 2.2902
5.8454 -1.8160 2.2902
6.0690 -0.3461 2.2902
5.9701 1.1322 2.2902
5.5530 2.5581 2.2902
4.8301 3.8715 2.2902
3.8227 5.0115 2.2902
2.5633 5.9175 2.2902
0.5806 3.4523 1.2107
-0.2592 3.4590 1.1655
-2.0493 6.2788 2.1545
-3.5563 5.7292 2.1378
-4.9395 4.8455 2.1378
-6.5074 3.8723 2.2902
-7.3506 2.2584 2.2902
-7.7403 0.4618 2.2902
-7.6355 -1.3800 2.2902
-7.0435 -3.1225 2.2902
-5.6187 -4.3242 2.1378
-4.3460 -5.4195 2.1378
-2.8640 -6.1391 2.1378
-1.3780 -6.9195 2.2902
0.3014 -6.8436 2.2902
1.8728 -6.3849 2.2902
3.2590 -5.5967 2.2902
4.4037 -4.5408 2.2902
5.2675 -3.2829 2.2902
5.8258 -1.8883 2.2902
6.0655 -0.4203 2.2902
5.9827 1.0590 2.2902
5.5813 2.4890 2.2902
4.8733 3.8094 2.2902
3.8794 4.9595 2.2902
2.6316 5.8787 2.2902
0.6236 3.4520 1.2148
-0.2172 3.4587 1.1661
-2.0321 6.4895 2.2215
-3.4826 5.7635 2.1378
-4.8753 4.8984 2.1378
-6.4546 3.9460 2.2902
-7.3187 2.3444 2.2902
-7.7324 0.5539 2.2902
-7.6525 -1.2892 2.2902
-7.0840 -3.0399 2.2902
-5.6749 -4.2606 2.1378
-4.4155 -5.3733 2.1378
-2.9414 -6.1126 2.1378
-1.4632 -6.9125 2.2902
0.2193 -6.8569 2.2902
1.7980 -6.4162 2.2902
3.1951 -5.6429 2.2902
4.3529 -4.5990 2.2902
5.2314 -3.3496 2.2902
5.8054 -1.9602 2.2902
6.0612 -0.4945 2.2902
5.9945 0.9857 2.2902
5.6088 2.4197 2.2902
4.9156 3.7469 2.2902
3.9354 4.9070 2.2902
2.6995 5.8391 2.2902
0.6667 3.4516 1.2191
-0.1754 3.4583 1.1669
-2.0113 6.7048 2.2902
-3.4085 5.7968 2.1378
-4.8106 4.9504 2.1378
-6.4010 4.0190 2.2902
-7.2857 2.4301 2.2902
-7.7233 0.6459 2.2902
-7.6683 -1.1981 2.2902
-7.1233 -2.9568 2.2902
-5.7302 -4.1961 2.1378
-4.4845 -5.3262 2.1378
-3.0183 -6.0851 2.1378
-1.5483 -6.9045 2.2902
0.1368 -6.8692 2.2902
1.7227 -6.4466 2.2902
3.1306 -5.6885 2.2902
4.3014 -4.6566 2.2902
5.1945 -3.4159 2.2902
5.7841 -2.0320 2.2902
6.0561 -0.5686 2.2902
6.0054 0.9123 2.2902
5.6355 2.3499 2.2902
4.9574 3.6840 2.2902
3.9908 4.8540 2.2902
2.7666 5.7989 2.2902
0.7100 3.4513 1.2236
-0.1336 3.4580 1.1679
-1.9278 6.7185 2.2902
-3.3341 5.8291 2.1378
-4.7452 5.0015 2.1378
-6.3464 4.0912 2.2902
-7.2515 2.5151 2.2902
-7.7129 0.7377 2.2902
-7.6830 -1.1067 2.2902
-7.1617 -2.8730 2.2902
-5.7847 -4.1309 2.1378
-4.5529 -5.2781 2.1378
-3.0952 -6.0565 2.1378
-1.6335 -6.8954 2.2902
0.0543 -6.8805 2.2902
1.6472 -6.4762 2.2902
2.7703 -5.1817 2.0697
4.2491 -4.7137 2.2902
5.1570 -3.4819 2.2902
5.7622 -2.1036 2.2902
6.0501 -0.6427 2.2902
6.0156 0.8387 2.2902
5.6614 2.2801 2.2902
4.9983 3.6207 2.2902
4.0456 4.8003 2.2902
2.8334 5.7579 2.2902
0.7536 3.4509 1.2283
-0.0919 3.4577 1.1690
-1.8441 6.7313 2.2902
-3.2594 5.8605 2.1378
-4.6793 5.0517 2.1378
-6.2909 4.1626 2.2902
-7.2162 2.5998 2.2902
-7.7013 0.8294 2.2902
-7.6963 -1.0152 2.2902
-7.1988 -2.7888 2.2902
-6.2547 -4.3547 2.2902
-4.6209 -5.2291 2.1378
-3.1716 -6.0269 2.1378
-1.7186 -6.8852 2.2902
-0.0287 -6.8908 2.2902
1.5710 -6.5049 2.2902
2.6887 -5.1787 2.0527
4.1963 -4.7702 2.2902
5.1186 -3.5475 2.2902
5.7393 -2.1750 2.2902
6.0434 -0.7167 2.2902
6.0250 0.7652 2.2902
5.6866 2.2099 2.2902
5.0385 3.5570 2.2902
4.0996 4.7460 2.2902
2.8995 5.7162 2.2902
0.7974 3.4506 1.2332
-0.0501 3.4574 1.1703
-0.9044 3.4639 1.1764
-3.1845 5.8909 2.1378
-4.6128 5.1010 2.1378
-6.2345 4.2333 2.2902
-7.1798 2.6838 2.2902
-7.6884 0.9208 2.2902
-7.7085 -0.9234 2.2902
-7.2349 -2.7039 2.2902
-6.3112 -4.2832 2.2902
-4.6881 -5.1792 2.1378
-3.2479 -5.9964 2.1378
-1.8037 -6.8740 2.2902
-0.1117 -6.9002 2.2902
1.4946 -6.5328 2.2902
2.6451 -5.2494 2.0652
4.1426 -4.8263 2.2902
5.0795 -3.6127 2.2902
5.7158 -2.2462 2.2902
6.0358 -0.7907 2.2902
6.0335 0.6914 2.2902
5.7110 2.1395 2.2902
5.0780 3.4929 2.2902
4.1531 4.6913 2.2902
2.9652 5.6738 2.2902
0.8413 3.4502 1.2383
-0.0085 3.4570 1.1718
-0.8599 3.4635 1.1745
-3.1091 5.9204 2.1378
-4.5458 5.1494 2.1378
-6.1773 4.3031 2.2902
-7.1423 2.7674 2.2902
-7.6743 1.0121 2.2902
-7.7193 -0.8316 2.2902
-7.2698 -2.6186 2.2902
-6.3670 -4.2109 2.2902
-4.7549 -5.1283 2.1378
-3.3237 -5.9648 2.1378
-1.8888 -6.8617 2.2902
-0.1951 -6.9086 2.2902
1.4176 -6.5598 2.2902
2.6729 -5.4681 2.1355
4.0884 -4.8817 2.2902
5.0396 -3.6776 2.2902
5.6913 -2.3172 2.2902
6.0274 -0.8646 2.2902
6.0413 0.6177 2.2902
5.7346 2.0688 2.2902
5.1168 3.4284 2.2902
4.2059 4.6360 2.2902
3.0302 5.6308 2.2902
0.8856 3.4498 1.2436
0.0333 3.4567 1.1735
-0.8158 3.4632 1.1727
-3.0337 5.9488 2.1378
-4.4781 5.1969 2.1378
-6.1192 4.3721 2.2902
-7.1037 2.8504 2.2902
-7.6590 1.1031 2.2902
-7.7290 -0.7394 2.2902
-7.3036 -2.5328 2.2902
-6.4217 -4.1378 2.2902
-4.8209 -5.0766 2.1378
-3.3993 -5.9323 2.1378
-1.9739 -6.8483 2.2902
-0.2787 -6.9160 2.2902
1.3403 -6.5859 2.2902
2.5913 -5.4682 2.1203
4.0334 -4.9367 2.2902
4.9989 -3.7421 2.2902
5.6662 -2.3879 2.2902
6.0183 -0.9385 2.2902
6.0483 0.5437 2.2902
5.7575 1.9979 2.2902
5.1548 3.3636 2.2902
4.2580 4.5802 2.2902
3.0947 5.5870 2.2902
0.9302 3.4495 1.2492
0.0749 3.4564 1.1753
-0.7718 3.4629 1.1711
-2.9578 5.9763 2.1378
-4.4099 5.2435 2.1378
-6.0603 4.4403 2.2902
-3.7540 1.5586 1.2171
-7.6425 1.1939 2.2902
-7.7374 -0.6472 2.2902
-7.3362 -2.4466 2.2902
-6.4755 -4.0639 2.2902
-4.8865 -5.0239 2.1378
-3.4746 -5.8987 2.1378
-2.0588 -6.8339 2.2902
-0.3624 -6.9224 2.2902
1.2625 -6.6112 2.2902
2.5216 -5.4921 2.1147
3.9778 -4.9910 2.2902
4.9576 -3.8061 2.2902
5.6402 -2.4584 2.2902
6.0083 -1.0123 2.2902
6.0544 0.4699 2.2902
5.7795 1.9268 2.2902
5.1921 3.2983 2.2902
4.3095 4.5238 2.2902
3.1586 5.5426 2.2902
0.9750 3.4491 1.2549
0.1167 3.4561 1.1773
-0.7281 3.4626 1.1696
-2.8819 6.0028 2.1378
-4.3414 5.2891 2.1378
-6.0005 4.5077 2.2902
-3.7394 1.6051 1.2193
-7.6248 1.2844 2.2902
-7.7445 -0.5550 2.2902
-7.3676 -2.3598 2.2902
-6.5284 -3.9893 2.2902
-4.9512 -4.9704 2.1378
-3.5494 -5.8642 2.1378
-2.1437 -6.8184 2.2902
-0.4463 -6.9278 2.2902
1.1844 -6.6356 2.2902
2.4614 -5.5366 2.1174
3.9214 -5.0449 2.2902
4.9154 -3.8698 2.2902
5.6135 -2.5286 2.2902
5.9975 -1.0859 2.2902
6.0598 0.3958 2.2902
5.8008 1.8554 2.2902
5.2287 3.2327 2.2902
4.3602 4.4670 2.2902
3.2220 5.4975 2.2902
1.0202 3.4487 1.2608
0.1584 3.4557 1.1794
-0.6846 3.4622 1.1684
-2.8056 6.0283 2.1378
-4.2722 5.3338 2.1378
-5.5446 4.2698 2.1378
-6.9815 3.0959 2.2902
-7.6058 1.3747 2.2902
-7.7504 -0.4626 2.2902
-7.3979 -2.2727 2.2902
-6.5803 -3.9140 2.2902
-5.0155 -4.9159 2.1378
-3.6240 -5.8286 2.1378
-2.2284 -6.8018 2.2902
-0.5304 -6.9321 2.2902
1.1059 -6.6591 2.2902
2.4126 -5.6089 2.1308
3.8645 -5.0980 2.2902
4.8726 -3.9330 2.2902
5.5859 -2.5986 2.2902
5.9859 -1.1595 2.2902
6.0643 0.3218 2.2902
5.8212 1.7840 2.2902
5.2645 3.1667 2.2902
4.4103 4.4096 2.2902
3.2847 5.4518 2.2902
1.0656 3.4483 1.2670
0.2003 3.4554 1.1818
-0.6414 3.4619 1.1673
-2.7291 6.0529 2.1378
-4.2026 5.3776 2.1378
-5.4873 4.3311 2.1378
-6.9386 3.1765 2.2902
-7.5856 1.4646 2.2902
-7.7550 -0.3702 2.2902
-7.4271 -2.1850 2.2902
-6.6312 -3.8379 2.2902
-5.0790 -4.8606 2.1378
-3.6981 -5.7921 2.1378
-2.3132 -6.7842 2.2902
-0.6147 -6.9355 2.2902
1.0270 -6.6817 2.2902
2.5234 -6.0674 2.2902
3.8068 -5.1507 2.2902
4.8289 -3.9958 2.2902
5.5576 -2.6683 2.2902
5.9735 -1.2329 2.2902
6.0681 0.2476 2.2902
5.8410 1.7122 2.2902
5.2996 3.1004 2.2902
4.4597 4.3517 2.2902
3.3469 5.4053 2.2902
1.9989 6.2011 2.2902
0.2421 3.4551 1.1843
-0.5983 3.4616 1.1664
-2.6524 6.0765 2.1378
-4.1325 5.4205 2.1378
-5.4292 4.3914 2.1378
-6.8947 3.2565 2.2902
-7.5642 1.5543 2.2902
-7.7584 -0.2777 2.2902
-7.4550 -2.0970 2.2902
-6.6811 -3.7611 2.2902
-5.1419 -4.8044 2.1378
-3.7719 -5.7546 2.1378
-2.3952 -6.7582 2.2877
-0.6990 -6.9379 2.2902
0.9477 -6.7034 2.2902
2.4531 -6.1058 2.2902
3.7486 -5.2027 2.2902
4.7846 -4.0582 2.2902
5.5284 -2.7378 2.2902
5.9603 -1.3063 2.2902
6.0710 0.1735 2.2902
5.8598 1.6403 2.2902
5.3339 3.0339 2.2902
4.5085 4.2933 2.2902
3.4085 5.3583 2.2902
2.0711 6.1683 2.2902
0.2841 3.4547 1.1869
-0.5554 3.4613 1.1657
-2.5756 6.0990 2.1378
-4.0619 5.4624 2.1378
-5.3704 4.4513 2.1378
-6.8498 3.3359 2.2902
-7.5417 1.6436 2.2902
-7.7605 -0.1852 2.2902
-7.4818 -2.0086 2.2902
-6.7301 -3.6836 2.2902
-5.2040 -4.7474 2.1378
-3.8452 -5.7161 2.1378
-2.4007 -6.5241 2.2150
-0.7836 -6.9392 2.2902
0.8681 -6.7241 2.2902
2.3823 -6.1434 2.2902
3.6896 -5.2542 2.2902
4.7395 -4.1202 2.2902
5.4986 -2.8070 2.2902
5.9463 -1.3795 2.2902
6.0732 0.0993 2.2902
5.8780 1.5682 2.2902
5.3675 2.9668 2.2902
4.5565 4.2345 2.2902
3.4695 5.3106 2.2902
2.1429 6.1348 2.2902
0.3261 3.4544 1.1898
-0.5127 3.4609 1.1652
-2.4985 6.1207 2.1378
-3.9909 5.5034 2.1378
-5.3109 4.5101 2.1378
-6.8039 3.4145 2.2902
-7.5179 1.7326 2.2902
-7.7614 -0.0926 2.2902
-7.5073 -1.9199 2.2902
-6.7779 -3.6054 2.2902
-5.2655 -4.6894 2.1378
-3.9181 -5.6767 2.1378
-2.4058 -6.3040 2.1469
-0.8682 -6.9395 2.2902
0.7881 -6.7440 2.2902
2.3110 -6.1803 2.2902
3.6300 -5.3049 2.2902
4.6938 -4.1820 2.2902
5.4679 -2.8759 2.2902
5.9315 -1.4527 2.2902
6.0745 0.0252 2.2902
5.8953 1.4960 2.2902
5.4003 2.8994 2.2902
4.6039 4.1751 2.2902
3.5299 5.2623 2.2902
2.2141 6.1005 2.2902
0.3682 3.4541 1.1928
-0.4701 3.4606 1.1648
-2.4214 6.1413 2.1378
-3.9195 5.5434 2.1378
-5.2507 4.5681 2.1378
-6.7569 3.4927 2.2902
-7.4930 1.8212 2.2902
-7.7610 -0.0002 2.2902
-7.5317 -1.8307 2.2902
-6.8248 -3.5265 2.2902
-5.3262 -4.6307 2.1378
-3.9905 -5.6362 2.1378
-2.4742 -6.2567 2.1378
-0.9530 -6.9388 2.2902
0.7078 -6.7629 2.2902
2.2393 -6.2164 2.2902
3.5698 -5.3552 2.2902
4.6472 -4.2427 2.2902
5.4364 -2.9445 2.2902
5.9159 -1.5256 2.2902
6.0750 -0.0491 2.2902
5.9119 1.4235 2.2902
5.4323 2.8315 2.2902
4.6505 4.1154 2.2902
3.5897 5.2134 2.2902
2.2850 6.0654 2.2902
0.4104 3.4537 1.1960
-0.4278 3.4603 1.1646
-2.3440 6.1610 2.1378
-3.8476 5.5825 2.1378
-5.1898 4.6253 2.1378
-6.7090 3.5699 2.2902
-7.4668 1.9095 2.2902
-7.7594 0.0924 2.2902
-7.5549 -1.7412 2.2902
-6.8706 -3.4471 2.2902
-5.3862 -4.5710 2.1378
-4.0626 -5.5948 2.1378
-2.5525 -6.2353 2.1378
-1.0378 -6.9370 2.2902
0.6271 -6.7809 2.2902
2.1669 -6.2517 2.2902
3.5089 -5.4047 2.2902
4.6000 -4.3032 2.2902
5.4042 -3.0128 2.2902
5.8995 -1.5985 2.2902
6.0747 -0.1233 2.2902
5.9276 1.3509 2.2902
5.4637 2.7639 2.2902
4.6965 4.0550 2.2902
3.6488 5.1638 2.2902
2.3553 6.0296 2.2902
0.4527 3.4534 1.1994
-0.3854 3.4600 1.1645
-2.2666 6.1797 2.1378
-3.7754 5.6206 2.1378
-5.1282 4.6816 2.1378
-6.6600 3.6466 2.2902
-7.4396 1.9973 2.2902
-7.7565 0.1848 2.2902
-7.5768 -1.6514 2.2902
-6.9154 -3.3668 2.2902
-5.4455 -4.5105 2.1378
-4.1341 -5.5525 2.1378
-2.6307 -6.2127 2.1378
-1.1228 -6.9342 2.2902
0.5461 -6.7980 2.2902
2.0941 -6.2862 2.2902
3.4474 -5.4537 2.2902
4.5520 -4.3634 2.2902
5.3711 -3.0808 2.2902
5.8823 -1.6711 2.2902
6.0736 -0.1976 2.2902
5.9426 1.2781 2.2902
5.4942 2.6955 2.2902
4.7417 3.9943 2.2902
3.7074 5.1136 2.2902
2.4252 5.9930 2.2902
0.4920 3.4526 1.2912
-0.3464 3.4592 1.2523
-2.0609 5.8187 2.1625
-3.4362 5.2414 2.1378
-4.6912 4.3809 2.1378
-6.1112 3.4375 2.2902
-6.8439 1.9230 2.2902
-7.1549 0.2552 2.2902
-7.0123 -1.4400 2.2902
-6.4272 -3.0321 2.2902
-5.0895 -4.1097 2.1378
-3.8956 -5.0959 2.1378
-2.5156 -5.7349 2.1378
-1.1273 -6.4337 2.2902
0.4263 -6.3378 2.2902
1.8769 -5.8887 2.2902
3.1533 -5.1349 2.2902
4.2025 -4.1336 2.2902
4.9873 -2.9458 2.2902
5.4842 -1.6328 2.2902
5.6806 -0.2551 2.2902
5.5730 1.1281 2.2902
5.1658 2.4587 2.2902
4.4720 3.6788 2.2902
3.5132 4.7306 2.2902
2.3224 5.5574 2.2902
0.5346 3.4522 1.2951
-0.3043 3.4589 1.2525
-2.0453 6.0029 2.2248
-3.3688 5.2754 2.1378
-4.6334 4.4318 2.1378
-6.0646 3.5072 2.2902
-6.8168 2.0034 2.2902
-7.1501 0.3404 2.2902
-7.0303 -1.3566 2.2902
-6.4663 -2.9569 2.2902
-5.1425 -4.0521 2.1378
-3.9605 -5.0546 2.1378
-2.5874 -5.7116 2.1378
-1.2062 -6.4285 2.2902
0.3504 -6.3513 2.2902
1.8080 -5.9188 2.2902
3.0945 -5.1790 2.2902
4.1561 -4.1886 2.2902
4.9548 -3.0087 2.2902
5.4664 -1.7005 2.2902
5.6780 -0.3246 2.2902
5.5855 1.0597 2.2902
5.1932 2.3943 2.2902
4.5132 3.6213 2.2902
3.5670 4.6829 2.2902
2.3868 5.5222 2.2902
0.5774 3.4519 1.2992
-0.2623 3.4585 1.2529
-2.0283 6.1956 2.2902
-3.3011 5.3085 2.1378
-4.5750 4.4819 2.1378
-6.0171 3.5763 2.2902
-6.7887 2.0833 2.2902
-7.1440 0.4254 2.2902
-7.0470 -1.2730 2.2902
-6.5045 -2.8811 2.2902
-5.1948 -3.9938 2.1378
-4.0250 -5.0123 2.1378
-2.6590 -5.6875 2.1378
-1.2850 -6.4224 2.2902
0.2742 -6.3640 2.2902
0.9122 -3.1207 1.2015
3.0352 -5.2224 2.2902
4.1090 -4.2432 2.2902
4.9215 -3.0712 2.2902
5.4479 -1.7680 2.2902
5.6747 -0.3941 2.2902
5.5973 0.9912 2.2902
5.2197 2.3297 2.2902
4.5537 3.5634 2.2902
3.6202 4.6346 2.2902
2.4507 5.4864 2.2902
0.6203 3.4515 1.3035
-0.2204 3.4582 1.2535
-1.9510 6.2110 2.2902
-3.2331 5.3408 2.1378
-4.5160 4.5311 2.1378
-5.5716 3.4021 2.1378
-6.7595 2.1628 2.2902
-7.1369 0.5104 2.2902
-7.0627 -1.1892 2.2902
-6.5416 -2.8048 2.2902
-5.2464 -3.9347 2.1378
-4.0890 -4.9692 2.1378
-2.7304 -5.6624 2.1378
-1.3639 -6.4153 2.2902
0.1978 -6.3757 2.2902
1.6689 -5.9768 2.2902
2.9753 -5.2652 2.2902
4.0612 -4.2972 2.2902
4.8875 -3.1334 2.2902
5.4286 -1.8353 2.2902
5.6705 -0.4636 2.2902
5.6084 0.9226 2.2902
5.2456 2.2648 2.2902
4.5936 3.5051 2.2902
3.6728 4.5858 2.2902
2.5141 5.4499 2.2902
0.6634 3.4512 1.3081
-0.1786 3.4579 1.2543
-1.8736 6.2253 2.2902
-3.1647 5.3721 2.1378
-4.4565 4.5796 2.1378
-5.5256 3.4652 2.1378
-6.7293 2.2419 2.2902
-7.1286 0.5952 2.2902
-7.0773 -1.1051 2.2902
-6.5777 -2.7280 2.2902
-5.2971 -3.8749 2.1378
-4.1525 -4.9252 2.1378
-2.8015 -5.6363 2.1378
-1.4428 -6.4072 2.2902
0.1212 -6.3865 2.2902
1.5987 -6.0046 2.2902
2.9148 -5.3074 2.2902
4.0129 -4.3508 2.2902
4.8528 -3.1953 2.2902
5.4086 -1.9025 2.2902
5.6657 -0.5330 2.2902
5.6187 0.8538 2.2902
5.2707 2.1996 2.2902
4.6328 3.4464 2.2902
3.7248 4.5365 2.2902
2.5771 5.4127 2.2902
0.7068 3.4508 1.3128
-0.1368 3.4576 1.2552
-1.7962 6.2387 2.2902
-3.0961 5.4026 2.1378
-4.3964 4.6273 2.1378
-5.4789 3.5277 2.1378
-6.6980 2.3195 2.2902
-7.1192 0.6799 2.2902
-7.0907 -1.0209 2.2902
-6.6128 -2.6506 2.2902
-5.3472 -3.8145 2.1378
-4.2155 -4.8804 2.1378
-2.8723 -5.6094 2.1378
-1.5217 -6.3982 2.2902
0.0444 -6.3965 2.2902
1.5281 -6.0316 2.2902
2.8538 -5.3489 2.2902
3.9638 -4.4038 2.2902
4.8174 -3.2568 2.2902
5.3878 -1.9695 2.2902
5.6600 -0.6024 2.2902
5.6283 0.7850 2.2902
5.2951 2.1342 2.2902
4.6713 3.3873 2.2902
3.7762 4.4866 2.2902
2.6396 5.3748 2.2902
0.7503 3.4505 1.3177
-0.0950 3.4573 1.2563
-1.7186 6.2512 2.2902
-3.0271 5.4322 2.1378
-4.3357 4.6741 2.1378
-5.4314 3.5897 2.1378
-6.6658 2.3987 2.2902
-7.1086 0.7644 2.2902
-7.1029 -0.9364 2.2902
-6.6468 -2.5728 2.2902
-5.3964 -3.7533 2.1378
-4.2779 -4.8347 2.1378
-2.9430 -5.5815 2.1378
-1.6006 -6.3881 2.2902
-0.0327 -6.4055 2.2902
1.4571 -6.0579 2.2902
2.7922 -5.3897 2.2902
3.9141 -4.4564 2.2902
4.7813 -3.3181 2.2902
5.3663 -2.0362 2.2902
5.6536 -0.6717 2.2902
5.6371 0.7161 2.2902
5.3188 2.0685 2.2902
4.7091 3.3278 2.2902
3.8269 4.4361 2.2902
2.7015 5.3363 2.2902
0.7941 3.4501 1.3229
-0.0533 3.4569 1.2576
-0.9076 3.4634 1.2665
-2.9579 5.4609 2.1378
-4.2745 4.7201 2.1378
-5.3832 3.6507 2.1378
-6.6325 2.4765 2.2902
-7.0969 0.8488 2.2902
-7.1141 -0.8518 2.2902
-6.6799 -2.4945 2.2902
-5.4449 -3.6915 2.1378
-4.3398 -4.7882 2.1378
-3.0133 -5.5528 2.1378
-1.6794 -6.3771 2.2902
-0.1099 -6.4136 2.2902
1.3857 -6.0833 2.2902
2.7301 -5.4299 2.2902
3.8638 -4.5084 2.2902
4.7444 -3.3789 2.2902
5.3441 -2.1028 2.2902
5.6465 -0.7409 2.2902
5.6451 0.6470 2.2902
5.3418 2.0026 2.2902
4.7463 3.2679 2.2902
3.8771 4.3852 2.2902
2.7630 5.2971 2.2902
0.8381 3.4497 1.3282
-0.0116 3.4566 1.2591
-0.8631 3.4631 1.2643
-2.8884 5.4887 2.1378
-4.2128 4.7653 2.1378
-5.3342 3.7112 2.1378
-6.5982 2.5537 2.2902
-7.0841 0.9330 2.2902
-7.1241 -0.7671 2.2902
-6.7119 -2.4157 2.2902
-5.4926 -3.6290 2.1378
-4.4012 -4.7408 2.1378
-3.0833 -5.5231 2.1378
-1.7582 -6.3651 2.2902
-0.1874 -6.4208 2.2902
1.3140 -6.1079 2.2902
2.6674 -5.4694 2.2902
3.8128 -4.5600 2.2902
4.7069 -3.4393 2.2902
5.3210 -2.1691 2.2902
5.6385 -0.8101 2.2902
5.6524 0.5779 2.2902
5.3640 1.9365 2.2902
4.7828 3.2077 2.2902
3.9267 4.3337 2.2902
2.8239 5.2573 2.2902
0.8823 3.4494 1.3338
0.0301 3.4563 1.2607
-0.8189 3.4627 1.2622
-2.8186 5.5156 2.1378
-4.1506 4.8097 2.1378
-5.2844 3.7710 2.1378
-6.5630 2.6304 2.2902
-7.0701 1.0169 2.2902
-7.1330 -0.6822 2.2902
-6.7428 -2.3365 2.2902
-5.5395 -3.5658 2.1378
-4.4620 -4.6926 2.1378
-3.1530 -5.4924 2.1378
-1.8369 -6.3521 2.2902
-0.2650 -6.4270 2.2902
1.2419 -6.1317 2.2902
2.6043 -5.5083 2.2902
3.7612 -4.6109 2.2902
4.6687 -3.4994 2.2902
5.2973 -2.2352 2.2902
5.6298 -0.8793 2.2902
5.6589 0.5087 2.2902
5.3855 1.8702 2.2902
4.8185 3.1471 2.2902
3.9756 4.2818 2.2902
2.8843 5.2168 2.2902
0.9268 3.4490 1.3396
0.0718 3.4559 1.2626
-0.7750 3.4624 1.2604
-2.7486 5.5416 2.1378
-4.0879 4.8532 2.1378
-5.2340 3.8301 2.1378
-3.7545 1.5570 1.3174
-7.0551 1.1007 2.2902
-7.1407 -0.5972 2.2902
-6.7727 -2.2569 2.2902
-5.5856 -3.5020 2.1378
-4.5222 -4.6436 2.1378
-3.2223 -5.4609 2.1378
-1.9155 -6.3381 2.2902
-0.3428 -6.4324 2.2902
1.1694 -6.1546 2.2902
2.5406 -5.5464 2.2902
3.7090 -4.6614 2.2902
4.6297 -3.5591 2.2902
5.2728 -2.3011 2.2902
5.6204 -0.9483 2.2902
5.6647 0.4395 2.2902
5.4062 1.8032 2.2902
4.8536 3.0862 2.2902
4.0239 4.2293 2.2902
2.9442 5.1756 2.2902
0.9717 3.4486 1.3457
0.1135 3.4556 1.2646
-0.7313 3.4621 1.2587
-2.6783 5.5667 2.1378
-4.0247 4.8959 2.1378
-5.1828 3.8885 2.1378
-3.7382 1.6027 1.3192
-7.0389 1.1842 2.2902
-7.1473 -0.5121 2.2902
-6.8015 -2.1768 2.2902
-5.6308 -3.4382 2.1378
-4.5818 -4.5938 2.1378
-3.2914 -5.4284 2.1378
-1.9940 -6.3232 2.2902
-0.4207 -6.4368 2.2902
1.0965 -6.1768 2.2902
2.4764 -5.5839 2.2902
3.6562 -4.7113 2.2902
4.5901 -3.6185 2.2902
5.2476 -2.3667 2.2902
5.6102 -1.0173 2.2902
5.6697 0.3702 2.2902
5.4262 1.7369 2.2902
4.8880 3.0249 2.2902
4.0716 4.1764 2.2902
3.0036 5.1339 2.2902
1.0168 3.4482 1.3519
0.1553 3.4553 1.2668
-0.6878 3.4618 1.2573
-2.6078 5.5909 2.1378
-3.9610 4.9377 2.1378
-5.1308 3.9462 2.1378
-6.4511 2.8575 2.2902
-7.0216 1.2675 2.2902
-7.1527 -0.4270 2.2902
-6.8293 -2.0964 2.2902
-5.6753 -3.3724 2.1378
-4.6408 -4.5432 2.1378
-3.3601 -5.3951 2.1378
-2.0725 -6.3072 2.2902
-0.4988 -6.4402 2.2902
1.0233 -6.1981 2.2902
2.4117 -5.6207 2.2902
3.6027 -4.7607 2.2902
4.5498 -3.6774 2.2902
5.2216 -2.4322 2.2902
5.5992 -1.0861 2.2902
5.6739 0.3008 2.2902
5.4455 1.6699 2.2902
4.9217 2.9633 2.2902
4.1187 4.1229 2.2902
3.0624 5.0915 2.2902
1.0622 3.4479 1.3584
0.1971 3.4550 1.2692
-0.6446 3.4614 1.2560
-2.5371 5.6142 2.1378
-3.8969 4.9787 2.1378
-5.0782 4.0031 2.1378
-6.4119 2.9320 2.2902
-7.0032 1.3505 2.2902
-7.1570 -0.3418 2.2902
-6.8560 -2.0155 2.2902
-5.7188 -3.3067 2.1378
-4.6991 -4.4917 2.1378
-3.4284 -5.3608 2.1378
-2.1508 -6.2902 2.2902
-0.5770 -6.4427 2.2902
0.9498 -6.2185 2.2902
2.3465 -5.6567 2.2902
3.5487 -4.8095 2.2902
4.5087 -3.7359 2.2902
5.1949 -2.4973 2.2902
5.5875 -1.1549 2.2902
5.6774 0.2314 2.2902
5.4641 1.6028 2.2902
4.9547 2.9013 2.2902
4.1651 4.0690 2.2902
3.1207 5.0485 2.2902
1.8588 5.7834 2.2902
0.2389 3.4546 1.2718
-0.6015 3.4611 1.2549
-2.4662 5.6366 2.1378
-3.8323 5.0188 2.1378
-5.0249 4.0594 2.1378
-6.3718 3.0060 2.2902
-6.9837 1.4332 2.2902
