ply
format ascii 1.0
element vertex 2174
property float32 x
property float32 y
property float32 z
end_header
6.9711 -3.3346 2.2904
7.4736 -1.5360 2.2904
7.5843 0.3110 2.2904
7.3046 2.1375 2.2904
6.6421 3.8759 2.2904
5.6113 5.4570 2.2904
4.2359 6.8087 2.2904
1.0387 3.1956 0.9317
0.2451 3.3711 0.9062
-0.5878 3.4550 0.9064
-3.4105 7.8663 2.1380
-5.3656 7.0699 2.1380
-7.6105 6.1785 2.2904
-9.0760 4.3009 2.2904
-9.9969 2.0612 2.2904
-10.2701 -0.3671 2.2904
-9.8599 -2.7798 2.2904
-8.8072 -4.9718 2.2904
-7.2210 -6.7708 2.2904
-4.9067 -7.5221 2.1380
-2.8809 -8.1947 2.1380
-0.8754 -8.9337 2.2904
1.2355 -8.5668 2.2904
2.6195 -6.4699 1.9124
4.7520 -6.5621 2.2904
6.0285 -5.0925 2.2904
6.9358 -3.4220 2.2904
7.4577 -1.6277 2.2904
7.5880 0.2185 2.2904
7.3278 2.0477 2.2904
6.6842 3.7922 2.2904
5.6713 5.3828 2.2904
4.3123 6.7477 2.2904
1.0815 3.1952 0.9369
0.2853 3.3619 0.9062
-0.5452 3.4555 0.9064
-3.3098 7.8925 2.1380
-5.2717 7.1222 2.1380
-7.5255 6.2605 2.2904
-9.0146 4.4046 2.2904
-9.9656 2.1793 2.2904
-10.2727 -0.2443 2.2904
-9.8963 -2.6628 2.2904
-8.8736 -4.8703 2.2904
-7.3107 -6.6922 2.2904
-5.0043 -7.4744 2.1380
-2.9842 -8.1738 2.1380
-0.9846 -8.9388 2.2904
1.1341 -8.5965 2.2904
2.5703 -6.5759 1.9312
4.6790 -6.6288 2.2904
5.9732 -5.1714 2.2904
6.8995 -3.5090 2.2904
7.4409 -1.7192 2.2904
7.5908 0.1261 2.2904
7.3500 1.9576 2.2904
6.7253 3.7080 2.2904
5.7304 5.3080 2.2904
4.3880 6.6860 2.2904
2.7340 7.7667 2.2904
0.3252 3.3522 0.9061
-0.5026 3.4555 0.9064
-3.2089 7.9175 2.1380
-5.1773 7.1730 2.1380
-7.4395 6.3412 2.2904
-8.9518 4.5074 2.2904
-9.9327 2.2969 2.2904
-10.2735 -0.1215 2.2904
-9.9311 -2.5452 2.2904
-8.9387 -4.7679 2.2904
-7.3994 -6.6124 2.2904
-5.1014 -7.4253 2.1380
-3.0875 -8.1516 2.1380
-1.0940 -8.9426 2.2904
1.0323 -8.6251 2.2904
2.4889 -6.6017 1.9266
4.6051 -6.6948 2.2904
5.9171 -5.2498 2.2904
6.8623 -3.5958 2.2904
7.4231 -1.8106 2.2904
7.5926 0.0335 2.2904
7.3712 1.8674 2.2904
6.7654 3.6235 2.2904
5.7886 5.2327 2.2904
4.4629 6.6235 2.2904
2.8233 7.7209 2.2904
0.3650 3.3421 0.9061
-0.4601 3.4550 0.9064
-3.1079 7.9411 2.1380
-5.0824 7.2225 2.1380
-7.3525 6.4207 2.2904
-8.8877 4.6092 2.2904
-9.8982 2.4139 2.2904
-10.2726 0.0013 2.2904
-9.9642 -2.4272 2.2904
-9.0024 -4.6644 2.2904
-7.4871 -6.5314 2.2904
-5.1979 -7.3749 2.1380
-3.1907 -8.1280 2.1380
-1.2037 -8.9451 2.2904
0.9299 -8.6525 2.2904
2.4144 -6.6465 1.9277
4.5304 -6.7601 2.2904
5.8600 -5.3276 2.2904
6.8240 -3.6822 2.2904
7.4043 -1.9018 2.2904
7.5935 -0.0590 2.2904
7.3915 1.7770 2.2904
6.8047 3.5386 2.2904
5.8459 5.1568 2.2904
4.5369 6.5603 2.2904
2.9120 7.6742 2.2904
0.4046 3.3316 0.9061
-0.4177 3.4540 0.9064
-3.0068 7.9635 2.1380
-4.9870 7.2707 2.1380
-7.2646 6.4990 2.2904
-8.8222 4.7100 2.2904
-9.8621 2.5304 2.2904
-10.2701 0.1240 2.2904
-9.9957 -2.3087 2.2904
-9.0647 -4.5601 2.2904
-7.5738 -6.4491 2.2904
-5.2940 -7.3232 2.1380
-3.2937 -8.1031 2.1380
-1.3136 -8.9463 2.2904
0.8271 -8.6787 2.2904
2.3475 -6.7139 1.9356
4.4548 -6.8247 2.2904
5.8020 -5.4050 2.2904
6.7848 -3.7683 2.2904
7.3846 -1.9929 2.2904
7.5933 -0.1515 2.2904
7.4108 1.6865 2.2904
6.8430 3.4534 2.2904
5.9024 5.0804 2.2904
4.6102 6.4964 2.2904
3.0001 7.6266 2.2904
0.4441 3.3206 0.9061
-0.3754 3.4525 0.9064
-2.9056 7.9846 2.1380
-4.8911 7.3176 2.1380
-7.1758 6.5759 2.2904
-8.7555 4.8099 2.2904
-9.8244 2.6463 2.2904
-10.2657 0.2467 2.2904
-10.0256 -2.1897 2.2904
-9.1256 -4.4548 2.2904
-7.6595 -6.3655 2.2904
-5.3894 -7.2702 2.1380
-3.3965 -8.0769 2.1380
-1.4237 -8.9462 2.2904
0.7237 -8.7038 2.2904
2.2922 -6.8190 1.9545
4.3785 -6.8885 2.2904
5.7431 -5.4818 2.2904
6.7447 -3.8541 2.2904
7.3639 -2.0838 2.2904
7.5922 -0.2441 2.2904
7.4292 1.5957 2.2904
6.8804 3.3677 2.2904
5.9580 5.0035 2.2904
4.6828 6.4317 2.2904
3.0874 7.5780 2.2904
0.4833 3.3092 0.9060
-0.3332 3.4505 0.9064
-2.8043 8.0044 2.1380
-4.7948 7.3633 2.1380
-7.0861 6.6518 2.2904
-8.6875 4.9087 2.2904
-9.7851 2.7617 2.2904
-10.2597 0.3693 2.2904
-10.0538 -2.0702 2.2904
-9.1851 -4.3486 2.2904
-7.7442 -6.2806 2.2904
-5.4843 -7.2159 2.1380
-3.4993 -8.0493 2.1380
-1.5339 -8.9446 2.2904
0.6198 -8.7278 2.2904
2.5939 -8.0366 2.2904
4.3012 -6.9516 2.2904
5.6832 -5.5581 2.2904
6.7036 -3.9395 2.2904
7.3421 -2.1746 2.2904
7.5901 -0.3367 2.2904
7.4465 1.5048 2.2904
6.9168 3.2818 2.2904
6.0127 4.9260 2.2904
4.7545 6.3664 2.2904
3.1741 7.5286 2.2904
0.5223 3.2973 0.9060
-0.2910 3.4480 0.9064
-2.7029 8.0230 2.1380
-4.6981 7.4076 2.1380
-6.9955 6.7263 2.2904
-8.6182 5.0066 2.2904
-9.7442 2.8764 2.2904
-10.2520 0.4918 2.2904
-10.0803 -1.9503 2.2904
-9.2431 -4.2415 2.2904
-7.8278 -6.1946 2.2904
-5.5786 -7.1602 2.1380
-3.6017 -8.0204 2.1380
-1.6443 -8.9418 2.2904
0.5156 -8.7505 2.2904
2.5009 -8.0812 2.2904
4.2232 -7.0139 2.2904
5.6225 -5.6337 2.2904
6.6615 -4.0246 2.2904
7.3195 -2.2651 2.2904
7.5870 -0.4292 2.2904
7.4630 1.4137 2.2904
6.9523 3.1955 2.2904
6.0665 4.8481 2.2904
4.8254 6.3003 2.2904
3.2601 7.4783 2.2904
0.5611 3.2851 0.9060
-0.2490 3.4450 0.9063
-2.6015 8.0402 2.1380
-4.6010 7.4507 2.1380
-6.9041 6.7993 2.2904
-8.5476 5.1034 2.2904
-9.7018 2.9904 2.2904
-10.2425 0.6141 2.2904
-10.1051 -1.8302 2.2904
-9.2997 -4.1336 2.2904
-7.9102 -6.1074 2.2904
-5.6722 -7.1033 2.1380
-3.7040 -7.9901 2.1380
-1.7549 -8.9376 2.2904
0.4109 -8.7720 2.2904
2.4072 -8.1249 2.2904
3.7415 -6.3875 2.0677
5.5609 -5.7089 2.2904
6.6185 -4.1092 2.2904
7.2958 -2.3554 2.2904
7.5830 -0.5217 2.2904
7.4784 1.3224 2.2904
6.9869 3.1089 2.2904
6.1195 4.7695 2.2904
4.8954 6.2337 2.2904
3.3454 7.4271 2.2904
0.5997 3.2724 0.9059
-0.2071 3.4414 0.9063
-2.5002 8.0562 2.1380
-4.5035 7.4924 2.1380
-6.8118 6.8711 2.2904
-8.4758 5.1992 2.2904
-9.6579 3.1037 2.2904
-10.2313 0.7362 2.2904
-10.1282 -1.7096 2.2904
-9.3548 -4.0248 2.2904
-7.9915 -6.0190 2.2904
-5.7653 -7.0450 2.1380
-3.8060 -7.9585 2.1380
-1.8656 -8.9320 2.2904
0.3058 -8.7923 2.2904
2.3130 -8.1675 2.2904
3.6350 -6.3817 2.0483
5.4983 -5.7834 2.2904
6.5746 -4.1934 2.2904
7.2712 -2.4457 2.2904
7.5779 -0.6142 2.2904
7.4929 1.2310 2.2904
7.0205 3.0221 2.2904
6.1715 4.6906 2.2904
4.9647 6.1662 2.2904
3.4300 7.3750 2.2904
0.6381 3.2592 0.9059
-0.1653 3.4374 0.9063
-2.3986 8.0710 2.1380
-4.4055 7.5329 2.1380
-6.7188 6.9417 2.2904
-8.4029 5.2938 2.2904
-9.6123 3.2165 2.2904
-10.2184 0.8583 2.2904
-10.1496 -1.5888 2.2904
-9.4084 -3.9153 2.2904
-8.0718 -5.9293 2.2904
-5.8577 -6.9854 2.1380
-3.9076 -7.9256 2.1380
-1.9763 -8.9250 2.2904
0.2002 -8.8115 2.2904
2.2180 -8.2091 2.2904
3.5304 -6.3761 2.0295
5.4349 -5.8573 2.2904
6.5296 -4.2774 2.2904
7.2455 -2.5357 2.2904
7.5719 -0.7066 2.2904
7.5064 1.1395 2.2904
7.0532 2.9348 2.2904
6.2227 4.6111 2.2904
5.0330 6.0982 2.2904
3.5138 7.3221 2.2904
0.6763 3.2457 0.9059
-0.1236 3.4329 0.9063
-2.2973 8.0845 2.1380
-4.3073 7.5721 2.1380
-6.6249 7.0110 2.2904
-8.3287 5.3874 2.2904
-9.5653 3.3284 2.2904
-10.2039 0.9799 2.2904
-10.1694 -1.4675 2.2904
-9.4606 -3.8049 2.2904
-8.1508 -5.8386 2.2904
-6.3734 -7.4182 2.2904
-4.0092 -7.8913 2.1380
-2.0873 -8.9167 2.2904
0.0943 -8.8293 2.2904
2.1225 -8.2496 2.2904
3.4272 -6.3706 2.0112
5.3705 -5.9307 2.2904
6.4838 -4.3608 2.2904
7.2190 -2.6254 2.2904
7.5649 -0.7991 2.2904
7.5190 1.0478 2.2904
7.0849 2.8474 2.2904
6.2729 4.5313 2.2904
5.1007 6.0295 2.2904
3.5971 7.2683 2.2904
0.7142 3.2317 0.9058
-0.0821 3.4280 0.9063
-2.1958 8.0967 2.1380
-4.2087 7.6100 2.1380
-6.5303 7.0789 2.2904
-8.2534 5.4799 2.2904
-9.5168 3.4397 2.2904
-10.1876 1.1015 2.2904
-10.1874 -1.3461 2.2904
-9.5111 -3.6938 2.2904
-8.2287 -5.7467 2.2904
-6.4709 -7.3516 2.2904
-4.1103 -7.8557 2.1380
-2.1981 -8.9070 2.2904
-0.0122 -8.8460 2.2904
2.0263 -8.2892 2.2904
3.3256 -6.3651 1.9934
5.3054 -6.0034 2.2904
6.4369 -4.4439 2.2904
7.1914 -2.7150 2.2904
7.5569 -0.8914 2.2904
7.5305 0.9561 2.2904
7.1157 2.7595 2.2904
6.3222 4.4508 2.2904
5.1674 5.9601 2.2904
3.6794 7.2137 2.2904
0.7520 3.2174 0.9058
-0.0406 3.4225 0.9063
-0.8878 3.4368 0.9063
-4.1099 7.6465 2.1380
-6.4349 7.1455 2.2904
-8.1768 5.5713 2.2904
-9.4668 3.5501 2.2904
-10.1696 1.2226 2.2904
-10.2038 -1.2242 2.2904
-9.5602 -3.5819 2.2904
-8.3053 -5.6537 2.2904
-6.5676 -7.2838 2.2904
-4.2112 -7.8187 2.1380
-2.3092 -8.8958 2.2904
-0.1188 -8.8614 2.2904
1.9296 -8.3276 2.2904
3.2254 -6.3597 1.9762
5.2392 -6.0756 2.2904
6.3892 -4.5265 2.2904
7.1628 -2.8042 2.2904
7.5480 -0.9838 2.2904
7.5411 0.8641 2.2904
7.1455 2.6715 2.2904
6.3706 4.3701 2.2904
5.2334 5.8901 2.2904
3.7612 7.1583 2.2904
0.7894 3.2026 0.9058
0.0006 3.4166 0.9063
-0.8448 3.4409 0.9063
-4.0107 7.6818 2.1380
-6.3389 7.2105 2.2904
-8.0992 5.6615 2.2904
-9.4153 3.6599 2.2904
-10.1499 1.3436 2.2904
-10.2184 -1.1024 2.2904
-9.6077 -3.4694 2.2904
-8.3809 -5.5595 2.2904
-6.6635 -7.2145 2.2904
-4.3116 -7.7804 2.1380
-2.4202 -8.8834 2.2904
-0.2260 -8.8755 2.2904
1.8321 -8.3651 2.2904
3.1267 -6.3544 1.9595
5.1723 -6.1470 2.2904
6.3404 -4.6087 2.2904
7.1333 -2.8933 2.2904
7.5380 -1.0759 2.2904
7.5507 0.7722 2.2904
7.1744 2.5831 2.2904
6.4182 4.2887 2.2904
5.2984 5.8195 2.2904
3.8421 7.1020 2.2904
0.8293 3.1973 0.9085
0.0418 3.4102 0.9063
-0.8019 3.4446 0.9063
-3.9113 7.7158 2.1380
-6.2420 7.2746 2.2904
-8.0204 5.7506 2.2904
-9.3624 3.7687 2.2904
-10.1286 1.4641 2.2904
-10.2313 -0.9801 2.2904
-9.6537 -3.3560 2.2904
-8.4550 -5.4643 2.2904
-6.7585 -7.1439 2.2904
-4.4118 -7.7407 2.1380
-2.5313 -8.8695 2.2904
-0.3335 -8.8884 2.2904
1.7342 -8.4014 2.2904
3.0293 -6.3492 1.9433
5.1044 -6.2179 2.2904
6.2908 -4.6906 2.2904
7.1028 -2.9820 2.2904
7.5271 -1.1682 2.2904
7.5594 0.6801 2.2904
7.2024 2.4944 2.2904
6.4648 4.2071 2.2904
5.3627 5.7482 2.2904
3.9224 7.0449 2.2904
0.8706 3.1970 0.9129
0.0827 3.4033 0.9063
-0.7590 3.4477 0.9063
-3.8115 7.7485 2.1380
-6.1444 7.3372 2.2904
-7.9406 5.8385 2.2904
-3.7527 1.5631 0.9234
-10.1056 1.5844 2.2904
-10.2425 -0.8577 2.2904
-9.6981 -3.2421 2.2904
-8.5281 -5.3679 2.2904
-6.8528 -7.0719 2.2904
-3.9733 -6.7808 1.8829
-2.6422 -8.8542 2.2904
-0.4412 -8.9000 2.2904
1.6355 -8.4367 2.2904
2.9331 -6.3440 1.9276
5.0357 -6.2880 2.2904
6.2402 -4.7718 2.2904
7.0714 -3.0706 2.2904
7.5152 -1.2603 2.2904
7.5671 0.5880 2.2904
7.2294 2.4056 2.2904
6.5105 4.1249 2.2904
5.4262 5.6762 2.2904
4.0019 6.9871 2.2904
0.9122 3.1966 0.9173
0.1236 3.3959 0.9062
-0.7161 3.4503 0.9063
-3.7117 7.7799 2.1380
-6.0464 7.3984 2.2904
-7.8596 5.9253 2.2904
-3.7427 1.6117 0.9265
-10.0809 1.7041 2.2904
-10.2520 -0.7353 2.2904
-9.7410 -3.1274 2.2904
-8.5998 -5.2704 2.2904
-6.9461 -6.9987 2.2904
-4.6110 -7.6573 2.1380
-2.5702 -8.2494 2.1380
-0.5493 -8.9104 2.2904
1.5364 -8.4708 2.2904
2.8383 -6.3390 1.9124
4.9660 -6.3576 2.2904
6.1887 -4.8527 2.2904
7.0390 -3.1588 2.2904
7.5023 -1.3522 2.2904
7.5738 0.4957 2.2904
7.2554 2.3164 2.2904
6.5553 4.0424 2.2904
5.4887 5.6038 2.2904
4.0807 6.9284 2.2904
0.9541 3.1963 0.9220
0.1642 3.3881 0.9062
-0.6734 3.4524 0.9063
-3.6115 7.8100 2.1380
-5.9475 7.4585 2.2904
-7.7777 6.0108 2.2904
-9.1948 4.0906 2.2904
-10.0545 1.8236 2.2904
-10.2597 -0.6126 2.2904
-9.7822 -3.0122 2.2904
-8.6702 -5.1720 2.2904
-7.0387 -6.9240 2.2904
-4.7100 -7.6135 2.1380
-2.6737 -8.2325 2.1380
-0.6576 -8.9194 2.2904
1.4366 -8.5039 2.2904
2.7445 -6.3339 1.8976
4.8956 -6.4264 2.2904
6.1362 -4.9330 2.2904
7.0055 -3.2468 2.2904
7.4884 -1.4442 2.2904
7.5795 0.4034 2.2904
7.2805 2.2272 2.2904
6.5992 3.9594 2.2904
5.5504 5.5307 2.2904
4.1586 6.8690 2.2904
0.9962 3.1959 0.9268
0.2047 3.3798 0.9062
-0.6306 3.4540 0.9063
-3.5112 7.8388 2.1380
-5.4591 7.0167 2.1380
-7.6946 6.0953 2.2904
-9.1361 4.1962 2.2904
-10.0265 1.9425 2.2904
-10.2658 -0.4901 2.2904
-9.8219 -2.8963 2.2904
-8.7393 -5.0724 2.2904
-7.1302 -6.8481 2.2904
-4.8085 -7.5685 2.1380
-2.7773 -8.2143 2.1380
-0.7664 -8.9272 2.2904
1.3364 -8.5359 2.2904
2.6520 -6.3290 1.8833
4.8242 -6.4946 2.2904
6.0828 -5.0130 2.2904
6.9712 -3.3345 2.2904
7.4736 -1.5359 2.2904
7.5843 0.3110 2.2904
7.3046 2.1375 2.2904
6.6421 3.8760 2.2904
5.6112 5.4571 2.2904
4.2358 6.8088 2.2904
1.0387 3.1956 0.9317
0.2450 3.3711 0.9062
-0.5879 3.4550 0.9064
-3.4106 7.8663 2.1380
-5.3656 7.0702 2.1380
-7.6107 6.1784 2.2904
-9.0761 4.3007 2.2904
-9.9969 2.0612 2.2904
-10.2701 -0.3672 2.2904
-9.8599 -2.7799 2.2904
-8.8071 -4.9720 2.2904
-7.2209 -6.7708 2.2904
-4.9066 -7.5221 2.1380
-2.8807 -8.1947 2.1380
-0.8753 -8.9336 2.2904
1.2356 -8.5667 2.2904
2.6195 -6.4697 1.9124
4.7521 -6.5620 2.2904
6.0285 -5.0924 2.2904
6.9358 -3.4219 2.2904
7.4577 -1.6276 2.2904
7.5880 0.2186 2.2904
7.3277 2.0478 2.2904
6.6841 3.7922 2.2904
5.6712 5.3829 2.2904
4.3122 6.7478 2.2904
1.0814 3.1952 0.9369
0.2852 3.3619 0.9062
-0.5452 3.4555 0.9064
-3.3099 7.8925 2.1380
-5.2718 7.1221 2.1380
-7.5256 6.2604 2.2904
-9.0146 4.4045 2.2904
-9.9656 2.1791 2.2904
-10.2727 -0.2445 2.2904
-9.8963 -2.6628 2.2904
-8.8736 -4.8704 2.2904
-7.3105 -6.6924 2.2904
-5.0041 -7.4744 2.1380
-2.9842 -8.1738 2.1380
-0.9845 -8.9388 2.2904
1.1343 -8.5964 2.2904
2.5705 -6.5759 1.9312
4.6790 -6.6288 2.2904
5.9733 -5.1713 2.2904
6.8996 -3.5089 2.2904
7.4409 -1.7191 2.2904
7.5908 0.1261 2.2904
7.3500 1.9577 2.2904
6.7252 3.7081 2.2904
5.7303 5.3081 2.2904
4.3879 6.6861 2.2904
2.7339 7.7667 2.2904
0.3252 3.3522 0.9061
-0.5027 3.4555 0.9064
-3.2090 7.9175 2.1380
-5.1773 7.1729 2.1380
-7.4396 6.3411 2.2904
-8.9519 4.5072 2.2904
-9.9327 2.2968 2.2904
-10.2735 -0.1216 2.2904
-9.9311 -2.5454 2.2904
-8.9386 -4.7680 2.2904
-7.3993 -6.6125 2.2904
-5.1013 -7.4253 2.1380
-3.0874 -8.1516 2.1380
-1.0939 -8.9426 2.2904
1.0323 -8.6250 2.2904
2.4889 -6.6017 1.9266
4.6052 -6.6947 2.2904
5.9171 -5.2497 2.2904
6.8623 -3.5957 2.2904
7.4231 -1.8105 2.2904
7.5926 0.0337 2.2904
7.3712 1.8676 2.2904
6.7654 3.6236 2.2904
5.7885 5.2328 2.2904
4.4628 6.6236 2.2904
2.8232 7.7210 2.2904
0.3650 3.3421 0.9061
-0.4602 3.4550 0.9064
-3.1081 7.9411 2.1380
-5.0825 7.2224 2.1380
-7.3526 6.4206 2.2904
-8.8877 4.6091 2.2904
-9.8982 2.4137 2.2904
-10.2727 0.0011 2.2904
-9.9642 -2.4273 2.2904
-9.0024 -4.6645 2.2904
-7.4870 -6.5315 2.2904
-5.1978 -7.3750 2.1380
-3.1906 -8.1280 2.1380
-1.2036 -8.9451 2.2904
0.9301 -8.6524 2.2904
2.4145 -6.6464 1.9277
4.5304 -6.7601 2.2904
5.8600 -5.3276 2.2904
6.8241 -3.6821 2.2904
7.4044 -1.9017 2.2904
7.5935 -0.0589 2.2904
7.3915 1.7771 2.2904
6.8046 3.5387 2.2904
5.8459 5.1569 2.2904
4.5369 6.5604 2.2904
2.9120 7.6742 2.2904
0.4046 3.3316 0.9061
-0.4178 3.4540 0.9064
-3.0069 7.9635 2.1380
-4.9870 7.2707 2.1380
-7.2648 6.4989 2.2904
-8.8223 4.7099 2.2904
-9.8621 2.5303 2.2904
-10.2701 0.1239 2.2904
-9.9957 -2.3088 2.2904
-9.0646 -4.5602 2.2904
-7.5738 -6.4491 2.2904
-5.2939 -7.3233 2.1380
-3.2935 -8.1032 2.1380
-1.3134 -8.9463 2.2904
0.8271 -8.6787 2.2904
2.3475 -6.7138 1.9356
4.4549 -6.8246 2.2904
5.8021 -5.4049 2.2904
6.7849 -3.7683 2.2904
7.3846 -1.9929 2.2904
7.5933 -0.1513 2.2904
7.4108 1.6866 2.2904
6.8429 3.4534 2.2904
5.9024 5.0805 2.2904
4.6101 6.4965 2.2904
2.9999 7.6266 2.2904
0.4440 3.3206 0.9061
-0.3754 3.4525 0.9064
-2.9058 7.9846 2.1380
-4.8913 7.3176 2.1380
-7.1759 6.5759 2.2904
-8.7555 4.8098 2.2904
-9.8244 2.6461 2.2904
-10.2658 0.2465 2.2904
-10.0256 -2.1898 2.2904
-9.1256 -4.4549 2.2904
-7.6595 -6.3655 2.2904
-5.3893 -7.2703 2.1380
-3.3965 -8.0769 2.1380
-1.4236 -8.9461 2.2904
0.7237 -8.7038 2.2904
2.2923 -6.8188 1.9545
4.3785 -6.8885 2.2904
5.7431 -5.4818 2.2904
6.7447 -3.8541 2.2904
7.3639 -2.0837 2.2904
7.5922 -0.2440 2.2904
7.4291 1.5957 2.2904
6.8803 3.3678 2.2904
5.9579 5.0036 2.2904
4.6827 6.4318 2.2904
3.0874 7.5781 2.2904
0.4646 3.2001 0.9547
-0.3124 3.2064 0.9202
-2.5660 7.3044 2.1380
-4.3699 6.6994 2.1380
-6.4377 6.0352 2.2904
-7.8726 4.4433 2.2904
-8.8513 2.4953 2.2904
-9.2721 0.3329 2.2904
-9.0863 -1.8698 2.2904
-8.3095 -3.9308 2.2904
-7.0192 -5.6867 2.2904
-4.9843 -6.5488 2.1380
-3.1915 -7.3255 2.1380
-1.4075 -8.1644 2.2904
0.5602 -7.9899 2.2904
2.3740 -7.3776 2.2904
3.9510 -6.3972 2.2904
5.2336 -5.1254 2.2904
6.1843 -3.6387 2.2904
6.7814 -2.0110 2.2904
7.0145 -0.3120 2.2904
6.8817 1.3913 2.2904
6.3883 3.0334 2.2904
5.5465 4.5487 2.2904
4.3775 5.8698 2.2904
2.9142 6.9273 2.2904
0.5040 3.1998 0.9578
-0.2735 3.2060 0.9207
-2.4739 7.3224 2.1380
-4.2825 6.7408 2.1380
-6.3563 6.1035 2.2904
-7.8106 4.5323 2.2904
-8.8150 2.5991 2.2904
-9.2653 0.4435 2.2904
-9.1100 -1.7616 2.2904
-8.3614 -3.8337 2.2904
-7.0942 -5.6083 2.2904
-5.0692 -6.4975 2.1380
-3.2843 -7.2981 2.1380
-1.5080 -8.1605 2.2904
0.4646 -8.0096 2.2904
2.2883 -7.4176 2.2904
3.8788 -6.4538 2.2904
5.1771 -5.1947 2.2904
6.1450 -3.7170 2.2904
6.7601 -2.0946 2.2904
7.0115 -0.3976 2.2904
6.8970 1.3071 2.2904
6.4213 2.9538 2.2904
5.5966 4.4770 2.2904
4.4432 5.8094 2.2904
2.9937 6.8818 2.2904
0.5437 3.1994 0.9612
-0.2346 3.2057 0.9213
-2.3817 7.3393 2.1380
-4.1947 6.7809 2.1380
-6.2741 6.1708 2.2904
-7.7476 4.6204 2.2904
-8.7772 2.7024 2.2904
-9.2570 0.5540 2.2904
-9.1322 -1.6530 2.2904
-8.4120 -3.7360 2.2904
-7.1681 -5.5287 2.2904
-5.1536 -6.4450 2.1380
-3.3768 -7.2695 2.1380
-1.6087 -8.1555 2.2904
0.3688 -8.0281 2.2904
2.2021 -7.4566 2.2904
3.8058 -6.5097 2.2904
5.1198 -5.2635 2.2904
6.1049 -3.7949 2.2904
6.7379 -2.1780 2.2904
7.0076 -0.4831 2.2904
6.9113 1.2227 2.2904
6.4535 2.8738 2.2904
5.6458 4.4048 2.2904
4.5083 5.7484 2.2904
3.0725 6.8354 2.2904
0.5835 3.1991 0.9646
-0.1957 3.2054 0.9220
-2.2894 7.3550 2.1380
-4.1065 6.8200 2.1380
-6.1912 6.2368 2.2904
-7.6834 4.7076 2.2904
-8.7381 2.8051 2.2904
-9.2471 0.6643 2.2904
-9.1529 -1.5441 2.2904
-8.4613 -3.6374 2.2904
-7.2410 -5.4481 2.2904
-5.2373 -6.3913 2.1380
-3.4691 -7.2397 2.1380
-1.7094 -8.1491 2.2904
0.2725 -8.0455 2.2904
2.1153 -7.4947 2.2904
3.7321 -6.5648 2.2904
5.0617 -5.3317 2.2904
6.0638 -3.8725 2.2904
6.7148 -2.2613 2.2904
7.0029 -0.5687 2.2904
6.9248 1.1381 2.2904
6.4849 2.7936 2.2904
5.6942 4.3321 2.2904
4.5725 5.6867 2.2904
3.1507 6.7882 2.2904
0.6235 3.1988 0.9683
-0.1570 3.2051 0.9228
-2.1971 7.3695 2.1380
-4.0180 6.8578 2.1380
-6.1075 6.3017 2.2904
-7.6181 4.7939 2.2904
-8.6976 2.9072 2.2904
-9.2358 0.7745 2.2904
-9.1722 -1.4349 2.2904
-8.5092 -3.5382 2.2904
-7.3129 -5.3665 2.2904
-5.3204 -6.3365 2.1380
-3.5612 -7.2087 2.1380
-1.8102 -8.1416 2.2904
0.1758 -8.0618 2.2904
2.0279 -7.5319 2.2904
3.6577 -6.6191 2.2904
5.0027 -5.3994 2.2904
6.0219 -3.9496 2.2904
6.6909 -2.3444 2.2904
6.9971 -0.6542 2.2904
6.9374 1.0535 2.2904
6.5153 2.7130 2.2904
5.7418 4.2590 2.2904
4.6361 5.6244 2.2904
3.2283 6.7402 2.2904
0.6636 3.1985 0.9720
-0.1182 3.2048 0.9238
-0.9154 3.2111 0.9299
-3.9291 6.8945 2.1380
-6.0231 6.3654 2.2904
-7.5518 4.8792 2.2904
-8.6557 3.0086 2.2904
-9.2229 0.8844 2.2904
-9.1899 -1.3255 2.2904
-8.5558 -3.4383 2.2904
-7.3837 -5.2839 2.2904
-5.4029 -6.2805 2.1380
-3.6529 -7.1765 2.1380
-1.9111 -8.1328 2.2904
0.0789 -8.0770 2.2904
1.9399 -7.5681 2.2904
3.5826 -6.6727 2.2904
4.9429 -5.4665 2.2904
5.9792 -4.0264 2.2904
6.6660 -2.4272 2.2904
6.9905 -0.7397 2.2904
6.9490 0.9687 2.2904
6.5449 2.6322 2.2904
5.7886 4.1854 2.2904
4.6988 5.5615 2.2904
3.3052 6.6915 2.2904
0.7040 3.1981 0.9760
-0.0795 3.2045 0.9249
-0.8737 3.2108 0.9283
-3.8399 6.9300 2.1380
-5.9380 6.4279 2.2904
-7.4843 4.9635 2.2904
-8.6125 3.1094 2.2904
-9.2085 0.9942 2.2904
-9.2061 -1.2158 2.2904
-8.6011 -3.3377 2.2904
-7.4535 -5.2002 2.2904
-5.4848 -6.2234 2.1380
-3.7444 -7.1431 2.1380
-2.0120 -8.1227 2.2904
-0.0184 -8.0911 2.2904
1.8515 -7.6033 2.2904
3.5067 -6.7255 2.2904
4.8823 -5.5329 2.2904
5.9355 -4.1028 2.2904
6.6402 -2.5099 2.2904
6.9830 -0.8251 2.2904
6.9598 0.8838 2.2904
6.5736 2.5511 2.2904
5.8345 4.1114 2.2904
4.7608 5.4979 2.2904
3.3815 6.6419 2.2904
0.7446 3.1978 0.9801
-0.0409 3.2042 0.9261
-0.8323 3.2105 0.9268
-3.7504 6.9643 2.1380
-5.4628 6.0575 2.1380
-7.4158 5.0468 2.2904
-8.5680 3.2096 2.2904
-9.1926 1.1037 2.2904
-9.2207 -1.1059 2.2904
-8.6449 -3.2365 2.2904
-7.5222 -5.1155 2.2904
-5.5660 -6.1652 2.1380
-3.8356 -7.1084 2.1380
-2.1129 -8.1114 2.2904
-0.1160 -8.1040 2.2904
1.7624 -7.6375 2.2904
3.4301 -6.7775 2.2904
4.8209 -5.5988 2.2904
5.8909 -4.1788 2.2904
6.6135 -2.5923 2.2904
6.9745 -0.9105 2.2904
6.9696 0.7988 2.2904
6.6014 2.4697 2.2904
5.8796 4.0370 2.2904
4.8221 5.4338 2.2904
3.4571 6.5915 2.2904
0.7854 3.1975 0.9843
-0.0022 3.2039 0.9275
-0.7911 3.2102 0.9254
-3.6606 6.9975 2.1380
-5.3820 6.1137 2.1380
-7.3463 5.1292 2.2904
-8.5221 3.3091 2.2904
-9.1752 1.2129 2.2904
-9.2339 -0.9957 2.2904
-8.6874 -3.1346 2.2904
-7.5898 -5.0299 2.2904
-5.6464 -6.1058 2.1380
-3.9264 -7.0726 2.1380
-2.2138 -8.0988 2.2904
-0.2139 -8.1157 2.2904
1.6728 -7.6708 2.2904
3.3529 -6.8287 2.2904
4.7587 -5.6641 2.2904
5.8455 -4.2543 2.2904
6.5858 -2.6744 2.2904
6.9652 -0.9957 2.2904
6.9785 0.7137 2.2904
6.6283 2.3881 2.2904
5.9239 3.9621 2.2904
4.8825 5.3691 2.2904
3.5321 6.5404 2.2904
0.8264 3.1971 0.9887
0.0364 3.2036 0.9290
-0.7502 3.2098 0.9242
-3.5705 7.0295 2.1380
-5.3006 6.1687 2.1380
-7.2758 5.2105 2.2904
-8.4749 3.4078 2.2904
-9.1563 1.3218 2.2904
-9.2455 -0.8854 2.2904
-8.7285 -3.0321 2.2904
-7.6563 -4.9433 2.2904
-5.7262 -6.0453 2.1380
-4.0169 -7.0355 2.1380
-2.3147 -8.0849 2.2904
-0.3121 -8.1263 2.2904
1.5828 -7.7031 2.2904
3.2749 -6.8791 2.2904
4.6957 -5.7288 2.2904
5.7993 -4.3295 2.2904
6.5573 -2.7563 2.2904
6.9549 -1.0810 2.2904
6.9865 0.6285 2.2904
6.6543 2.3063 2.2904
5.9673 3.8868 2.2904
4.9422 5.3037 2.2904
3.6063 6.4885 2.2904
0.8677 3.1968 0.9933
0.0751 3.2033 0.9307
-0.7095 3.2095 0.9232
-3.4802 7.0603 2.1380
-5.2187 6.2227 2.1380
-7.2043 5.2908 2.2904
-3.7532 1.5615 1.0202
-9.1359 1.4305 2.2904
-9.2556 -0.7750 2.2904
-8.7682 -2.9290 2.2904
-7.7216 -4.8557 2.2904
-5.8052 -5.9837 2.1380
-3.9783 -6.7780 2.0710
-2.4156 -8.0697 2.2904
-0.4106 -8.1357 2.2904
1.4922 -7.7344 2.2904
3.1963 -6.9287 2.2904
4.6319 -5.7929 2.2904
5.7521 -4.4042 2.2904
6.5279 -2.8380 2.2904
6.9437 -1.1661 2.2904
6.9936 0.5433 2.2904
6.6795 2.2241 2.2904
6.0098 3.8111 2.2904
5.0011 5.2378 2.2904
3.6799 6.4359 2.2904
0.9093 3.1964 0.9981
0.1137 3.2029 0.9325
-0.6690 3.2092 0.9223
-3.3896 7.0900 2.1380
-5.1361 6.2755 2.1380
-7.1318 5.3701 2.2904
-3.7415 1.6094 1.0230
-9.1140 1.5388 2.2904
-9.2641 -0.6644 2.2904
-8.8065 -2.8253 2.2904
-7.7858 -4.7672 2.2904
-6.3029 -6.3431 2.2904
-4.1968 -6.9578 2.1380
-2.4363 -7.7967 2.2174
-0.5094 -8.1440 2.2904
1.4011 -7.7646 2.2904
2.8324 -6.3404 2.0813
4.5673 -5.8563 2.2904
5.7041 -4.4785 2.2904
6.4976 -2.9194 2.2904
6.9316 -1.2511 2.2904
6.9998 0.4579 2.2904
6.7037 2.1418 2.2904
6.0515 3.7350 2.2904
5.0593 5.1713 2.2904
3.7529 6.3825 2.2904
0.9511 3.1961 1.0030
0.1524 3.2026 0.9344
-0.6288 3.2089 0.9215
-3.2988 7.1184 2.1380
-5.0530 6.3272 2.1380
-7.0583 5.4483 2.2904
-8.3255 3.6998 2.2904
-9.0907 1.6468 2.2904
-9.2712 -0.5537 2.2904
-8.8434 -2.7211 2.2904
-7.8489 -4.6777 2.2904
-6.3860 -6.2747 2.2904
-4.2861 -6.9171 2.1380
-2.4430 -7.5009 2.1380
-0.6083 -8.1510 2.2904
1.3095 -7.7938 2.2904
2.7387 -6.3354 2.0655
4.5020 -5.9191 2.2904
5.6552 -4.5523 2.2904
6.4664 -3.0005 2.2904
6.9185 -1.3361 2.2904
7.0051 0.3726 2.2904
6.7271 2.0592 2.2904
6.0924 3.6585 2.2904
5.1166 5.1043 2.2904
3.8251 6.3284 2.2904
0.9933 3.1957 1.0081
0.1912 3.2023 0.9364
-0.5887 3.2086 0.9209
-3.2078 7.1458 2.1380
-4.9694 6.3777 2.1380
-6.9839 5.5254 2.2904
-8.2732 3.7956 2.2904
-9.0658 1.7543 2.2904
-9.2766 -0.4429 2.2904
-8.8788 -2.6164 2.2904
-7.9107 -4.5873 2.2904
-6.4683 -6.2052 2.2904
-4.3750 -6.8753 2.1380
-2.5370 -7.4832 2.1380
-0.7076 -8.1569 2.2904
1.2174 -7.8220 2.2904
2.6462 -6.3304 2.0501
4.4358 -5.9812 2.2904
5.6055 -4.6256 2.2904
6.4342 -3.0813 2.2904
6.9046 -1.4209 2.2904
7.0095 0.2871 2.2904
6.7496 1.9764 2.2904
6.1324 3.5817 2.2904
5.1731 5.0367 2.2904
3.8966 6.2735 2.2904
1.0357 3.1954 1.0134
0.2300 3.2020 0.9386
-0.5488 3.2082 0.9204
-3.1166 7.1719 2.1380
-4.8852 6.4271 2.1380
-6.9085 5.6015 2.2904
-8.2196 3.8906 2.2904
-9.0395 1.8615 2.2904
-9.2806 -0.3321 2.2904
-8.9129 -2.5111 2.2904
-7.9714 -4.4961 2.2904
-6.5497 -6.1345 2.2904
-4.4635 -6.8322 2.1380
-2.6309 -7.4643 2.1380
-0.8070 -8.1616 2.2904
1.1248 -7.8492 2.2904
2.6771 -6.6286 2.1327
4.3688 -6.0427 2.2904
5.5549 -4.6985 2.2904
6.4012 -3.1619 2.2904
6.8897 -1.5056 2.2904
7.0129 0.2016 2.2904
6.7711 1.8934 2.2904
6.1715 3.5044 2.2904
5.2289 4.9686 2.2904
3.9675 6.2179 2.2904
1.0785 3.1950 1.0188
0.2688 3.2017 0.9409
-0.5091 3.2079 0.9200
-3.0252 7.1969 2.1380
-4.8005 6.4754 2.1380
-6.8322 5.6766 2.2904
-8.1648 3.9848 2.2904
-9.0118 1.9683 2.2904
-9.2830 -0.2213 2.2904
-8.9454 -2.4054 2.2904
-8.0308 -4.4040 2.2904
-6.6302 -6.0627 2.2904
-4.5516 -6.7879 2.1380
-2.7247 -7.4442 2.1380
-0.9066 -8.1651 2.2904
1.0318 -7.8753 2.2904
2.5818 -6.6221 2.1172
4.3011 -6.1035 2.2904
5.5035 -4.7709 2.2904
6.3673 -3.2421 2.2904
6.8740 -1.5902 2.2904
7.0155 0.1161 2.2904
6.7918 1.8102 2.2904
6.2098 3.4268 2.2904
5.2838 4.8999 2.2904
4.0376 6.1616 2.2904
2.5076 7.1423 2.2904
0.3078 3.2014 0.9434
-0.4695 3.2076 0.9198
-2.9337 7.2207 2.1380
-4.7153 6.5225 2.1380
-6.7551 5.7505 2.2904
-8.1087 4.0782 2.2904
-8.9825 2.0746 2.2904
-9.2839 -0.1104 2.2904
-8.9765 -2.2991 2.2904
-8.0891 -4.3110 2.2904
-6.7098 -5.9898 2.2904
-4.6391 -6.7425 2.1380
-2.8183 -7.4229 2.1380
-1.0064 -8.1674 2.2904
0.9384 -7.9004 2.2904
2.4990 -6.6459 2.1117
4.2327 -6.1637 2.2904
5.4512 -4.8428 2.2904
6.3325 -3.3221 2.2904
6.8573 -1.6746 2.2904
7.0171 0.0305 2.2904
6.8116 1.7268 2.2904
6.2472 3.3488 2.2904
5.3380 4.8307 2.2904
4.1070 6.1046 2.2904
2.5901 7.1010 2.2904
0.3468 3.2010 0.9460
-0.4301 3.2073 0.9197
-2.8420 7.2434 2.1380
-4.6297 6.5684 2.1380
-6.6770 5.8233 2.2904
-8.0515 4.1707 2.2904
-8.9519 2.1805 2.2904
-9.2832 0.0005 2.2904
-9.0062 -2.1925 2.2904
-8.1461 -4.2172 2.2904
-6.7885 -5.9157 2.2904
-4.7262 -6.6959 2.1380
-2.9118 -7.4003 2.1380
-1.1065 -8.1685 2.2904
0.8445 -7.9244 2.2904
2.4262 -6.6968 2.1150
4.1634 -6.2231 2.2904
5.3981 -4.9142 2.2904
6.2968 -3.4017 2.2904
6.8397 -1.7589 2.2904
7.0178 -0.0550 2.2904
6.8305 1.6432 2.2904
6.2838 3.2705 2.2904
5.3913 4.7606 2.2904
4.1757 6.0470 2.2904
2.6720 7.0589 2.2904
0.3859 3.2007 0.9487
-0.3907 3.2070 0.9197
-2.7501 7.2648 2.1380
-4.5435 6.6133 2.1380
-6.5981 5.8951 2.2904
-7.9930 4.2624 2.2904
-8.9198 2.2859 2.2904
-9.2811 0.1113 2.2904
-9.0343 -2.0854 2.2904
-8.2018 -4.1225 2.2904
-6.8664 -5.8405 2.2904
-4.8127 -6.6480 2.1380
-3.0052 -7.3766 2.1380
-1.2066 -8.1683 2.2904
0.7502 -7.9473 2.2904
2.3664 -6.7868 2.1309
4.0934 -6.2818 2.2904
5.3441 -4.9851 2.2904
6.2602 -3.4810 2.2904
6.8211 -1.8431 2.2904
7.0176 -0.1406 2.2904
6.8484 1.5594 2.2904
6.3194 3.1919 2.2904
5.4438 4.6907 2.2904
4.2436 5.9886 2.2904
2.7533 7.0159 2.2904
0.4251 3.2004 0.9516
-0.3516 3.2067 0.9199
-2.6582 7.2852 2.1380
-4.4570 6.6569 2.1380
-6.5184 5.9657 2.2904
-7.9334 4.3532 2.2904
-8.8863 2.3908 2.2904
-9.2773 0.2221 2.2904
-9.0610 -1.9779 2.2904
-8.2563 -4.0271 2.2904
-6.9432 -5.7642 2.2904
-4.8987 -6.5991 2.1380
-3.0984 -7.3517 2.1380
-1.3069 -8.1670 2.2904
0.6555 -7.9691 2.2904
2.4591 -7.3367 2.2904
4.0227 -6.3399 2.2904
5.2893 -5.0555 2.2904
6.2227 -3.5600 2.2904
6.8017 -1.9270 2.2904
7.0165 -0.2263 2.2904
6.8655 1.4755 2.2904
6.3543 3.1128 2.2904
5.4955 4.6200 2.2904
4.3109 5.9295 2.2904
2.8340 6.9720 2.2904
0.4645 3.2001 0.9547
-0.3125 3.2064 0.9202
-2.5661 7.3044 2.1380
-4.3700 6.6994 2.1380
-6.4377 6.0352 2.2904
-7.8726 4.4432 2.2904
-8.8513 2.4952 2.2904
-9.2721 0.3328 2.2904
-9.0863 -1.8699 2.2904
-8.3095 -3.9309 2.2904
-7.0192 -5.6868 2.2904
-4.9842 -6.5489 2.1380
-3.1914 -7.3255 2.1380
-1.4074 -8.1644 2.2904
0.5602 -7.9899 2.2904
2.3741 -7.3775 2.2904
3.9511 -6.3972 2.2904
5.2337 -5.1253 2.2904
6.1843 -3.6387 2.2904
6.7814 -2.0109 2.2904
7.0145 -0.3119 2.2904
6.8817 1.3914 2.2904
6.3882 3.0335 2.2904
5.5464 4.5488 2.2904
4.3774 5.8698 2.2904
2.9141 6.9273 2.2904
0.5040 3.1998 0.9578
-0.2735 3.2061 0.9207
-2.4739 7.3224 2.1380
-4.2826 6.7407 2.1380
-6.3564 6.1036 2.2904
-7.8107 4.5322 2.2904
-8.8150 2.5991 2.2904
-9.2653 0.4434 2.2904
-9.1100 -1.7617 2.2904
-8.3614 -3.8338 2.2904
-7.0941 -5.6083 2.2904
-5.0691 -6.4975 2.1380
-3.2842 -7.2981 2.1380
-1.5079 -8.1605 2.2904
0.4647 -8.0096 2.2904
2.2884 -7.4175 2.2904
3.8789 -6.4538 2.2904
5.1772 -5.1946 2.2904
6.1450 -3.7169 2.2904
6.7601 -2.0945 2.2904
7.0115 -0.3975 2.2904
6.8970 1.3071 2.2904
6.4213 2.9539 2.2904
5.5965 4.4771 2.2904
4.4432 5.8094 2.2904
2.9936 6.8818 2.2904
0.5437 3.1994 0.9612
-0.2346 3.2057 0.9213
-2.3817 7.3393 2.1380
-4.1948 6.7809 2.1380
-6.2742 6.1707 2.2904
-7.7476 4.6203 2.2904
-8.7772 2.7023 2.2904
-9.2570 0.5539 2.2904
-9.1322 -1.6532 2.2904
-8.4119 -3.7361 2.2904
-7.1680 -5.5288 2.2904
-5.1534 -6.4451 2.1380
-3.3768 -7.2695 2.1380
-1.6086 -8.1555 2.2904
0.3688 -8.0281 2.2904
2.2021 -7.4566 2.2904
3.8059 -6.5096 2.2904
5.1199 -5.2634 2.2904
6.1049 -3.7949 2.2904
6.7380 -2.1779 2.2904
7.0076 -0.4830 2.2904
6.9113 1.2228 2.2904
6.4535 2.8739 2.2904
5.6458 4.4048 2.2904
4.5082 5.7485 2.2904
3.0724 6.8355 2.2904
0.5835 3.1991 0.9646
-0.1957 3.2054 0.9220
-2.2895 7.3550 2.1380
-4.1066 6.8199 2.1380
-6.1913 6.2368 2.2904
-7.6834 4.7076 2.2904
-8.7382 2.8049 2.2904
-9.2472 0.6642 2.2904
-9.1529 -1.5442 2.2904
-8.4612 -3.6375 2.2904
-7.2409 -5.4483 2.2904
-5.2372 -6.3914 2.1380
-3.4690 -7.2397 2.1380
-1.7094 -8.1491 2.2904
0.2726 -8.0455 2.2904
2.1154 -7.4947 2.2904
3.7322 -6.5647 2.2904
5.0617 -5.3317 2.2904
6.0639 -3.8724 2.2904
6.7149 -2.2612 2.2904
7.0029 -0.5686 2.2904
6.9248 1.1382 2.2904
6.4848 2.7937 2.2904
5.6942 4.3322 2.2904
4.5725 5.6868 2.2904
3.1507 6.7882 2.2904
0.6234 3.1988 0.9682
-0.1570 3.2051 0.9228
-2.1972 7.3695 2.1380
-4.0180 6.8578 2.1380
-6.1077 6.3016 2.2904
-7.6182 4.7938 2.2904
-8.6976 2.9071 2.2904
-9.2358 0.7744 2.2904
-9.1721 -1.4351 2.2904
-8.5092 -3.5384 2.2904
-7.3128 -5.3666 2.2904
-5.3204 -6.3365 2.1380
-3.5610 -7.2088 2.1380
-1.8101 -8.1416 2.2904
0.1759 -8.0618 2.2904
2.0279 -7.5319 2.2904
3.6578 -6.6190 2.2904
5.0028 -5.3993 2.2904
6.0220 -3.9496 2.2904
6.6909 -2.3443 2.2904
6.9972 -0.6541 2.2904
6.9374 1.0536 2.2904
6.5153 2.7131 2.2904
5.7418 4.2591 2.2904
4.6360 5.6245 2.2904
3.2282 6.7403 2.2904
0.6636 3.1985 0.9720
-0.1183 3.2048 0.9238
-0.9155 3.2111 0.9299
-3.9292 6.8944 2.1380
-6.0232 6.3654 2.2904
-7.5518 4.8791 2.2904
-8.6558 3.0085 2.2904
-9.2229 0.8843 2.2904
-9.1898 -1.3256 2.2904
-8.5558 -3.4384 2.2904
-7.3836 -5.2840 2.2904
-5.4028 -6.2806 2.1380
-3.6529 -7.1765 2.1380
-1.9110 -8.1328 2.2904
0.0790 -8.0770 2.2904
1.9401 -7.5680 2.2904
3.5826 -6.6726 2.2904
4.9430 -5.4664 2.2904
5.9792 -4.0263 2.2904
6.6660 -2.4271 2.2904
6.9905 -0.7396 2.2904
6.9490 0.9687 2.2904
6.5448 2.6324 2.2904
5.7885 4.1855 2.2904
4.6988 5.5615 2.2904
3.3052 6.6915 2.2904
0.7039 3.1981 0.9760
-0.0796 3.2045 0.9249
-0.8738 3.2108 0.9283
-3.8400 6.9300 2.1380
-5.9381 6.4279 2.2904
-7.4844 4.9634 2.2904
-8.6126 3.1093 2.2904
-9.2085 0.9941 2.2904
-9.2060 -1.2160 2.2904
-8.6010 -3.3379 2.2904
-7.4534 -5.2003 2.2904
-5.4847 -6.2234 2.1380
-3.7443 -7.1431 2.1380
-2.0119 -8.1227 2.2904
-0.0183 -8.0911 2.2904
1.8515 -7.6033 2.2904
3.5068 -6.7254 2.2904
4.8824 -5.5328 2.2904
5.9355 -4.1027 2.2904
6.6402 -2.5098 2.2904
6.9830 -0.8249 2.2904
6.9598 0.8839 2.2904
6.5736 2.5512 2.2904
5.8345 4.1115 2.2904
4.7607 5.4981 2.2904
3.3814 6.6419 2.2904
0.7445 3.1978 0.9801
-0.0409 3.2042 0.9261
-0.8324 3.2105 0.9268
-3.7505 6.9643 2.1380
-5.4628 6.0575 2.1380
-7.4159 5.0468 2.2904
-8.5680 3.2094 2.2904
-9.1926 1.1035 2.2904
-9.2207 -1.1060 2.2904
-8.6449 -3.2366 2.2904
-7.5221 -5.1157 2.2904
-5.5658 -6.1652 2.1380
-3.8355 -7.1085 2.1380
-2.1129 -8.1114 2.2904
-0.1159 -8.1039 2.2904
1.7625 -7.6375 2.2904
3.4302 -6.7774 2.2904
4.8210 -5.5988 2.2904
5.8910 -4.1787 2.2904
6.6135 -2.5921 2.2904
6.9746 -0.9104 2.2904
6.9696 0.7988 2.2904
6.6013 2.4699 2.2904
5.8795 4.0371 2.2904
4.8220 5.4339 2.2904
3.4571 6.5916 2.2904
0.7853 3.1975 0.9843
-0.0023 3.2039 0.9275
-0.7912 3.2102 0.9254
-3.6607 6.9975 2.1380
-5.3821 6.1136 2.1380
-7.3464 5.1291 2.2904
-8.5221 3.3089 2.2904
-9.1752 1.2128 2.2904
-9.2338 -0.9959 2.2904
-8.6874 -3.1348 2.2904
-7.5897 -5.0300 2.2904
-5.6464 -6.1058 2.1380
-3.9263 -7.0726 2.1380
-2.2137 -8.0988 2.2904
-0.2138 -8.1157 2.2904
1.6729 -7.6708 2.2904
3.3530 -6.8286 2.2904
4.7588 -5.6641 2.2904
5.8456 -4.2543 2.2904
6.5859 -2.6743 2.2904
6.9652 -0.9956 2.2904
6.9785 0.7138 2.2904
6.6283 2.3882 2.2904
5.9238 3.9622 2.2904
4.8824 5.3692 2.2904
3.5320 6.5405 2.2904
0.8264 3.1971 0.9887
0.0364 3.2036 0.9290
-0.7503 3.2098 0.9242
-3.5707 7.0294 2.1380
-5.3007 6.1687 2.1380
-7.2758 5.2105 2.2904
-8.4750 3.4077 2.2904
-9.1563 1.3217 2.2904
-9.2455 -0.8856 2.2904
-8.7285 -3.0322 2.2904
-7.6561 -4.9434 2.2904
-5.7261 -6.0454 2.1380
-4.0168 -7.0356 2.1380
-2.3147 -8.0849 2.2904
-0.3121 -8.1263 2.2904
1.5829 -7.7030 2.2904
3.2750 -6.8790 2.2904
4.6958 -5.7288 2.2904
5.7993 -4.3295 2.2904
6.5574 -2.7562 2.2904
6.9549 -1.0809 2.2904
6.9865 0.6286 2.2904
6.6543 2.3063 2.2904
5.9672 3.8869 2.2904
4.9421 5.3038 2.2904
3.6063 6.4886 2.2904
0.8677 3.1968 0.9933
0.0750 3.2033 0.9307
-0.7095 3.2095 0.9232
-3.4803 7.0603 2.1380
-5.2187 6.2227 2.1380
-7.2044 5.2907 2.2904
-3.7532 1.5615 1.0202
-9.1359 1.4304 2.2904
-9.2556 -0.7750 2.2904
-8.7682 -2.9292 2.2904
-7.7215 -4.8558 2.2904
-5.8052 -5.9837 2.1380
-3.9783 -6.7780 2.0710
-2.4155 -8.0698 2.2904
-0.4105 -8.1357 2.2904
1.4922 -7.7343 2.2904
3.1963 -6.9287 2.2904
4.6320 -5.7928 2.2904
5.7522 -4.4041 2.2904
6.5279 -2.8379 2.2904
6.9437 -1.1660 2.2904
6.9936 0.5434 2.2904
6.6794 2.2242 2.2904
6.0098 3.8112 2.2904
5.0011 5.2379 2.2904
3.6798 6.4360 2.2904
0.9092 3.1964 0.9981
0.1137 3.2029 0.9325
-0.6690 3.2092 0.9223
-3.3898 7.0899 2.1380
-5.1362 6.2754 2.1380
-7.1318 5.3700 2.2904
-3.7415 1.6094 1.0230
-9.1141 1.5386 2.2904
-9.2641 -0.6645 2.2904
-8.8065 -2.8254 2.2904
-7.7858 -4.7672 2.2904
-6.3028 -6.3431 2.2904
-4.1967 -6.9579 2.1380
-2.4362 -7.7970 2.2175
-0.5093 -8.1440 2.2904
1.4012 -7.7646 2.2904
2.8325 -6.3404 2.0813
4.5674 -5.8563 2.2904
5.7041 -4.4784 2.2904
6.4976 -2.9193 2.2904
6.9316 -1.2510 2.2904
6.9998 0.4580 2.2904
6.7037 2.1418 2.2904
6.0515 3.7351 2.2904
5.0592 5.1714 2.2904
3.7528 6.3825 2.2904
0.9511 3.1961 1.0030
0.1524 3.2026 0.9344
-0.6288 3.2089 0.9215
-3.2989 7.1184 2.1380
-5.0531 6.3271 2.1380
-7.0584 5.4482 2.2904
-8.3256 3.6997 2.2904
-9.0907 1.6467 2.2904
-9.2712 -0.5538 2.2904
-8.8433 -2.7213 2.2904
-7.8488 -4.6778 2.2904
-6.3860 -6.2748 2.2904
-4.2861 -6.9171 2.1380
-2.4429 -7.5010 2.1380
-0.6082 -8.1510 2.2904
1.3095 -7.7938 2.2904
2.7388 -6.3354 2.0655
4.5020 -5.9190 2.2904
5.6553 -4.5522 2.2904
6.4664 -3.0004 2.2904
6.9186 -1.3360 2.2904
7.0051 0.3727 2.2904
6.7271 2.0593 2.2904
6.0923 3.6586 2.2904
5.1165 5.1044 2.2904
3.8250 6.3284 2.2904
0.9932 3.1957 1.0081
0.1911 3.2023 0.9364
-0.5887 3.2086 0.9209
-3.2079 7.1457 2.1380
-4.9695 6.3776 2.1380
-6.9839 5.5253 2.2904
-8.2732 3.7955 2.2904
-9.0659 1.7542 2.2904
-9.2766 -0.4431 2.2904
-8.8788 -2.6165 2.2904
-7.9107 -4.5874 2.2904
-6.4681 -6.2053 2.2904
-4.3749 -6.8753 2.1380
-2.5370 -7.4832 2.1380
-0.7075 -8.1569 2.2904
1.2175 -7.8220 2.2904
2.6463 -6.3304 2.0501
4.4358 -5.9812 2.2904
5.6055 -4.6256 2.2904
6.4343 -3.0812 2.2904
6.9046 -1.4208 2.2904
7.0095 0.2872 2.2904
6.7495 1.9764 2.2904
6.1323 3.5818 2.2904
5.1730 5.0368 2.2904
3.8966 6.2735 2.2904
1.0357 3.1954 1.0134
0.2299 3.2020 0.9386
-0.5488 3.2082 0.9204
-3.1167 7.1719 2.1380
-4.8852 6.4271 2.1380
-6.9086 5.6014 2.2904
-8.2197 3.8905 2.2904
-9.0395 1.8614 2.2904
-9.2806 -0.3322 2.2904
-8.9128 -2.5113 2.2904
-7.9713 -4.4962 2.2904
-6.5496 -6.1346 2.2904
-4.4635 -6.8322 2.1380
-2.6308 -7.4643 2.1380
-0.8069 -8.1616 2.2904
1.1249 -7.8492 2.2904
2.6772 -6.6287 2.1328
4.3689 -6.0426 2.2904
5.5550 -4.6984 2.2904
6.4012 -3.1618 2.2904
6.8897 -1.5055 2.2904
7.0129 0.2017 2.2904
6.7711 1.8935 2.2904
6.1715 3.5045 2.2904
5.2288 4.9686 2.2904
3.9674 6.2180 2.2904
1.0784 3.1950 1.0188
0.2688 3.2017 0.9409
-0.5091 3.2079 0.9200
-3.0253 7.1969 2.1380
-4.8006 6.4753 2.1380
-6.8323 5.6765 2.2904
-8.1648 3.9847 2.2904
-9.0118 1.9681 2.2904
-9.2830 -0.2214 2.2904
-8.9454 -2.4054 2.2904
-8.0308 -4.4040 2.2904
-6.6301 -6.0628 2.2904
-4.5514 -6.7880 2.1380
-2.7246 -7.4442 2.1380
-0.9065 -8.1651 2.2904
1.0320 -7.8753 2.2904
2.5820 -6.6221 2.1172
4.3012 -6.1035 2.2904
5.5035 -4.7708 2.2904
6.3674 -3.2420 2.2904
6.8740 -1.5901 2.2904
7.0155 0.1161 2.2904
6.7918 1.8102 2.2904
6.2097 3.4269 2.2904
5.2837 4.9000 2.2904
4.0375 6.1617 2.2904
2.5076 7.1423 2.2904
0.3077 3.2014 0.9434
-0.4695 3.2076 0.9198
-2.9337 7.2207 2.1380
-4.7154 6.5224 2.1380
-6.7552 5.7504 2.2904
-8.1088 4.0781 2.2904
-8.9826 2.0746 2.2904
-9.2839 -0.1105 2.2904
-8.9765 -2.2993 2.2904
-8.0890 -4.3111 2.2904
-6.7098 -5.9898 2.2904
-4.6390 -6.7425 2.1380
-2.8182 -7.4229 2.1380
-1.0063 -8.1674 2.2904
0.9385 -7.9004 2.2904
2.4991 -6.6459 2.1117
4.2328 -6.1636 2.2904
5.4513 -4.8427 2.2904
6.3325 -3.3220 2.2904
6.8573 -1.6746 2.2904
7.0171 0.0307 2.2904
6.8115 1.7269 2.2904
6.2472 3.3489 2.2904
5.3379 4.8307 2.2904
4.1069 6.1047 2.2904
2.5900 7.1011 2.2904
0.3467 3.2011 0.9460
-0.4301 3.2073 0.9197
-2.8421 7.2433 2.1380
-4.6298 6.5684 2.1380
-6.6771 5.8233 2.2904
-8.0515 4.1707 2.2904
-8.9519 2.1804 2.2904
-9.2832 0.0003 2.2904
-9.0061 -2.1925 2.2904
-8.1460 -4.2173 2.2904
-6.7884 -5.9158 2.2904
-4.7260 -6.6959 2.1380
-2.9118 -7.4003 2.1380
-1.1064 -8.1685 2.2904
0.8446 -7.9243 2.2904
2.4263 -6.6967 2.1150
4.1635 -6.2231 2.2904
5.3981 -4.9141 2.2904
6.2968 -3.4016 2.2904
6.8397 -1.7588 2.2904
7.0178 -0.0550 2.2904
6.8304 1.6432 2.2904
6.2837 3.2706 2.2904
5.3912 4.7613 2.2904
4.1756 6.0470 2.2904
2.6719 7.0589 2.2904
0.3858 3.2007 0.9487
-0.3908 3.2070 0.9197
-2.7502 7.2648 2.1380
-4.5436 6.6132 2.1380
-6.5982 5.8950 2.2904
-7.9931 4.2623 2.2904
-8.9198 2.2858 2.2904
-9.2811 0.1112 2.2904
-9.0343 -2.0855 2.2904
-8.2017 -4.1227 2.2904
-6.8663 -5.8405 2.2904
-4.8127 -6.6481 2.1380
-3.0051 -7.3766 2.1380
-1.2065 -8.1683 2.2904
0.7502 -7.9473 2.2904
2.3664 -6.7868 2.1309
4.0935 -6.2818 2.2904
5.3442 -4.9850 2.2904
6.2602 -3.4810 2.2904
6.8212 -1.8430 2.2904
7.0176 -0.1405 2.2904
6.8484 1.5595 2.2904
6.3194 3.1919 2.2904
5.4438 4.6908 2.2904
4.2435 5.9887 2.2904
2.7532 7.0159 2.2904
0.4251 3.2004 0.9516
-0.3516 3.2067 0.9199
-2.6583 7.2852 2.1380
-4.4571 6.6568 2.1380
-6.5184 5.9656 2.2904
-7.9335 4.3532 2.2904
-8.8863 2.3906 2.2904
-9.2773 0.2219 2.2904
-9.0610 -1.9780 2.2904
-8.2562 -4.0272 2.2904
-6.9432 -5.7642 2.2904
-4.8986 -6.5991 2.1380
-3.0983 -7.3517 2.1380
-1.3069 -8.1670 2.2904
0.6555 -7.9691 2.2904
2.4592 -7.3366 2.2904
4.0227 -6.3398 2.2904
5.2893 -5.0554 2.2904
6.2227 -3.5600 2.2904
6.8017 -1.9269 2.2904
7.0165 -0.2262 2.2904
6.8655 1.4755 2.2904
6.3543 3.1129 2.2904
5.4955 4.6201 2.2904
4.3108 5.9296 2.2904
2.8339 6.9721 2.2904
0.4616 3.1999 1.0341
-0.3154 3.2062 0.9992
-2.3637 6.7098 2.1380
-4.0111 6.1387 2.1380
-5.5008 5.1500 2.1380
-7.1908 4.0537 2.2904
-8.0724 2.2730 2.2904
-8.4496 0.3025 2.2904
-8.2805 -1.7031 2.2904
-7.5790 -3.5823 2.2904
-6.4125 -5.1898 2.2904
-4.5640 -5.9882 2.1380
-2.9314 -6.7139 2.1380
-1.3000 -7.5016 2.2904
0.5093 -7.3597 2.2904
2.1853 -6.8118 2.2904
3.6491 -5.9191 2.2904
4.8444 -4.7508 2.2904
5.7335 -3.3775 2.2904
6.2935 -1.8685 2.2904
6.5132 -0.2904 2.2904
6.3898 1.2926 2.2904
5.9284 2.8175 2.2904
5.1416 4.2212 2.2904
4.0511 5.4398 2.2904
2.6899 6.4087 2.2904
0.5011 3.1996 1.0374
-0.2764 3.2059 0.9996
-2.2794 6.7273 2.1380
-3.9314 6.1773 2.1380
-5.4319 5.2088 2.1380
-7.1349 4.1353 2.2904
-8.0398 2.3678 2.2904
-8.4436 0.4032 2.2904
-8.3020 -1.6045 2.2904
-7.6259 -3.4937 2.2904
-6.4803 -5.1177 2.2904
-4.6411 -5.9406 2.1380
-3.0161 -6.6880 2.1380
-1.3922 -7.4971 2.2904
0.4213 -7.3769 2.2904
2.1059 -6.8479 2.2904
3.5819 -5.9709 2.2904
4.7917 -4.8147 2.2904
5.6967 -3.4500 2.2904
6.2735 -1.9462 2.2904
6.5103 -0.3700 2.2904
6.4041 1.2143 2.2904
5.9594 2.7436 2.2904
5.1884 4.1548 2.2904
4.1123 5.3843 2.2904
2.7637 6.3672 2.2904
0.5408 3.1992 1.0409
-0.2375 3.2055 1.0001
-2.1949 6.7436 2.1380
-3.8514 6.2149 2.1380
-5.3624 5.2669 2.1380
-7.0779 4.2161 2.2904
-8.0058 2.4620 2.2904
-8.4362 0.5038 2.2904
-8.3221 -1.5056 2.2904
-7.6716 -3.4044 2.2904
-6.5472 -5.0447 2.2904
-4.7177 -5.8920 2.1380
-3.1005 -6.6610 2.1380
-1.4845 -7.4915 2.2904
0.3329 -7.3931 2.2904
2.0261 -6.8832 2.2904
3.5141 -6.0220 2.2904
4.7382 -4.8780 2.2904
5.6591 -3.5221 2.2904
6.2527 -2.0236 2.2904
6.5066 -0.4495 2.2904
6.4175 1.1359 2.2904
5.9895 2.6694 2.2904
5.2344 4.0881 2.2904
4.1729 5.3281 2.2904
2.8370 6.3249 2.2904
0.5806 3.1989 1.0446
-0.1986 3.2052 1.0007
-2.1104 6.7589 2.1380
-3.7711 6.2514 2.1380
-5.2922 5.3238 2.1380
-7.0200 4.2961 2.2904
-7.9706 2.5557 2.2904
-8.4274 0.6043 2.2904
-8.3408 -1.4064 2.2904
-7.7161 -3.3145 2.2904
-6.6132 -4.9708 2.2904
-4.7938 -5.8423 2.1380
-3.1847 -6.6329 2.1380
-1.5768 -7.4848 2.2904
0.2442 -7.4082 2.2904
1.9457 -6.9176 2.2904
3.4455 -6.0723 2.2904
4.6839 -4.9408 2.2904
5.6207 -3.5938 2.2904
6.2310 -2.1009 2.2904
6.5021 -0.5290 2.2904
6.4301 1.0573 2.2904
6.0188 2.5949 2.2904
5.2797 4.0208 2.2904
4.2328 5.2714 2.2904
2.9096 6.2819 2.2904
0.6205 3.1986 1.0484
-0.1599 3.2049 1.0015
-2.0355 6.8054 2.1482
-3.6904 6.2869 2.1380
-5.2213 5.3798 2.1380
-6.9610 4.3752 2.2904
-7.9342 2.6489 2.2904
-8.4173 0.7046 2.2904
-8.3582 -1.3070 2.2904
-7.7594 -3.2239 2.2904
-6.6782 -4.8959 2.2904
-4.8692 -5.7916 2.1380
-3.2687 -6.6037 2.1380
-1.6692 -7.4769 2.2904
0.1552 -7.4223 2.2904
1.8649 -6.9511 2.2904
3.3764 -6.1220 2.2904
4.6289 -5.0031 2.2904
5.5814 -3.6652 2.2904
6.2085 -2.1779 2.2904
6.4967 -0.6084 2.2904
6.4418 0.9786 2.2904
6.0473 2.5202 2.2904
5.3241 3.9532 2.2904
4.2921 5.2140 2.2904
2.9817 6.2380 2.2904
0.6607 3.1983 1.0524
-0.1211 3.2046 1.0024
-2.0165 7.0496 2.2210
-3.6093 6.3213 2.1380
-5.1498 5.4348 2.1380
-6.9011 4.4535 2.2904
-7.8966 2.7415 2.2904
-8.4058 0.8048 2.2904
-8.3742 -1.2074 2.2904
-7.8015 -3.1327 2.2904
-6.7423 -4.8202 2.2904
-4.9441 -5.7398 2.1380
-3.3523 -6.5734 2.1380
-1.7616 -7.4678 2.2904
0.0659 -7.4354 2.2904
1.7835 -6.9837 2.2904
3.3065 -6.1709 2.2904
4.5731 -5.0648 2.2904
5.5414 -3.7362 2.2904
6.1851 -2.2548 2.2904
6.4904 -0.6879 2.2904
6.4527 0.8998 2.2904
6.0749 2.4451 2.2904
5.3678 3.8848 2.2904
4.3506 5.1561 2.2904
3.0532 6.1935 2.2904
0.7010 3.1979 1.0565
-0.0824 3.2043 1.0035
-0.8767 3.2106 1.0097
-3.5279 6.3547 2.1380
-5.0776 5.4889 2.1380
-6.8401 4.5309 2.2904
-7.8577 2.8336 2.2904
-8.3930 0.9047 2.2904
-8.3889 -1.1075 2.2904
-7.8423 -3.0410 2.2904
-6.8054 -4.7434 2.2904
-5.0184 -5.6870 2.1380
-3.4357 -6.5420 2.1380
-1.8540 -7.4576 2.2904
-0.0237 -7.4474 2.2904
1.7016 -7.0154 2.2904
3.2360 -6.2191 2.2904
4.5166 -5.1260 2.2904
5.5005 -3.8068 2.2904
6.1609 -2.3315 2.2904
6.4833 -0.7672 2.2904
6.4627 0.8209 2.2904
6.1017 2.3698 2.2904
5.4107 3.8166 2.2904
4.4084 5.0975 2.2904
3.1241 6.1481 2.2904
0.7416 3.1976 1.0608
-0.0438 3.2040 1.0048
-0.8353 3.2103 1.0079
-3.4463 6.3870 2.1380
-5.0049 5.5419 2.1380
-6.7783 4.6074 2.2904
-7.8176 2.9251 2.2904
-8.3787 1.0044 2.2904
-8.4022 -1.0074 2.2904
-7.8819 -2.9486 2.2904
-6.8676 -4.6659 2.2904
-5.0920 -5.6332 2.1380
-3.5188 -6.5095 2.1380
-1.9465 -7.4463 2.2904
-0.1135 -7.4583 2.2904
1.6193 -7.0461 2.2904
3.1649 -6.2665 2.2904
4.4593 -5.1866 2.2904
5.4588 -3.8771 2.2904
6.1358 -2.4079 2.2904
6.4753 -0.8465 2.2904
6.4718 0.7420 2.2904
6.1277 2.2943 2.2904
5.4529 3.7472 2.2904
4.4655 5.0384 2.2904
3.1944 6.1021 2.2904
0.7824 3.1973 1.0653
-0.0051 3.2037 1.0061
-0.7941 3.2100 1.0063
-3.3643 6.4182 2.1380
-4.9316 5.5939 2.1380
-6.7154 4.6830 2.2904
-7.7763 3.0160 2.2904
-8.3632 1.1039 2.2904
-8.4141 -0.9071 2.2904
-7.9203 -2.8557 2.2904
-6.9287 -4.5874 2.2904
-5.1651 -5.5784 2.1380
-3.6016 -6.4760 2.1380
-2.0388 -7.4338 2.2904
-0.2036 -7.4682 2.2904
1.5365 -7.0760 2.2904
3.0931 -6.3132 2.2904
4.4013 -5.2467 2.2904
5.4164 -3.9469 2.2904
6.1099 -2.4841 2.2904
6.4665 -0.9258 2.2904
6.4802 0.6629 2.2904
6.1529 2.2185 2.2904
5.4942 3.6783 2.2904
4.5219 4.9787 2.2904
3.2641 6.0553 2.2904
0.8234 3.1969 1.0700
0.0335 3.2034 1.0076
-0.7532 3.2096 1.0049
-3.2821 6.4483 2.1380
-4.8577 5.6449 2.1380
-6.6517 4.7577 2.2904
-7.7338 3.1062 2.2904
-8.3462 1.2032 2.2904
-8.4247 -0.8067 2.2904
-7.9574 -2.7622 2.2904
-6.9888 -4.5081 2.2904
-5.2374 -5.5226 2.1380
-3.6840 -6.4413 2.1380
-2.1312 -7.4201 2.2904
-0.2939 -7.4770 2.2904
1.4532 -7.1049 2.2904
3.0208 -6.3592 2.2904
4.3426 -5.3061 2.2904
5.3731 -4.0163 2.2904
6.0832 -2.5600 2.2904
6.4568 -1.0049 2.2904
6.4876 0.5837 2.2904
6.1773 2.1425 2.2904
5.5348 3.6086 2.2904
4.5776 4.9185 2.2904
3.3332 6.0078 2.2904
0.8647 3.1966 1.0748
0.0722 3.2031 1.0093
-0.7125 3.2093 1.0036
-3.1996 6.4774 2.1380
-4.7832 5.6950 2.1380
-6.5870 4.8315 2.2904
-3.7537 1.5599 1.1180
-8.3279 1.3022 2.2904
-8.4338 -0.7062 2.2904
-7.9933 -2.6682 2.2904
-7.0478 -4.4279 2.2904
-5.3091 -5.4658 2.1380
-3.7660 -6.4055 2.1380
-2.2235 -7.4053 2.2904
-0.3845 -7.4847 2.2904
1.3695 -7.1329 2.2904
2.9478 -6.4043 2.2904
4.2831 -5.3650 2.2904
5.3290 -4.0854 2.2904
6.0556 -2.6357 2.2904
6.4462 -1.0840 2.2904
6.4942 0.5045 2.2904
6.2008 2.0662 2.2904
5.5746 3.5385 2.2904
4.6325 4.8577 2.2904
3.4017 5.9596 2.2904
0.9063 3.1962 1.0798
0.1108 3.2027 1.0111
-0.6720 3.2090 1.0025
-3.1169 6.5055 2.1380
-4.7082 5.7440 2.1380
-6.5214 4.9044 2.2904
-3.7404 1.6070 1.1206
-8.3083 1.4009 2.2904
-8.4416 -0.6055 2.2904
-8.0279 -2.5737 2.2904
-7.1059 -4.3469 2.2904
-5.3801 -5.4080 2.1380
-3.8478 -6.3686 2.1380
-2.3157 -7.3893 2.2904
-0.4753 -7.4914 2.2904
1.2853 -7.1600 2.2904
2.8741 -6.4487 2.2904
4.2229 -5.4232 2.2904
5.2841 -4.1540 2.2904
6.0271 -2.7112 2.2904
6.4348 -1.1630 2.2904
6.5000 0.4252 2.2904
6.2235 1.9897 2.2904
5.6136 3.4680 2.2904
4.6868 4.7964 2.2904
3.4695 5.9107 2.2904
0.9481 3.1959 1.0851
0.1495 3.2024 1.0131
-0.6317 3.2087 1.0016
-3.0340 6.5324 2.1380
-4.6327 5.7920 2.1380
-6.4549 4.9764 2.2904
-7.5992 3.3731 2.2904
-8.2874 1.4993 2.2904
-8.4480 -0.5047 2.2904
-8.0612 -2.4787 2.2904
-7.1629 -4.2650 2.2904
-5.4504 -5.3492 2.1380
-3.9291 -6.3307 2.1380
-2.4079 -7.3721 2.2904
-0.5663 -7.4969 2.2904
1.2007 -7.1861 2.2904
2.7999 -6.4923 2.2904
4.1620 -5.4809 2.2904
5.2384 -4.2221 2.2904
5.9978 -2.7864 2.2904
6.4225 -1.2419 2.2904
6.5049 0.3458 2.2904
6.2453 1.9130 2.2904
5.6517 3.3971 2.2904
4.7403 4.7345 2.2904
3.5367 5.8610 2.2904
0.9902 3.1955 1.0905
0.1883 3.2021 1.0152
-0.5916 3.2084 1.0007
-2.9508 6.5583 2.1380
-4.5566 5.8389 2.1380
-6.3876 5.0472 2.2904
-7.5521 3.4608 2.2904
-8.2651 1.5973 2.2904
-8.4531 -0.4039 2.2904
-8.0932 -2.3832 2.2904
-7.2188 -4.1824 2.2904
-5.5200 -5.2895 2.1380
-4.0100 -6.2916 2.1380
-2.4173 -7.1108 2.2147
-0.6574 -7.5014 2.2904
1.1157 -7.2112 2.2904
2.7251 -6.5351 2.2904
4.1004 -5.5379 2.2904
5.1919 -4.2898 2.2904
5.9677 -2.8613 2.2904
6.4094 -1.3207 2.2904
6.5089 0.2664 2.2904
6.2663 1.8361 2.2904
5.6891 3.3258 2.2904
4.7930 4.6721 2.2904
3.6033 5.8107 2.2904
1.0327 3.1952 1.0961
0.2271 3.2018 1.0174
-0.5517 3.2080 1.0001
-2.8674 6.5832 2.1380
-4.4801 5.8849 2.1380
-6.3194 5.1174 2.2904
-7.5038 3.5477 2.2904
-8.2415 1.6950 2.2904
-8.4567 -0.3030 2.2904
-8.1239 -2.2873 2.2904
-7.2736 -4.0989 2.2904
-5.5888 -5.2287 2.1380
-4.0905 -6.2515 2.1380
-2.4225 -6.8549 2.1407
-0.7488 -7.5047 2.2904
1.0302 -7.2354 2.2904
2.6497 -6.5771 2.2904
4.0380 -5.5943 2.2904
5.1446 -4.3571 2.2904
5.9368 -2.9359 2.2904
6.3954 -1.3994 2.2904
6.5121 0.1869 2.2904
6.2865 1.7590 2.2904
5.7257 3.2542 2.2904
4.8451 4.6092 2.2904
3.6692 5.7597 2.2904
1.0755 3.1948 1.1019
0.2659 3.2015 1.0198
-0.5120 3.2077 0.9996
-2.7839 6.6069 2.1380
-4.4030 5.9298 2.1380
-6.2503 5.1865 2.2904
-7.4543 3.6339 2.2904
-8.2166 1.7924 2.2904
-8.4590 -0.2020 2.2904
-8.1533 -2.1909 2.2904
-7.3273 -4.0147 2.2904
-5.6569 -5.1670 2.1380
-4.1706 -6.2103 2.1380
-2.5051 -6.8270 2.1380
-0.8403 -7.5070 2.2904
0.9444 -7.2586 2.2904
2.5737 -6.6183 2.2904
3.9750 -5.6501 2.2904
5.0965 -4.4239 2.2904
5.9050 -3.0103 2.2904
6.3806 -1.4779 2.2904
6.5144 0.1074 2.2904
6.3058 1.6817 2.2904
5.7615 3.1823 2.2904
4.8964 4.5457 2.2904
3.7345 5.7081 2.2904
2.3126 6.6044 2.2904
0.3048 3.2012 1.0224
-0.4724 3.2074 0.9992
-2.7002 6.6296 2.1380
-4.3255 5.9736 2.1380
-6.1804 5.2546 2.2904
-7.4038 3.7193 2.2904
-8.1904 1.8893 2.2904
-8.4599 -0.1011 2.2904
-8.1814 -2.0942 2.2904
-7.3799 -3.9297 2.2904
-5.7243 -5.1044 2.1380
-4.2502 -6.1680 2.1380
-2.5907 -6.8066 2.1380
-0.9320 -7.5082 2.2904
0.8581 -7.2808 2.2904
2.4972 -6.6587 2.2904
3.9112 -5.7052 2.2904
5.0477 -4.4902 2.2904
5.8723 -3.0843 2.2904
6.3649 -1.5563 2.2904
6.5159 0.0279 2.2904
6.3243 1.6043 2.2904
5.7965 3.1100 2.2904
4.9469 4.4818 2.2904
3.7991 5.6557 2.2904
2.3891 6.5669 2.2904
0.3439 3.2009 1.0251
-0.4330 3.2071 0.9990
-2.6163 6.6513 2.1380
-4.2476 6.0165 2.1380
