ply
format ascii 1.0
element vertex 2176
property float32 x
property float32 y
property float32 z
end_header
0.9413 3.1841 1.1640
0.1458 3.1905 1.0889
-0.6327 3.1967 1.0788
-2.8071 6.0291 2.1381
-4.2739 5.3343 2.1381
-5.5464 4.2698 2.1381
-6.9833 3.0954 2.2905
-7.6074 1.3738 2.2905
-7.7517 -0.4639 2.2905
-7.3988 -2.2741 2.2905
-6.5807 -3.9156 2.2905
-5.0155 -4.9175 2.1381
-3.6236 -5.8300 2.1381
-2.2277 -6.8030 2.2905
-0.5294 -6.9330 2.2905
1.1070 -6.6596 2.2905
2.5942 -6.0284 2.2905
3.8657 -5.0980 2.2905
4.8737 -3.9326 2.2905
5.5869 -2.5980 2.2905
5.9868 -1.1587 2.2905
6.0650 0.3228 2.2905
5.8217 1.7851 2.2905
5.2647 3.1681 2.2905
4.4103 4.4110 2.2905
3.2844 5.4532 2.2905
0.9833 3.1838 1.1697
0.1844 3.1902 1.0910
-0.5927 3.1964 1.0778
-2.7306 6.0537 2.1381
-4.2043 5.3781 2.1381
-5.4891 4.3311 2.1381
-6.9404 3.1761 2.2905
-7.5873 1.4638 2.2905
-7.7563 -0.3714 2.2905
-7.4280 -2.1865 2.2905
-6.6317 -3.8395 2.2905
-5.0790 -4.8621 2.1381
-3.6978 -5.7935 2.1381
-2.3124 -6.7853 2.2905
-0.6136 -6.9364 2.2905
1.0281 -6.6822 2.2905
2.5245 -6.0676 2.2905
3.8080 -5.1506 2.2905
4.8301 -3.9954 2.2905
5.5586 -2.6677 2.2905
5.9744 -1.2321 2.2905
6.0688 0.2487 2.2905
5.8414 1.7134 2.2905
5.2998 3.1017 2.2905
4.4597 4.3531 2.2905
3.3466 5.4068 2.2905
1.0256 3.1835 1.1756
0.2230 3.1899 1.0933
-0.5530 3.1961 1.0769
-2.6540 6.0773 2.1381
-4.1342 5.4209 2.1381
-5.4310 4.3914 2.1381
-6.8966 3.2561 2.2905
-7.5659 1.5534 2.2905
-7.7597 -0.2790 2.2905
-7.4559 -2.0985 2.2905
-6.6816 -3.7627 2.2905
-5.1419 -4.8059 2.1381
-3.7715 -5.7560 2.1381
-2.3951 -6.7615 2.2888
-0.6980 -6.9388 2.2905
0.9488 -6.7039 2.2905
2.4543 -6.1060 2.2905
3.7497 -5.2026 2.2905
4.7857 -4.0578 2.2905
5.5295 -2.7372 2.2905
5.9612 -1.3055 2.2905
6.0717 0.1745 2.2905
5.8603 1.6415 2.2905
5.3341 3.0352 2.2905
4.5084 4.2947 2.2905
3.4082 5.3597 2.2905
1.0682 3.1831 1.1817
0.2617 3.1896 1.0958
-0.5134 3.1957 1.0763
-2.5771 6.0999 2.1381
-4.0636 5.4629 2.1381
-5.3722 4.4513 2.1381
-6.8516 3.3355 2.2905
-7.5434 1.6428 2.2905
-7.7619 -0.1864 2.2905
-7.4827 -2.0101 2.2905
-6.7305 -3.6852 2.2905
-5.2041 -4.7489 2.1381
-3.8449 -5.7175 2.1381
-2.4007 -6.5273 2.2160
-0.7826 -6.9401 2.2905
0.8692 -6.7247 2.2905
2.3835 -6.1437 2.2905
3.6908 -5.2541 2.2905
4.7407 -4.1198 2.2905
5.4996 -2.8064 2.2905
5.9472 -1.3787 2.2905
6.0739 0.1003 2.2905
5.8785 1.5694 2.2905
5.3677 2.9681 2.2905
4.5565 4.2358 2.2905
3.4692 5.3120 2.2905
2.1422 6.1362 2.2905
0.3005 3.1893 1.0984
-0.4739 3.1954 1.0758
-2.5001 6.1215 2.1381
-3.9926 5.5039 2.1381
-5.3127 4.5102 2.1381
-6.8057 3.4142 2.2905
-7.5196 1.7318 2.2905
-7.7628 -0.0939 2.2905
-7.5083 -1.9213 2.2905
-6.7785 -3.6070 2.2905
-5.2656 -4.6910 2.1381
-3.9178 -5.6781 2.1381
-2.4058 -6.3068 2.1478
-0.8672 -6.9404 2.2905
0.7892 -6.7446 2.2905
2.3122 -6.1806 2.2905
3.6312 -5.3049 2.2905
4.6949 -4.1813 2.2905
5.4689 -2.8753 2.2905
5.9324 -1.4518 2.2905
6.0752 0.0261 2.2905
5.8958 1.4971 2.2905
5.4005 2.9007 2.2905
4.6038 4.1765 2.2905
3.5296 5.2637 2.2905
2.2136 6.1019 2.2905
0.3394 3.1889 1.1012
-0.4346 3.1951 1.0754
-2.4228 6.1422 2.1381
-3.9212 5.5439 2.1381
-5.2525 4.5682 2.1381
-6.7588 3.4922 2.2905
-7.4947 1.8204 2.2905
-7.7624 -0.0014 2.2905
-7.5327 -1.8322 2.2905
-6.8254 -3.5282 2.2905
-5.3263 -4.6322 2.1381
-3.9903 -5.6377 2.1381
-2.4735 -6.2580 2.1381
-0.9520 -6.9397 2.2905
0.7089 -6.7635 2.2905
2.2404 -6.2167 2.2905
3.5710 -5.3551 2.2905
4.6483 -4.2424 2.2905
5.4375 -2.9439 2.2905
5.9168 -1.5248 2.2905
6.0757 -0.0481 2.2905
5.9124 1.4247 2.2905
5.4326 2.8331 2.2905
4.6505 4.1167 2.2905
3.5894 5.2148 2.2905
2.2844 6.0668 2.2905
0.3784 3.1886 1.1042
-0.3954 3.1948 1.0752
-2.3455 6.1619 2.1381
-3.8493 5.5830 2.1381
-5.1916 4.6254 2.1381
-6.7108 3.5695 2.2905
-7.4686 1.9087 2.2905
-7.7608 0.0912 2.2905
-7.5559 -1.7427 2.2905
-6.8712 -3.4486 2.2905
-5.3863 -4.5726 2.1381
-4.0623 -5.5963 2.1381
-2.5519 -6.2365 2.1381
-1.0368 -6.9380 2.2905
0.6283 -6.7816 2.2905
2.1681 -6.2520 2.2905
3.5101 -5.4047 2.2905
4.6011 -4.3029 2.2905
5.4052 -3.0122 2.2905
5.9004 -1.5977 2.2905
6.0755 -0.1224 2.2905
5.9281 1.3521 2.2905
5.4639 2.7651 2.2905
4.6965 4.0564 2.2905
3.6486 5.1652 2.2905
2.3547 6.0310 2.2905
0.4175 3.1883 1.1073
-0.3564 3.1945 1.0752
-2.2680 6.1806 2.1381
-3.7771 5.6211 2.1381
-5.1300 4.6818 2.1381
-6.6619 3.6462 2.2905
-7.4413 1.9965 2.2905
-7.7579 0.1836 2.2905
-7.5779 -1.6529 2.2905
-6.9160 -3.3685 2.2905
-5.4456 -4.5121 2.1381
-4.1339 -5.5539 2.1381
-2.6301 -6.2140 2.1381
-1.1218 -6.9352 2.2905
0.5473 -6.7987 2.2905
2.0953 -6.2865 2.2905
3.4486 -5.4537 2.2905
4.5531 -4.3631 2.2905
5.3722 -3.0803 2.2905
5.8832 -1.6703 2.2905
6.0744 -0.1966 2.2905
5.9431 1.2793 2.2905
5.4945 2.6968 2.2905
4.7417 3.9957 2.2905
3.7072 5.1150 2.2905
2.4246 5.9944 2.2905
0.4567 3.1880 1.1106
-0.3175 3.1942 1.0753
-2.1903 6.1986 2.1381
-3.7044 5.6583 2.1381
-5.0677 4.7373 2.1381
-6.6120 3.7222 2.2905
-7.4128 2.0840 2.2905
-7.7538 0.2760 2.2905
-7.5987 -1.5627 2.2905
-6.9598 -3.2876 2.2905
-5.5042 -4.4508 2.1381
-4.2050 -5.5106 2.1381
-2.7081 -6.1904 2.1381
-1.2068 -6.9313 2.2905
0.4660 -6.8148 2.2905
2.0220 -6.3203 2.2905
3.3864 -5.5020 2.2905
4.5044 -4.4227 2.2905
5.3384 -3.1480 2.2905
5.8652 -1.7429 2.2905
6.0725 -0.2709 2.2905
5.9573 1.2064 2.2905
5.5243 2.6283 2.2905
4.7863 3.9345 2.2905
3.7651 5.0643 2.2905
2.4939 5.9570 2.2905
0.4960 3.1877 1.1141
-0.2786 3.1939 1.0756
-2.1126 6.2151 2.1381
-3.6314 5.6945 2.1381
-5.0048 4.7920 2.1381
-6.5612 3.7974 2.2905
-7.3832 2.1710 2.2905
-7.7484 0.3684 2.2905
-7.6182 -1.4723 2.2905
-7.0025 -3.2062 2.2905
-5.5619 -4.3887 2.1381
-4.2756 -5.4663 2.1381
-2.7859 -6.1659 2.1381
-1.2919 -6.9265 2.2905
0.3844 -6.8300 2.2905
1.9482 -6.3532 2.2905
3.3237 -5.5496 2.2905
4.4550 -4.4818 2.2905
5.3039 -3.2153 2.2905
5.8464 -1.8152 2.2905
6.0698 -0.3451 2.2905
5.9706 1.1334 2.2905
5.5533 2.5594 2.2905
4.8301 3.8729 2.2905
3.8225 5.0129 2.2905
2.5627 5.9189 2.2905
0.5355 3.1874 1.1177
-0.2398 3.1936 1.0760
-2.0496 6.2760 2.1536
-3.5580 5.7298 2.1381
-4.9413 4.8457 2.1381
-6.5094 3.8719 2.2905
-7.3524 2.2576 2.2905
-7.7418 0.4606 2.2905
-7.6365 -1.3815 2.2905
-7.0441 -3.1242 2.2905
-5.6189 -4.3259 2.1381
-4.3457 -5.4210 2.1381
-2.8634 -6.1404 2.1381
-1.3770 -6.9205 2.2905
0.3025 -6.8443 2.2905
1.8740 -6.3852 2.2905
3.2603 -5.5967 2.2905
4.4049 -4.5405 2.2905
5.2686 -3.2824 2.2905
5.8267 -1.8874 2.2905
6.0663 -0.4193 2.2905
5.9832 1.0602 2.2905
5.5816 2.4903 2.2905
4.8733 3.8108 2.2905
3.8791 4.9610 2.2905
2.6310 5.8801 2.2905
0.5752 3.1871 1.1215
-0.2011 3.1933 1.0766
-2.0325 6.4866 2.2206
-3.4843 5.7641 2.1381
-4.8772 4.8986 2.1381
-6.4566 3.9457 2.2905
-7.3205 2.3437 2.2905
-7.7339 0.5527 2.2905
-7.6536 -1.2907 2.2905
-7.0846 -3.0415 2.2905
-5.6751 -4.2622 2.1381
-4.4152 -5.3749 2.1381
-2.9407 -6.1139 2.1381
-1.4622 -6.9136 2.2905
0.2205 -6.8575 2.2905
1.7992 -6.4165 2.2905
3.1964 -5.6430 2.2905
4.3541 -4.5987 2.2905
5.2325 -3.3490 2.2905
5.8063 -1.9594 2.2905
6.0620 -0.4935 2.2905
5.9950 0.9868 2.2905
5.6091 2.4210 2.2905
4.9157 3.7483 2.2905
3.9352 4.9084 2.2905
2.6989 5.8406 2.2905
0.6149 3.1867 1.1255
-0.1625 3.1929 1.0773
-2.0129 6.7058 2.2905
-3.4102 5.7974 2.1381
-4.8124 4.9506 2.1381
-6.4029 4.0187 2.2905
-7.2875 2.4293 2.2905
-7.7248 0.6448 2.2905
-7.6695 -1.1996 2.2905
-7.1240 -2.9584 2.2905
-5.7305 -4.1977 2.1381
-4.4843 -5.3277 2.1381
-3.0177 -6.0864 2.1381
-1.5473 -6.9055 2.2905
0.1380 -6.8699 2.2905
1.7240 -6.4470 2.2905
3.1319 -5.6886 2.2905
4.3026 -4.6563 2.2905
5.1957 -3.4154 2.2905
5.7851 -2.0313 2.2905
6.0568 -0.5676 2.2905
6.0060 0.9135 2.2905
5.6358 2.3512 2.2905
4.9574 3.6854 2.2905
3.9906 4.8554 2.2905
2.7661 5.8003 2.2905
0.6550 3.1864 1.1296
-0.1239 3.1926 1.0782
-1.9293 6.7195 2.2905
-3.3358 5.8298 2.1381
-4.7470 5.0017 2.1381
-6.3483 4.0910 2.2905
-7.2533 2.5144 2.2905
-7.7144 0.7365 2.2905
-7.6841 -1.1081 2.2905
-7.1623 -2.8746 2.2905
-5.7850 -4.1325 2.1381
-4.5527 -5.2797 2.1381
-3.0946 -6.0578 2.1381
-1.6325 -6.8964 2.2905
0.0554 -6.8812 2.2905
1.6484 -6.4765 2.2905
3.0666 -5.7335 2.2905
4.2504 -4.7134 2.2905
5.1581 -3.4813 2.2905
5.7631 -2.1028 2.2905
6.0509 -0.6417 2.2905
6.0162 0.8399 2.2905
5.6618 2.2814 2.2905
4.9984 3.6221 2.2905
4.0454 4.8017 2.2905
2.8329 5.7593 2.2905
0.6951 3.1861 1.1340
-0.0854 3.1923 1.0793
-0.8769 3.1986 1.0883
-3.2611 5.8612 2.1381
-4.6811 5.0519 2.1381
-6.2929 4.1623 2.2905
-7.2180 2.5991 2.2905
-7.7028 0.8283 2.2905
-7.6975 -1.0166 2.2905
-7.1995 -2.7904 2.2905
-6.2549 -4.3564 2.2905
-4.6207 -5.2306 2.1381
-3.1710 -6.0283 2.1381
-1.7176 -6.8863 2.2905
-0.0275 -6.8916 2.2905
1.5723 -6.5053 2.2905
3.0009 -5.7778 2.2905
4.1975 -4.7700 2.2905
5.1197 -3.5470 2.2905
5.7403 -2.1743 2.2905
6.0442 -0.7157 2.2905
6.0256 0.7663 2.2905
5.6870 2.2111 2.2905
5.0386 3.5584 2.2905
4.0994 4.7474 2.2905
2.8990 5.7177 2.2905
0.7356 3.1858 1.1385
-0.0468 3.1920 1.0805
-0.8356 3.1983 1.0863
-3.1861 5.8916 2.1381
-4.6146 5.1013 2.1381
-6.2365 4.2331 2.2905
-7.1816 2.6832 2.2905
-7.6900 0.9197 2.2905
-7.7097 -0.9248 2.2905
-7.2356 -2.7055 2.2905
-6.3115 -4.2849 2.2905
-4.6880 -5.1808 2.1381
-3.2473 -5.9977 2.1381
-1.8028 -6.8751 2.2905
-0.1106 -6.9010 2.2905
1.4959 -6.5332 2.2905
2.9346 -5.8214 2.2905
4.1439 -4.8261 2.2905
5.0806 -3.6122 2.2905
5.7167 -2.2454 2.2905
6.0366 -0.7898 2.2905
6.0341 0.6926 2.2905
5.7113 2.1408 2.2905
5.0781 3.4943 2.2905
4.1529 4.6927 2.2905
2.9647 5.6753 2.2905
0.7762 3.1855 1.1432
-0.0084 3.1917 1.0818
-0.7945 3.1980 1.0844
-3.1108 5.9211 2.1381
-4.5476 5.1497 2.1381
-6.1793 4.3029 2.2905
-7.1441 2.7668 2.2905
-7.6759 1.0110 2.2905
-7.7206 -0.8330 2.2905
-7.2705 -2.6203 2.2905
-6.3672 -4.2125 2.2905
-4.7547 -5.1299 2.1381
-3.3232 -5.9662 2.1381
-1.8878 -6.8628 2.2905
-0.1940 -6.9094 2.2905
1.4189 -6.5602 2.2905
2.8677 -5.8642 2.2905
4.0896 -4.8815 2.2905
5.0407 -3.6771 2.2905
5.6924 -2.3164 2.2905
6.0283 -0.8636 2.2905
6.0419 0.6188 2.2905
5.7350 2.0701 2.2905
5.1169 3.4298 2.2905
4.2057 4.6375 2.2905
3.0297 5.6322 2.2905
0.8171 3.1851 1.1481
0.0302 3.1914 1.0834
-0.7538 3.1977 1.0828
-3.0353 5.9495 2.1381
-4.4799 5.1972 2.1381
-6.1211 4.3720 2.2905
-7.1056 2.8497 2.2905
-7.6607 1.1020 2.2905
-7.7302 -0.7409 2.2905
-7.3043 -2.5344 2.2905
-6.4220 -4.1395 2.2905
-4.8208 -5.0782 2.1381
-3.3988 -5.9336 2.1381
-1.9729 -6.8495 2.2905
-0.2776 -6.9168 2.2905
1.3416 -6.5864 2.2905
2.8001 -5.9063 2.2905
4.0346 -4.9365 2.2905
5.0001 -3.7416 2.2905
5.6672 -2.3871 2.2905
6.0191 -0.9375 2.2905
6.0489 0.5449 2.2905
5.7578 1.9991 2.2905
5.1549 3.3650 2.2905
4.2578 4.5816 2.2905
3.0942 5.5885 2.2905
0.8582 3.1848 1.1532
0.0686 3.1911 1.0850
-0.7132 3.1973 1.0813
-2.9595 5.9770 2.1381
-4.4118 5.2438 2.1381
-6.0622 4.4401 2.2905
-3.7543 1.5580 1.2170
-7.6441 1.1929 2.2905
-7.7386 -0.6486 2.2905
-7.3370 -2.4482 2.2905
-6.4758 -4.0656 2.2905
-4.8864 -5.0255 2.1381
-3.4741 -5.9001 2.1381
-2.0579 -6.8350 2.2905
-0.3613 -6.9232 2.2905
1.2638 -6.6117 2.2905
2.7320 -5.9478 2.2905
3.9790 -4.9908 2.2905
4.9587 -3.8056 2.2905
5.6412 -2.4577 2.2905
6.0091 -1.0114 2.2905
6.0551 0.4710 2.2905
5.7799 1.9281 2.2905
5.1923 3.2997 2.2905
4.3093 4.5252 2.2905
3.1581 5.5441 2.2905
0.8996 3.1845 1.1585
0.1072 3.1908 1.0869
-0.6728 3.1970 1.0799
-2.8835 6.0035 2.1381
-4.3432 5.2895 2.1381
-6.0024 4.5076 2.2905
-3.7390 1.6042 1.2191
-7.6264 1.2834 2.2905
-7.7458 -0.5564 2.2905
-7.3685 -2.3614 2.2905
-6.5288 -3.9910 2.2905
-4.9512 -4.9720 2.1381
-3.5490 -5.8656 2.1381
-2.1428 -6.8196 2.2905
-0.4452 -6.9286 2.2905
1.1857 -6.6360 2.2905
2.6635 -5.9884 2.2905
3.9227 -5.0447 2.2905
4.9166 -3.8693 2.2905
5.6145 -2.5279 2.2905
5.9984 -1.0850 2.2905
6.0604 0.3969 2.2905
5.8012 1.8567 2.2905
5.2288 3.2341 2.2905
4.3601 4.4684 2.2905
3.2215 5.4990 2.2905
0.9413 3.1841 1.1640
0.1457 3.1905 1.0889
-0.6327 3.1967 1.0788
-2.8072 6.0291 2.1381
-4.2740 5.3342 2.1381
-5.5465 4.2697 2.1381
-6.9833 3.0953 2.2905
-7.6075 1.3737 2.2905
-7.7517 -0.4640 2.2905
-7.3988 -2.2743 2.2905
-6.5806 -3.9157 2.2905
-5.0154 -4.9175 2.1381
-3.6236 -5.8300 2.1381
-2.2276 -6.8030 2.2905
-0.5293 -6.9330 2.2905
1.1071 -6.6596 2.2905
2.5943 -6.0284 2.2905
3.8658 -5.0979 2.2905
4.8737 -3.9325 2.2905
5.5869 -2.5979 2.2905
5.9868 -1.1586 2.2905
6.0650 0.3229 2.2905
5.8217 1.7852 2.2905
5.2647 3.1681 2.2905
4.4102 4.4110 2.2905
3.2843 5.4532 2.2905
0.9833 3.1838 1.1697
0.1843 3.1902 1.0910
-0.5927 3.1964 1.0778
-2.7307 6.0536 2.1381
-4.2044 5.3780 2.1381
-5.4891 4.3311 2.1381
-6.9405 3.1760 2.2905
-7.5873 1.4636 2.2905
-7.7563 -0.3716 2.2905
-7.4279 -2.1866 2.2905
-6.6316 -3.8395 2.2905
-5.0789 -4.8622 2.1381
-3.6977 -5.7936 2.1381
-2.3123 -6.7854 2.2905
-0.6136 -6.9364 2.2905
1.0282 -6.6822 2.2905
2.5246 -6.0675 2.2905
3.8081 -5.1506 2.2905
4.8301 -3.9954 2.2905
5.5586 -2.6676 2.2905
5.9744 -1.2320 2.2905
6.0688 0.2487 2.2905
5.8414 1.7135 2.2905
5.2997 3.1018 2.2905
4.4596 4.3531 2.2905
3.3465 5.4068 2.2905
1.0256 3.1835 1.1756
0.2230 3.1899 1.0933
-0.5530 3.1961 1.0769
-2.6540 6.0773 2.1381
-4.1342 5.4209 2.1381
-5.4311 4.3914 2.1381
-6.8966 3.2560 2.2905
-7.5659 1.5534 2.2905
-7.7597 -0.2790 2.2905
-7.4559 -2.0986 2.2905
-6.6815 -3.7628 2.2905
-5.1419 -4.8060 2.1381
-3.7715 -5.7560 2.1381
-2.3951 -6.7619 2.2889
-0.6979 -6.9387 2.2905
0.9489 -6.7039 2.2905
2.4543 -6.1060 2.2905
3.7498 -5.2026 2.2905
4.7858 -4.0577 2.2905
5.5295 -2.7371 2.2905
5.9612 -1.3054 2.2905
6.0717 0.1746 2.2905
5.8603 1.6416 2.2905
5.3341 3.0350 2.2905
4.5084 4.2947 2.2905
3.4081 5.3598 2.2905
1.0681 3.1831 1.1817
0.2617 3.1896 1.0958
-0.5134 3.1957 1.0763
-2.5772 6.0999 2.1381
-4.0637 5.4628 2.1381
-5.3723 4.4513 2.1381
-6.8517 3.3354 2.2905
-7.5434 1.6426 2.2905
-7.7619 -0.1866 2.2905
-7.4827 -2.0102 2.2905
-6.7305 -3.6852 2.2905
-5.2040 -4.7490 2.1381
-3.8448 -5.7176 2.1381
-2.4007 -6.5274 2.2160
-0.7825 -6.9401 2.2905
0.8693 -6.7247 2.2905
2.3836 -6.1436 2.2905
3.6908 -5.2540 2.2905
4.7407 -4.1198 2.2905
5.4996 -2.8063 2.2905
5.9472 -1.3786 2.2905
6.0739 0.1004 2.2905
5.8785 1.5694 2.2905
5.3677 2.9682 2.2905
4.5564 4.2359 2.2905
3.4691 5.3121 2.2905
2.1422 6.1362 2.2905
0.3005 3.1893 1.0984
-0.4740 3.1954 1.0758
-2.5001 6.1215 2.1381
-3.9927 5.5038 2.1381
-5.3128 4.5101 2.1381
-6.8058 3.4140 2.2905
-7.5196 1.7317 2.2905
-7.7628 -0.0940 2.2905
-7.5083 -1.9214 2.2905
-6.7784 -3.6071 2.2905
-5.2655 -4.6910 2.1381
-3.9177 -5.6781 2.1381
-2.4058 -6.3071 2.1479
-0.8671 -6.9404 2.2905
0.7893 -6.7446 2.2905
2.3123 -6.1806 2.2905
3.6313 -5.3048 2.2905
4.6949 -4.1812 2.2905
5.4689 -2.8752 2.2905
5.9324 -1.4518 2.2905
6.0752 0.0262 2.2905
5.8958 1.4972 2.2905
5.4005 2.9008 2.2905
4.6038 4.1765 2.2905
3.5295 5.2638 2.2905
2.2135 6.1019 2.2905
0.3394 3.1889 1.1012
-0.4346 3.1951 1.0754
-2.4230 6.1421 2.1381
-3.9213 5.5438 2.1381
-5.2525 4.5682 2.1381
-6.7588 3.4921 2.2905
-7.4947 1.8203 2.2905
-7.7624 -0.0015 2.2905
-7.5327 -1.8322 2.2905
-6.8253 -3.5282 2.2905
-5.3262 -4.6323 2.1381
-3.9902 -5.6377 2.1381
-2.4735 -6.2580 2.1381
-0.9519 -6.9397 2.2905
0.7090 -6.7635 2.2905
2.2405 -6.2166 2.2905
3.5710 -5.3551 2.2905
4.6484 -4.2423 2.2905
5.4375 -2.9438 2.2905
5.9168 -1.5247 2.2905
6.0757 -0.0481 2.2905
5.9124 1.4247 2.2905
5.4326 2.8331 2.2905
4.6504 4.1168 2.2905
3.5893 5.2148 2.2905
2.2843 6.0668 2.2905
0.3783 3.1886 1.1042
-0.3955 3.1948 1.0752
-2.3456 6.1619 2.1381
-3.8494 5.5830 2.1381
-5.1917 4.6254 2.1381
-6.7109 3.5694 2.2905
-7.4686 1.9086 2.2905
-7.7608 0.0911 2.2905
-7.5559 -1.7428 2.2905
-6.8711 -3.4487 2.2905
-5.3863 -4.5726 2.1381
-4.0623 -5.5963 2.1381
-2.5518 -6.2365 2.1381
-1.0367 -6.9380 2.2905
0.6283 -6.7816 2.2905
2.1682 -6.2520 2.2905
3.5102 -5.4046 2.2905
4.6012 -4.3029 2.2905
5.4053 -3.0122 2.2905
5.9004 -1.5976 2.2905
6.0755 -0.1223 2.2905
5.9281 1.3522 2.2905
5.4639 2.7652 2.2905
4.6964 4.0565 2.2905
3.6485 5.1653 2.2905
2.3546 6.0310 2.2905
0.4174 3.1883 1.1073
-0.3564 3.1945 1.0752
-2.2681 6.1806 2.1381
-3.7772 5.6211 2.1381
-5.1301 4.6817 2.1381
-6.6619 3.6462 2.2905
-7.4413 1.9964 2.2905
-7.7579 0.1835 2.2905
-7.5779 -1.6529 2.2905
-6.9160 -3.3685 2.2905
-5.4456 -4.5121 2.1381
-4.1338 -5.5540 2.1381
-2.6300 -6.2140 2.1381
-1.1217 -6.9352 2.2905
0.5473 -6.7987 2.2905
2.0954 -6.2865 2.2905
3.4487 -5.4536 2.2905
4.5532 -4.3630 2.2905
5.3722 -3.0802 2.2905
5.8832 -1.6702 2.2905
6.0744 -0.1965 2.2905
5.9431 1.2794 2.2905
5.4945 2.6969 2.2905
4.7417 3.9958 2.2905
3.7071 5.1151 2.2905
2.4245 5.9944 2.2905
0.4538 3.1880 1.1922
-0.3204 3.1942 1.1564
-2.0612 5.8163 2.1617
-3.4378 5.2418 2.1381
-4.6929 4.3810 2.1381
-6.1129 3.4372 2.2905
-6.8455 1.9222 2.2905
-7.1563 0.2541 2.2905
-7.0133 -1.4414 2.2905
-6.4278 -3.0337 2.2905
-5.0897 -4.1112 2.1381
-3.8953 -5.0973 2.1381
-2.5150 -5.7361 2.1381
-1.1264 -6.4346 2.2905
0.4274 -6.3384 2.2905
1.8781 -5.8890 2.2905
3.1545 -5.1349 2.2905
4.2036 -4.1333 2.2905
4.9884 -2.9452 2.2905
5.4851 -1.6320 2.2905
5.6813 -0.2542 2.2905
5.5735 1.1292 2.2905
5.1661 2.4599 2.2905
4.4720 3.6801 2.2905
3.5130 4.7320 2.2905
2.3218 5.5587 2.2905
0.4931 3.1877 1.1958
-0.2816 3.1939 1.1566
-2.0456 6.0004 2.2239
-3.3704 5.2759 2.1381
-4.6351 4.4319 2.1381
-6.0663 3.5069 2.2905
-6.8184 2.0026 2.2905
-7.1514 0.3392 2.2905
-7.0312 -1.3580 2.2905
-6.4669 -2.9584 2.2905
-5.1427 -4.0536 2.1381
-3.9603 -5.0559 2.1381
-2.5868 -5.7128 2.1381
-1.2052 -6.4295 2.2905
0.3515 -6.3519 2.2905
1.8091 -5.9192 2.2905
3.0957 -5.1790 2.2905
4.1572 -4.1883 2.2905
4.9558 -3.0081 2.2905
5.4673 -1.6997 2.2905
5.6787 -0.3237 2.2905
5.5860 1.0609 2.2905
5.1934 2.3955 2.2905
4.5132 3.6226 2.2905
3.5667 4.6843 2.2905
2.3862 5.5236 2.2905
0.5326 3.1874 1.1996
-0.2428 3.1936 1.1569
-2.0291 6.1946 2.2898
-3.3027 5.3090 2.1381
-4.5767 4.4820 2.1381
-6.0188 3.5759 2.2905
-6.7903 2.0826 2.2905
-7.1454 0.4243 2.2905
-7.0480 -1.2744 2.2905
-6.5050 -2.8826 2.2905
-5.1950 -3.9952 2.1381
-4.0248 -5.0137 2.1381
-2.6584 -5.6887 2.1381
-1.2841 -6.4233 2.2905
0.2753 -6.3646 2.2905
0.9127 -3.1205 1.2016
3.0364 -5.2224 2.2905
4.1101 -4.2429 2.2905
4.9226 -3.0707 2.2905
5.4488 -1.7672 2.2905
5.6754 -0.3931 2.2905
5.5979 0.9923 2.2905
5.2200 2.3309 2.2905
4.5538 3.5647 2.2905
3.6199 4.6360 2.2905
2.4501 5.4877 2.2905
0.5722 3.1871 1.2036
-0.2041 3.1933 1.1574
-1.9524 6.2118 2.2905
-3.2347 5.3413 2.1381
-4.5177 4.5313 2.1381
-5.5733 3.4018 2.1381
-6.7612 2.1621 2.2905
-7.1383 0.5093 2.2905
-7.0637 -1.1905 2.2905
-6.5422 -2.8063 2.2905
-5.2465 -3.9362 2.1381
-4.0888 -4.9706 2.1381
-2.7298 -5.6636 2.1381
-1.3630 -6.4163 2.2905
0.1989 -6.3764 2.2905
1.6700 -5.9771 2.2905
2.9765 -5.2652 2.2905
4.0624 -4.2969 2.2905
4.8886 -3.1329 2.2905
5.4296 -1.8346 2.2905
5.6713 -0.4626 2.2905
5.6089 0.9237 2.2905
5.2459 2.2660 2.2905
4.5936 3.5064 2.2905
3.6725 4.5872 2.2905
2.5136 5.4512 2.2905
0.6120 3.1868 1.2078
-0.1655 3.1930 1.1581
-1.8750 6.2262 2.2905
-3.1663 5.3727 2.1381
-4.4582 4.5798 2.1381
-5.5273 3.4650 2.1381
-6.7310 2.2412 2.2905
-7.1300 0.5941 2.2905
-7.0783 -1.1065 2.2905
-6.5783 -2.7295 2.2905
-5.2973 -3.8764 2.1381
-4.1523 -4.9266 2.1381
-2.8009 -5.6376 2.1381
-1.4419 -6.4082 2.2905
0.1223 -6.3872 2.2905
1.5999 -6.0050 2.2905
2.9160 -5.3074 2.2905
4.0140 -4.3505 2.2905
4.8539 -3.1948 2.2905
5.4095 -1.9017 2.2905
5.6664 -0.5320 2.2905
5.6192 0.8549 2.2905
5.2710 2.2008 2.2905
4.6328 3.4477 2.2905
3.7245 4.5378 2.2905
2.5766 5.4140 2.2905
0.6520 3.1865 1.2121
-0.1269 3.1927 1.1590
-1.7976 6.2396 2.2905
-3.0976 5.4032 2.1381
-4.3981 4.6275 2.1381
-5.4806 3.5275 2.1381
-6.6997 2.3198 2.2905
-7.1206 0.6788 2.2905
-7.0917 -1.0222 2.2905
-6.6134 -2.6521 2.2905
-5.3474 -3.8160 2.1381
-4.2153 -4.8818 2.1381
-2.8718 -5.6107 2.1381
-1.5208 -6.3992 2.2905
0.0455 -6.3972 2.2905
1.5293 -6.0320 2.2905
2.8550 -5.3489 2.2905
3.9650 -4.4036 2.2905
4.8185 -3.2563 2.2905
5.3888 -1.9687 2.2905
5.6608 -0.6014 2.2905
5.6288 0.7861 2.2905
5.2955 2.1354 2.2905
4.6714 3.3886 2.2905
3.7760 4.4879 2.2905
2.6391 5.3762 2.2905
0.6922 3.1861 1.2167
-0.0883 3.1924 1.1600
-0.8800 3.1987 1.1719
-3.0287 5.4328 2.1381
-4.3374 4.6743 2.1381
-5.4331 3.5894 2.1381
-6.6675 2.3981 2.2905
-7.1100 0.7634 2.2905
-7.1040 -0.9378 2.2905
-6.6475 -2.5743 2.2905
-5.3967 -3.7548 2.1381
-4.2778 -4.8361 2.1381
-2.9424 -5.5828 2.1381
-1.5997 -6.3891 2.2905
-0.0316 -6.4062 2.2905
1.4583 -6.0582 2.2905
2.7934 -5.3898 2.2905
3.9153 -4.4562 2.2905
4.7823 -3.3176 2.2905
5.3673 -2.0355 2.2905
5.6544 -0.6708 2.2905
5.6376 0.7171 2.2905
5.3192 2.0697 2.2905
4.7092 3.3291 2.2905
3.8268 4.4375 2.2905
2.7010 5.3376 2.2905
0.7326 3.1858 1.2215
-0.0498 3.1921 1.1612
-0.8387 3.1983 1.1696
-2.9594 5.4615 2.1381
-4.2762 4.7204 2.1381
-5.3849 3.6506 2.1381
-6.6342 2.4758 2.2905
-7.0983 0.8477 2.2905
-7.1152 -0.8532 2.2905
-6.6805 -2.4960 2.2905
-5.4452 -3.6930 2.1381
-4.3397 -4.7896 2.1381
-3.0128 -5.5540 2.1381
-1.6785 -6.3781 2.2905
-0.1089 -6.4143 2.2905
1.3869 -6.0837 2.2905
2.7313 -5.4300 2.2905
3.8650 -4.5082 2.2905
4.7455 -3.3784 2.2905
5.3450 -2.1021 2.2905
5.6472 -0.7400 2.2905
5.6457 0.6481 2.2905
5.3421 2.0038 2.2905
4.7464 3.2692 2.2905
3.8769 4.3866 2.2905
2.7625 5.2984 2.2905
0.7733 3.1855 1.2264
-0.0113 3.1917 1.1626
-0.7976 3.1980 1.1675
-2.8899 5.4893 2.1381
-4.2145 4.7656 2.1381
-5.3359 3.7111 2.1381
-6.5999 2.5531 2.2905
-7.0855 0.9319 2.2905
-7.1252 -0.7684 2.2905
-6.7126 -2.4172 2.2905
-5.4929 -3.6305 2.1381
-4.4011 -4.7423 2.1381
-3.0828 -5.5243 2.1381
-1.7573 -6.3661 2.2905
-0.1863 -6.4215 2.2905
1.3151 -6.1083 2.2905
2.6686 -5.4695 2.2905
3.8140 -4.5598 2.2905
4.7080 -3.4389 2.2905
5.3220 -2.1684 2.2905
5.6393 -0.8092 2.2905
5.6530 0.5790 2.2905
5.3644 1.9377 2.2905
4.7829 3.2090 2.2905
3.9265 4.3351 2.2905
2.8235 5.2586 2.2905
0.8141 3.1852 1.2316
0.0272 3.1914 1.1641
-0.7568 3.1977 1.1656
-2.8201 5.5162 2.1381
-4.1523 4.8100 2.1381
-5.2862 3.7709 2.1381
-6.5646 2.6298 2.2905
-7.0716 1.0159 2.2905
-7.1341 -0.6835 2.2905
-6.7435 -2.3380 2.2905
-5.5398 -3.5673 2.1381
-4.4619 -4.6941 2.1381
-3.1525 -5.4937 2.1381
-1.8360 -6.3532 2.2905
-0.2639 -6.4278 2.2905
1.2430 -6.1321 2.2905
2.6055 -5.5084 2.2905
3.7624 -4.6108 2.2905
4.6698 -3.4990 2.2905
5.2982 -2.2345 2.2905
5.6306 -0.8784 2.2905
5.6595 0.5098 2.2905
5.3858 1.8714 2.2905
4.8186 3.1484 2.2905
3.9755 4.2831 2.2905
2.8839 5.2181 2.2905
0.8553 3.1848 1.2369
0.0657 3.1911 1.1658
-0.7162 3.1974 1.1639
-2.7501 5.5422 2.1381
-4.0896 4.8535 2.1381
-5.2357 3.8300 2.1381
-3.7548 1.5564 1.3174
-7.0566 1.0997 2.2905
-7.1418 -0.5985 2.2905
-6.7734 -2.2584 2.2905
-5.5859 -3.5035 2.1381
-4.5221 -4.6451 2.1381
-3.2219 -5.4622 2.1381
-1.9147 -6.3392 2.2905
-0.3417 -6.4331 2.2905
1.1705 -6.1551 2.2905
2.5418 -5.5466 2.2905
3.7102 -4.6612 2.2905
4.6308 -3.5587 2.2905
5.2738 -2.3004 2.2905
5.6212 -0.9474 2.2905
5.6653 0.4406 2.2905
5.4066 1.8047 2.2905
4.8537 3.0875 2.2905
4.0238 4.2307 2.2905
2.9438 5.1770 2.2905
0.8967 3.1845 1.2425
0.1043 3.1908 1.1676
-0.6759 3.1970 1.1624
-2.6798 5.5673 2.1381
-4.0264 4.8962 2.1381
-5.1845 3.8884 2.1381
-3.7378 1.6018 1.3190
-7.0404 1.1833 2.2905
-7.1484 -0.5134 2.2905
-6.8023 -2.1783 2.2905
-5.6312 -3.4387 2.1381
-4.5817 -4.5953 2.1381
-3.2910 -5.4298 2.1381
-1.9932 -6.3242 2.2905
-0.4197 -6.4376 2.2905
1.0977 -6.1772 2.2905
2.4776 -5.5841 2.2905
3.6574 -4.7112 2.2905
4.5912 -3.6181 2.2905
5.2485 -2.3661 2.2905
5.6110 -1.0164 2.2905
5.6703 0.3712 2.2905
5.4266 1.7381 2.2905
4.8881 3.0262 2.2905
4.0715 4.1777 2.2905
3.0032 5.1352 2.2905
0.9383 3.1842 1.2483
0.1428 3.1905 1.1697
-0.6357 3.1967 1.1610
-2.6093 5.5916 2.1381
-3.9627 4.9380 2.1381
-5.1326 3.9461 2.1381
-6.4529 2.8569 2.2905
-7.0231 1.2666 2.2905
-7.1539 -0.4282 2.2905
-6.8301 -2.0979 2.2905
-5.6756 -3.3739 2.1381
-4.6407 -4.5446 2.1381
-3.3597 -5.3964 2.1381
-2.0717 -6.3083 2.2905
-0.4978 -6.4410 2.2905
1.0245 -6.1986 2.2905
2.4129 -5.6208 2.2905
3.6039 -4.7606 2.2905
4.5509 -3.6770 2.2905
5.2226 -2.4315 2.2905
5.6000 -1.0853 2.2905
5.6746 0.3019 2.2905
5.4459 1.6711 2.2905
4.9218 2.9645 2.2905
4.1186 4.1241 2.2905
3.0620 5.0928 2.2905
0.9803 3.1838 1.2543
0.1814 3.1902 1.1719
-0.5958 3.1964 1.1598
-2.5386 5.6149 2.1381
-3.8986 4.9790 2.1381
-5.0799 4.0031 2.1381
-6.4137 2.9315 2.2905
-7.0047 1.3496 2.2905
-7.1582 -0.3430 2.2905
-6.8568 -2.0170 2.2905
-5.7192 -3.3082 2.1381
-4.6991 -4.4932 2.1381
-3.4280 -5.3622 2.1381
-2.1500 -6.2914 2.2905
-0.5760 -6.4436 2.2905
0.9509 -6.2190 2.2905
2.3477 -5.6569 2.2905
3.5498 -4.8094 2.2905
4.5099 -3.7355 2.2905
5.1958 -2.4967 2.2905
5.5883 -1.1541 2.2905
5.6781 0.2325 2.2905
5.4645 1.6040 2.2905
4.9549 2.9026 2.2905
4.1650 4.0702 2.2905
3.1203 5.0498 2.2905
1.0226 3.1835 1.2605
0.2201 3.1899 1.1743
-0.5560 3.1961 1.1588
-2.4677 5.6373 2.1381
-3.8340 5.0192 2.1381
-5.0266 4.0594 2.1381
-6.3735 3.0055 2.2905
-6.9853 1.4323 2.2905
-7.1614 -0.2577 2.2905
-6.8824 -1.9358 2.2905
-5.7620 -3.2419 2.1381
-4.7569 -4.4409 2.1381
-3.4960 -5.3270 2.1381
-2.2282 -6.2734 2.2905
-0.6543 -6.4451 2.2905
0.8771 -6.2387 2.2905
2.2821 -5.6923 2.2905
3.4952 -4.8576 2.2905
4.4681 -3.7936 2.2905
5.1684 -2.5620 2.2905
5.5759 -1.2227 2.2905
5.6808 0.1630 2.2905
5.4823 1.5367 2.2905
4.9872 2.8403 2.2905
4.2108 4.0159 2.2905
3.1781 5.0062 2.2905
1.0652 3.1832 1.2670
0.2588 3.1896 1.1768
-0.5164 3.1958 1.1580
-2.3966 5.6588 2.1381
-3.7690 5.0585 2.1381
-4.9727 4.1149 2.1381
-6.3324 3.0790 2.2905
-6.9647 1.5148 2.2905
-7.1634 -0.1724 2.2905
-6.9070 -1.8542 2.2905
-6.2176 -3.4013 2.2905
-4.8140 -4.3879 2.1381
-3.5636 -5.2910 2.1381
-2.3063 -6.2545 2.2905
-0.7328 -6.4458 2.2905
0.8029 -6.2575 2.2905
2.2159 -5.7269 2.2905
3.4399 -4.9053 2.2905
4.4258 -3.8513 2.2905
5.1402 -2.6262 2.2905
5.5626 -1.2913 2.2905
5.6828 0.0935 2.2905
5.4993 1.4692 2.2905
5.0188 2.7777 2.2905
4.2560 3.9611 2.2905
3.2353 4.9620 2.2905
1.9927 5.7237 2.2905
0.2976 3.1893 1.1795
-0.4770 3.1955 1.1573
-2.3254 5.6794 2.1381
-3.7035 5.0969 2.1381
-4.9180 4.1696 2.1381
-6.2903 3.1519 2.2905
-6.9430 1.5970 2.2905
-7.1642 -0.0871 2.2905
-6.9304 -1.7723 2.2905
-6.2615 -3.3290 2.2905
-4.8705 -4.3341 2.1381
-3.6308 -5.2540 2.1381
-2.3803 -6.2243 2.2867
-0.8113 -6.4455 2.2905
0.7284 -6.2754 2.2905
2.1493 -5.7608 2.2905
3.3840 -4.9524 2.2905
4.3827 -3.9086 2.2905
5.1113 -2.6906 2.2905
5.5486 -1.3597 2.2905
5.6840 0.0240 2.2905
5.5156 1.4015 2.2905
5.0496 2.7147 2.2905
4.3005 3.9058 2.2905
3.2920 4.9172 2.2905
2.0594 5.6922 2.2905
0.3364 3.1890 1.1824
-0.4376 3.1951 1.1568
-2.2539 5.6991 2.1381
-3.6377 5.1344 2.1381
-4.8627 4.2236 2.1381
-6.2474 3.2241 2.2905
-6.9202 1.6788 2.2905
-7.1640 -0.0018 2.2905
-6.9528 -1.6900 2.2905
-6.3045 -3.2561 2.2905
-4.9263 -4.2795 2.1381
-3.6975 -5.2162 2.1381
-2.3858 -6.0213 2.2196
-0.8900 -6.4442 2.2905
0.6536 -6.2924 2.2905
2.0822 -5.7939 2.2905
3.3275 -4.9989 2.2905
4.3390 -3.9655 2.2905
5.0817 -2.7547 2.2905
5.5339 -1.4280 2.2905
5.6845 -0.0455 2.2905
5.5312 1.3337 2.2905
5.0798 2.6515 2.2905
4.3443 3.8500 2.2905
3.3480 4.8718 2.2905
2.1257 5.6599 2.2905
0.3754 3.1887 1.1855
-0.3985 3.1948 1.1565
-2.1824 5.7179 2.1381
-3.5715 5.1711 2.1381
-4.8068 4.2768 2.1381
-6.2035 3.2957 2.2905
-6.8964 1.7602 2.2905
-7.1625 0.0835 2.2905
-6.9741 -1.6075 2.2905
-6.3465 -3.1825 2.2905
-4.9814 -4.2242 2.1381
-3.7639 -5.1775 2.1381
-2.3909 -5.8293 2.1564
-0.9687 -6.4420 2.2905
0.5785 -6.3086 2.2905
2.0146 -5.8264 2.2905
3.2705 -5.0448 2.2905
4.2945 -4.0218 2.2905
5.0513 -2.8185 2.2905
5.5184 -1.4961 2.2905
5.6842 -0.1150 2.2905
5.5460 1.2657 2.2905
5.1093 2.5880 2.2905
4.3875 3.7938 2.2905
3.4036 4.8258 2.2905
2.1915 5.6269 2.2905
0.4145 3.1884 1.1888
-0.3594 3.1945 1.1564
-2.1106 5.7359 2.1381
-3.5048 5.2069 2.1381
-4.7502 4.3293 2.1381
-6.1587 3.3667 2.2905
-6.8715 1.8414 2.2905
-7.1600 0.1688 2.2905
-6.9942 -1.5246 2.2905
-6.3876 -3.1084 2.2905
-5.0358 -4.1681 2.1381
-3.8298 -5.1378 2.1381
-2.4428 -5.7584 2.1381
-1.0474 -6.4388 2.2905
0.5031 -6.3239 2.2905
1.9466 -5.8581 2.2905
3.2128 -5.0901 2.2905
4.2494 -4.0778 2.2905
5.0202 -2.8820 2.2905
5.5021 -1.5641 2.2905
5.6831 -0.1846 2.2905
5.5601 1.1976 2.2905
5.1381 2.5241 2.2905
4.4301 3.7372 2.2905
3.4585 4.7791 2.2905
2.2568 5.5932 2.2905
0.4537 3.1880 1.1922
-0.3205 3.1942 1.1564
-2.0612 5.8163 2.1616
-3.4378 5.2418 2.1381
-4.6929 4.3810 2.1381
-6.1130 3.4371 2.2905
-6.8455 1.9222 2.2905
-7.1563 0.2540 2.2905
-7.0133 -1.4415 2.2905
-6.4277 -3.0338 2.2905
-5.0896 -4.1112 2.1381
-3.8952 -5.0974 2.1381
-2.5149 -5.7361 2.1381
-1.1263 -6.4346 2.2905
0.4274 -6.3384 2.2905
1.8781 -5.8890 2.2905
3.1546 -5.1349 2.2905
4.2037 -4.1333 2.2905
4.9884 -2.9452 2.2905
5.4851 -1.6320 2.2905
5.6813 -0.2541 2.2905
5.5734 1.1293 2.2905
5.1661 2.4600 2.2905
4.4719 3.6801 2.2905
3.5129 4.7320 2.2905
2.3217 5.5587 2.2905
0.4931 3.1877 1.1958
-0.2816 3.1939 1.1566
-2.0456 6.0003 2.2238
-3.3705 5.2759 2.1381
-4.6351 4.4319 2.1381
-6.0664 3.5068 2.2905
-6.8184 2.0025 2.2905
-7.1514 0.3392 2.2905
-7.0312 -1.3581 2.2905
-6.4668 -2.9585 2.2905
-5.1426 -4.0536 2.1381
-3.9602 -5.0560 2.1381
-2.5867 -5.7129 2.1381
-1.2051 -6.4295 2.2905
0.3515 -6.3519 2.2905
1.8092 -5.9191 2.2905
3.0958 -5.1789 2.2905
4.1573 -4.1883 2.2905
4.9558 -3.0081 2.2905
5.4674 -1.6996 2.2905
5.6787 -0.3236 2.2905
5.5860 1.0609 2.2905
5.1934 2.3956 2.2905
4.5132 3.6227 2.2905
3.5667 4.6843 2.2905
2.3861 5.5236 2.2905
0.5325 3.1874 1.1996
-0.2428 3.1936 1.1569
-2.0292 6.1945 2.2898
-3.3028 5.3090 2.1381
-4.5768 4.4820 2.1381
-6.0189 3.5759 2.2905
-6.7903 2.0825 2.2905
-7.1454 0.4242 2.2905
-7.0480 -1.2744 2.2905
-6.5050 -2.8827 2.2905
-5.1949 -3.9953 2.1381
-4.0248 -5.0137 2.1381
-2.6583 -5.6887 2.1381
-1.2840 -6.4234 2.2905
0.2754 -6.3646 2.2905
0.9127 -3.1205 1.2016
3.0364 -5.2224 2.2905
4.1102 -4.2428 2.2905
4.9226 -3.0706 2.2905
5.4488 -1.7672 2.2905
5.6754 -0.3930 2.2905
5.5978 0.9924 2.2905
5.2200 2.3310 2.2905
4.5537 3.5647 2.2905
3.6198 4.6361 2.2905
2.4501 5.4878 2.2905
0.5722 3.1871 1.2036
-0.2041 3.1933 1.1574
-1.9525 6.2118 2.2905
-3.2347 5.3413 2.1381
-4.5178 4.5313 2.1381
-5.5733 3.4018 2.1381
-6.7612 2.1620 2.2905
-7.1383 0.5092 2.2905
-7.0637 -1.1906 2.2905
-6.5421 -2.8064 2.2905
-5.2465 -3.9363 2.1381
-4.0887 -4.9706 2.1381
-2.7297 -5.6636 2.1381
-1.3630 -6.4163 2.2905
0.1990 -6.3763 2.2905
1.6701 -5.9771 2.2905
2.9765 -5.2652 2.2905
4.0624 -4.2969 2.2905
4.8886 -3.1328 2.2905
5.4296 -1.8345 2.2905
5.6713 -0.4626 2.2905
5.6089 0.9237 2.2905
5.2459 2.2661 2.2905
4.5936 3.5064 2.2905
3.6725 4.5872 2.2905
2.5136 5.4512 2.2905
0.6120 3.1868 1.2078
-0.1655 3.1930 1.1581
-1.8751 6.2262 2.2905
-3.1663 5.3727 2.1381
-4.4583 4.5797 2.1381
-5.5274 3.4649 2.1381
-6.7310 2.2412 2.2905
-7.1300 0.5941 2.2905
-7.0783 -1.1066 2.2905
-6.5782 -2.7296 2.2905
-5.2973 -3.8765 2.1381
-4.1523 -4.9267 2.1381
-2.8008 -5.6376 2.1381
-1.4418 -6.4082 2.2905
0.1224 -6.3872 2.2905
1.5999 -6.0050 2.2905
2.9161 -5.3073 2.2905
4.0141 -4.3505 2.2905
4.8539 -3.1948 2.2905
5.4096 -1.9017 2.2905
5.6664 -0.5319 2.2905
5.6192 0.8550 2.2905
5.2710 2.2009 2.2905
4.6328 3.4477 2.2905
3.7245 4.5379 2.2905
2.5765 5.4141 2.2905
0.6520 3.1865 1.2121
-0.1269 3.1927 1.1590
-1.7977 6.2396 2.2905
-3.0977 5.4031 2.1381
-4.3981 4.6274 2.1381
-5.4807 3.5275 2.1381
-6.6998 2.3197 2.2905
-7.1206 0.6787 2.2905
-7.0917 -1.0223 2.2905
-6.6134 -2.6522 2.2905
-5.3473 -3.8161 2.1381
-4.2152 -4.8819 2.1381
-2.8718 -5.6107 2.1381
-1.5208 -6.3992 2.2905
0.0456 -6.3971 2.2905
1.5294 -6.0320 2.2905
2.8550 -5.3489 2.2905
3.9650 -4.4036 2.2905
4.8185 -3.2563 2.2905
5.3888 -1.9686 2.2905
5.6608 -0.6014 2.2905
5.6288 0.7861 2.2905
5.2954 2.1355 2.2905
4.6713 3.3887 2.2905
3.7759 4.4880 2.2905
2.6390 5.3762 2.2905
0.6922 3.1861 1.2167
-0.0884 3.1924 1.1600
-0.8800 3.1987 1.1719
-3.0287 5.4328 2.1381
-4.3375 4.6743 2.1381
-5.4332 3.5894 2.1381
-6.6675 2.3981 2.2905
-7.1100 0.7633 2.2905
-7.1040 -0.9379 2.2905
-6.6474 -2.5744 2.2905
-5.3966 -3.7549 2.1381
-4.2777 -4.8362 2.1381
-2.9423 -5.5828 2.1381
-1.5996 -6.3892 2.2905
-0.0315 -6.4062 2.2905
1.4583 -6.0582 2.2905
2.7935 -5.3897 2.2905
3.9153 -4.4561 2.2905
4.7824 -3.3175 2.2905
5.3673 -2.0355 2.2905
5.6544 -0.6706 2.2905
5.6376 0.7172 2.2905
5.3191 2.0698 2.2905
4.7092 3.3291 2.2905
3.8267 4.4376 2.2905
2.7009 5.3377 2.2905
0.7326 3.1858 1.2215
-0.0498 3.1921 1.1612
-0.8388 3.1983 1.1696
-2.9595 5.4614 2.1381
-4.2763 4.7203 2.1381
-5.3849 3.6506 2.1381
-6.6343 2.4757 2.2905
-7.0984 0.8476 2.2905
-7.1152 -0.8532 2.2905
-6.6805 -2.4960 2.2905
-5.4451 -3.6931 2.1381
-4.3396 -4.7897 2.1381
-3.0127 -5.5540 2.1381
-1.6785 -6.3781 2.2905
-0.1087 -6.4143 2.2905
1.3870 -6.0836 2.2905
2.7313 -5.4300 2.2905
3.8650 -4.5082 2.2905
4.7456 -3.3783 2.2905
5.3450 -2.1020 2.2905
5.6472 -0.7400 2.2905
5.6457 0.6482 2.2905
5.3421 2.0039 2.2905
4.7463 3.2693 2.2905
3.8769 4.3866 2.2905
2.7625 5.2985 2.2905
0.7732 3.1855 1.2264
-0.0113 3.1917 1.1626
-0.7977 3.1980 1.1675
-2.8899 5.4893 2.1381
-4.2146 4.7655 2.1381
-5.3360 3.7110 2.1381
-6.6000 2.5530 2.2905
-7.0855 0.9319 2.2905
-7.1252 -0.7686 2.2905
-6.7125 -2.4173 2.2905
-5.4929 -3.6305 2.1381
-4.4010 -4.7423 2.1381
-3.0827 -5.5244 2.1381
-1.7572 -6.3662 2.2905
-0.1862 -6.4215 2.2905
1.3152 -6.1083 2.2905
2.6688 -5.4695 2.2905
3.8141 -4.5597 2.2905
4.7080 -3.4388 2.2905
5.3220 -2.1684 2.2905
5.6393 -0.8091 2.2905
5.6530 0.5791 2.2905
5.3643 1.9378 2.2905
4.7828 3.2091 2.2905
3.9264 4.3352 2.2905
2.8234 5.2587 2.2905
0.8141 3.1852 1.2316
0.0272 3.1914 1.1641
-0.7569 3.1977 1.1656
-2.8202 5.5162 2.1381
-4.1524 4.8099 2.1381
-5.2862 3.7709 2.1381
-6.5647 2.6297 2.2905
-7.0716 1.0158 2.2905
-7.1341 -0.6836 2.2905
-6.7435 -2.3381 2.2905
-5.5397 -3.5674 2.1381
-4.4618 -4.6942 2.1381
-3.1524 -5.4937 2.1381
-1.8360 -6.3532 2.2905
-0.2639 -6.4278 2.2905
1.2431 -6.1321 2.2905
2.6056 -5.5084 2.2905
3.7624 -4.6107 2.2905
4.6698 -3.4990 2.2905
5.2983 -2.2344 2.2905
5.6306 -0.8783 2.2905
5.6595 0.5099 2.2905
5.3858 1.8714 2.2905
4.8186 3.1485 2.2905
3.9754 4.2832 2.2905
2.8839 5.2181 2.2905
0.8552 3.1848 1.2369
0.0657 3.1911 1.1658
-0.7163 3.1974 1.1639
-2.7501 5.5422 2.1381
-4.0896 4.8535 2.1381
-5.2357 3.8300 2.1381
-3.7548 1.5563 1.3174
-7.0566 1.0997 2.2905
-7.1418 -0.5986 2.2905
-6.7734 -2.2585 2.2905
-5.5859 -3.5035 2.1381
-4.5220 -4.6451 2.1381
-3.2219 -5.4622 2.1381
-1.9146 -6.3392 2.2905
-0.3416 -6.4331 2.2905
1.1706 -6.1551 2.2905
2.5418 -5.5466 2.2905
3.7103 -4.6612 2.2905
4.6309 -3.5587 2.2905
5.2738 -2.3004 2.2905
5.6212 -0.9474 2.2905
5.6653 0.4406 2.2905
5.4066 1.8049 2.2905
4.8537 3.0875 2.2905
4.0238 4.2307 2.2905
2.9437 5.1770 2.2905
0.8966 3.1845 1.2425
0.1042 3.1908 1.1676
-0.6759 3.1970 1.1624
-2.6799 5.5673 2.1381
-4.0264 4.8961 2.1381
-5.1845 3.8884 2.1381
-3.7378 1.6018 1.3190
-7.0404 1.1831 2.2905
-7.1484 -0.5135 2.2905
-6.8023 -2.1784 2.2905
-5.6312 -3.4387 2.1381
-4.5816 -4.5953 2.1381
-3.2909 -5.4298 2.1381
-1.9932 -6.3243 2.2905
-0.4196 -6.4376 2.2905
1.0978 -6.1772 2.2905
2.4777 -5.5840 2.2905
3.6574 -4.7111 2.2905
4.5912 -3.6180 2.2905
5.2486 -2.3660 2.2905
5.6110 -1.0163 2.2905
5.6703 0.3713 2.2905
5.4266 1.7381 2.2905
4.8881 3.0263 2.2905
4.0714 4.1778 2.2905
3.0032 5.1353 2.2905
0.9383 3.1842 1.2483
0.1428 3.1905 1.1697
-0.6358 3.1967 1.1610
-2.6094 5.5916 2.1381
-3.9627 4.9380 2.1381
-5.1326 3.9461 2.1381
-6.4529 2.8568 2.2905
-7.0231 1.2665 2.2905
-7.1539 -0.4283 2.2905
-6.8300 -2.0980 2.2905
-5.6756 -3.3740 2.1381
-4.6407 -4.5447 2.1381
-3.3596 -5.3964 2.1381
-2.0716 -6.3083 2.2905
-0.4977 -6.4410 2.2905
1.0245 -6.1985 2.2905
2.4130 -5.6208 2.2905
3.6040 -4.7605 2.2905
4.5509 -3.6769 2.2905
5.2226 -2.4315 2.2905
5.6001 -1.0852 2.2905
5.6746 0.3020 2.2905
5.4459 1.6712 2.2905
4.9218 2.9646 2.2905
4.1185 4.1243 2.2905
3.0620 5.0929 2.2905
0.9802 3.1838 1.2543
0.1814 3.1902 1.1719
-0.5958 3.1964 1.1598
-2.5387 5.6148 2.1381
-3.8986 4.9790 2.1381
-5.0800 4.0031 2.1381
-6.4137 2.9315 2.2905
-7.0048 1.3495 2.2905
-7.1582 -0.3431 2.2905
-6.8568 -2.0171 2.2905
-5.7192 -3.3083 2.1381
-4.6990 -4.4933 2.1381
-3.4279 -5.3622 2.1381
-2.1500 -6.2914 2.2905
-0.5759 -6.4436 2.2905
0.9510 -6.2190 2.2905
2.3478 -5.6568 2.2905
3.5499 -4.8093 2.2905
4.5099 -3.7355 2.2905
5.1959 -2.4966 2.2905
5.5883 -1.1539 2.2905
5.6781 0.2325 2.2905
5.4645 1.6040 2.2905
4.9548 2.9027 2.2905
4.1649 4.0704 2.2905
3.1203 5.0499 2.2905
1.0225 3.1835 1.2605
0.2200 3.1899 1.1743
-0.5561 3.1961 1.1588
-2.4678 5.6373 2.1381
-3.8340 5.0192 2.1381
-5.0267 4.0593 2.1381
-6.3735 3.0054 2.2905
-6.9853 1.4323 2.2905
-7.1614 -0.2578 2.2905
-6.8824 -1.9359 2.2905
-5.7619 -3.2420 2.1381
-4.7568 -4.4410 2.1381
-3.4959 -5.3270 2.1381
-2.2281 -6.2735 2.2905
-0.6542 -6.4451 2.2905
0.8771 -6.2387 2.2905
2.2821 -5.6922 2.2905
3.4952 -4.8576 2.2905
4.4682 -3.7936 2.2905
5.1684 -2.5617 2.2905
5.5759 -1.2227 2.2905
5.6808 0.1631 2.2905
5.4822 1.5368 2.2905
4.9871 2.8403 2.2905
4.2108 4.0160 2.2905
3.1780 5.0063 2.2905
1.0651 3.1832 1.2670
0.2588 3.1896 1.1768
-0.5164 3.1958 1.1580
-2.3967 5.6588 2.1381
-3.7691 5.0584 2.1381
-4.9727 4.1148 2.1381
-6.3324 3.0789 2.2905
-6.9647 1.5147 2.2905
-7.1634 -0.1725 2.2905
-6.9070 -1.8543 2.2905
-6.2175 -3.4013 2.2905
-4.8139 -4.3880 2.1381
-3.5635 -5.2910 2.1381
-2.3063 -6.2545 2.2905
-0.7327 -6.4458 2.2905
0.8030 -6.2574 2.2905
2.2160 -5.7268 2.2905
3.4399 -4.9053 2.2905
4.4258 -3.8513 2.2905
5.1403 -2.6261 2.2905
5.5626 -1.2912 2.2905
5.6828 0.0936 2.2905
5.4993 1.4692 2.2905
5.0187 2.7777 2.2905
4.2559 3.9612 2.2905
3.2353 4.9620 2.2905
1.9927 5.7238 2.2905
0.2975 3.1893 1.1795
-0.4770 3.1955 1.1573
-2.3254 5.6794 2.1381
-3.7036 5.0968 2.1381
-4.9181 4.1695 2.1381
-6.2904 3.1517 2.2905
-6.9430 1.5969 2.2905
-7.1642 -0.0872 2.2905
-6.9304 -1.7724 2.2905
-6.2614 -3.3291 2.2905
-4.8704 -4.3342 2.1381
-3.6307 -5.2540 2.1381
-2.3803 -6.2246 2.2868
-0.8112 -6.4455 2.2905
0.7284 -6.2754 2.2905
2.1493 -5.7608 2.2905
3.3841 -4.9523 2.2905
4.3828 -3.9085 2.2905
5.1113 -2.6905 2.2905
5.5487 -1.3596 2.2905
5.6840 0.0241 2.2905
5.5156 1.4016 2.2905
5.0496 2.7148 2.2905
4.3004 3.9058 2.2905
3.2919 4.9172 2.2905
2.0593 5.6922 2.2905
0.3364 3.1890 1.1824
-0.4377 3.1951 1.1568
-2.2540 5.6991 2.1381
-3.6378 5.1344 2.1381
-4.8627 4.2236 2.1381
-6.2474 3.2240 2.2905
-6.9203 1.6787 2.2905
-7.1640 -0.0019 2.2905
-6.9528 -1.6901 2.2905
-6.3045 -3.2561 2.2905
-4.9262 -4.2796 2.1381
-3.6974 -5.2162 2.1381
-2.3858 -6.0215 2.2196
-0.8899 -6.4442 2.2905
0.6537 -6.2924 2.2905
2.0823 -5.7939 2.2905
3.3276 -4.9989 2.2905
4.3390 -3.9654 2.2905
5.0817 -2.7546 2.2905
5.5339 -1.4279 2.2905
5.6845 -0.0454 2.2905
5.5312 1.3337 2.2905
5.0798 2.6516 2.2905
4.3443 3.8501 2.2905
3.3480 4.8718 2.2905
2.1256 5.6599 2.2905
0.3754 3.1887 1.1855
-0.3985 3.1948 1.1565
-2.1824 5.7179 2.1381
-3.5715 5.1711 2.1381
-4.8068 4.2767 2.1381
-6.2035 3.2956 2.2905
-6.8964 1.7602 2.2905
-7.1625 0.0835 2.2905
-6.9740 -1.6076 2.2905
-6.3465 -3.1826 2.2905
-4.9814 -4.2242 2.1381
-3.7638 -5.1775 2.1381
-2.3909 -5.8295 2.1565
-0.9686 -6.4420 2.2905
0.5786 -6.3086 2.2905
2.0147 -5.8264 2.2905
3.2705 -5.0447 2.2905
4.2946 -4.0218 2.2905
5.0513 -2.8184 2.2905
5.5184 -1.4961 2.2905
5.6842 -0.1149 2.2905
5.5460 1.2658 2.2905
5.1093 2.5880 2.2905
4.3875 3.7939 2.2905
3.4035 4.8258 2.2905
2.1914 5.6269 2.2905
0.4145 3.1884 1.1888
-0.3594 3.1945 1.1564
-2.1107 5.7358 2.1381
-3.5049 5.2068 2.1381
-4.7502 4.3292 2.1381
-6.1587 3.3667 2.2905
-6.8715 1.8413 2.2905
-7.1600 0.1687 2.2905
-6.9942 -1.5247 2.2905
-6.3876 -3.1085 2.2905
-5.0358 -4.1681 2.1381
-3.8297 -5.1379 2.1381
-2.4428 -5.7584 2.1381
-1.0474 -6.4388 2.2905
0.5031 -6.3239 2.2905
1.9467 -5.8580 2.2905
3.2129 -5.0901 2.2905
4.2495 -4.0778 2.2905
5.0202 -2.8820 2.2905
5.5022 -1.5640 2.2905
5.6831 -0.1845 2.2905
5.5601 1.1976 2.2905
5.1380 2.5241 2.2905
4.4300 3.7373 2.2905
3.4585 4.7792 2.2905
2.2568 5.5932 2.2905
0.4507 3.1881 1.2751
-0.3235 3.1942 1.2388
-2.0412 5.7434 2.2905
-3.2042 4.8769 2.1381
-4.3656 4.0698 2.1381
-5.3004 2.9767 2.1381
-6.3523 1.7815 2.2905
-6.6373 0.2350 2.2905
-6.5049 -1.3361 2.2905
-5.5683 -2.6258 2.1381
-4.7285 -3.8153 2.1381
-3.6247 -4.7364 2.1381
-2.3773 -5.4099 2.1669
-1.0555 -5.9978 2.2905
0.2066 -3.1074 1.2027
0.9182 -2.8883 1.2013
2.9486 -4.8088 2.2905
3.9358 -3.8756 2.2905
4.6760 -2.7643 2.2905
5.1456 -1.5329 2.2905
5.3316 -0.2392 2.2905
5.2303 1.0603 2.2905
4.8461 2.3096 2.2905
4.1915 3.4531 2.2905
3.2883 4.4361 2.2905
2.1688 5.2049 2.2905
0.4901 3.1878 1.2789
-0.2846 3.1939 1.2389
-1.9695 5.7599 2.2905
-3.1418 4.9090 2.1381
-4.3122 4.1174 2.1381
-5.2604 3.0372 2.1381
-6.3275 1.8561 2.2905
-6.6329 0.3139 2.2905
-6.5215 -1.2589 2.2905
-5.6020 -2.5606 2.1381
-4.7775 -3.7617 2.1381
-3.6848 -4.6976 2.1381
-2.4123 -5.3159 2.1381
-1.1290 -5.9925 2.2905
0.1694 -3.1139 1.2027
0.8843 -2.9031 1.2014
2.8933 -4.8498 2.2905
3.8921 -3.9270 2.2905
4.6453 -2.8232 2.2905
5.1287 -1.5965 2.2905
5.3291 -0.3044 2.2905
5.2421 0.9961 2.2905
4.8718 2.2492 2.2905
4.2304 3.3993 2.2905
3.3390 4.3916 2.2905
2.2293 5.1724 2.2905
0.5296 3.1874 1.2829
-0.2458 3.1936 1.2392
-1.8977 5.7756 2.2905
-3.0790 4.9402 2.1381
-4.2582 4.1642 2.1381
-5.2195 3.0972 2.1381
-6.3016 1.9303 2.2905
-6.6275 0.3927 2.2905
-6.5370 -1.1814 2.2905
-5.6348 -2.4949 2.1381
-4.8257 -3.7074 2.1381
-3.7445 -4.6581 2.1381
-2.4788 -5.2930 2.1381
-1.2024 -5.9863 2.2905
0.1320 -3.1200 1.2028
0.8503 -2.9174 1.2014
2.8376 -4.8901 2.2905
3.8477 -3.9779 2.2905
4.6139 -2.8818 2.2905
5.1112 -1.6598 2.2905
5.3259 -0.3697 2.2905
5.2533 0.9318 2.2905
4.8969 2.1885 2.2905
4.2686 3.3451 2.2905
3.3890 4.3466 2.2905
2.2893 5.1392 2.2905
0.5692 3.1871 1.2871
-0.2071 3.1933 1.2396
-1.8258 5.7904 2.2905
-3.0159 4.9707 2.1381
-4.2037 4.2103 2.1381
-5.1779 3.1566 2.1381
-6.2748 2.0041 2.2905
-6.6209 0.4714 2.2905
-6.5514 -1.1036 2.2905
-5.6667 -2.4288 2.1381
-4.8733 -3.6524 2.1381
-3.8037 -4.6177 2.1381
-2.5450 -5.2692 2.1381
-1.2758 -5.9792 2.2905
0.1801 -5.9519 2.2905
0.8161 -2.9314 1.2015
2.7812 -4.9299 2.2905
3.8028 -4.0283 2.2905
4.5818 -2.9401 2.2905
5.0930 -1.7230 2.2905
5.3220 -0.4349 2.2905
5.2637 0.8673 2.2905
4.9213 2.1276 2.2905
4.3062 3.2905 2.2905
3.4385 4.3010 2.2905
2.3489 5.1053 2.2905
0.6090 3.1868 1.2914
-0.1685 3.1930 1.2403
-1.7538 5.8042 2.2905
-2.9525 5.0003 2.1381
-4.1487 4.2557 2.1381
-5.1356 3.2154 2.1381
-6.2471 2.0776 2.2905
-6.6134 0.5501 2.2905
-6.5649 -1.0257 2.2905
-5.6978 -2.3622 2.1381
-4.9202 -3.5967 2.1381
-3.8625 -4.5766 2.1381
-2.6110 -5.2446 2.1381
-1.3492 -5.9712 2.2905
0.1085 -5.9616 2.2905
0.7817 -2.9450 1.2016
2.7244 -4.9690 2.2905
3.7572 -4.0783 2.2905
4.5491 -2.9980 2.2905
5.0741 -1.7860 2.2905
5.3174 -0.5002 2.2905
5.2734 0.8027 2.2905
4.9450 2.0664 2.2905
4.3431 3.2355 2.2905
3.4875 4.2550 2.2905
2.4081 5.0708 2.2905
0.6490 3.1865 1.2960
-0.1299 3.1927 1.2411
-1.6817 5.8172 2.2905
-2.8888 5.0291 2.1381
-4.0931 4.3003 2.1381
-5.0926 3.2737 2.1381
-6.2184 2.1506 2.2905
-6.6048 0.6286 2.2905
-6.5773 -0.9477 2.2905
-5.7280 -2.2952 2.1381
-4.9664 -3.5405 2.1381
-3.9207 -4.5346 2.1381
-2.6767 -5.2192 2.1381
-1.4226 -5.9623 2.2905
0.0368 -5.9703 2.2905
0.7470 -2.9582 1.2017
2.6671 -5.0075 2.2905
3.7110 -4.1278 2.2905
4.5156 -3.0556 2.2905
5.0544 -1.8489 2.2905
5.3120 -0.5653 2.2905
5.2824 0.7380 2.2905
4.9681 2.0050 2.2905
4.3795 3.1802 2.2905
3.5359 4.2084 2.2905
2.4668 5.0356 2.2905
0.6892 3.1862 1.3008
-0.0913 3.1924 1.2421
-0.8832 3.1987 1.2569
-2.8249 5.0570 2.1381
-4.0370 4.3442 2.1381
-5.0488 3.3313 2.1381
-6.1887 2.2232 2.2905
-6.5951 0.7069 2.2905
-6.5886 -0.8694 2.2905
-6.1677 -2.3866 2.2905
-5.0119 -3.4836 2.1381
-3.9785 -4.4919 2.1381
-2.7422 -5.1929 2.1381
-1.4960 -5.9525 2.2905
-0.0351 -5.9783 2.2905
0.7122 -2.9710 1.2017
2.6093 -5.0455 2.2905
3.6642 -4.1769 2.2905
4.4815 -3.1129 2.2905
5.0341 -1.9115 2.2905
5.3059 -0.6304 2.2905
5.2907 0.6733 2.2905
4.9904 1.9434 2.2905
4.4151 3.1244 2.2905
3.5837 4.1613 2.2905
2.5250 4.9998 2.2905
0.7296 3.1859 1.3058
-0.0528 3.1921 1.2433
-0.8419 3.1984 1.2543
-2.7606 5.0842 2.1381
-3.9804 4.3873 2.1381
-5.0043 3.3883 2.1381
-6.1581 2.2954 2.2905
-6.5844 0.7852 2.2905
-6.5990 -0.7910 2.2905
-6.1982 -2.3140 2.2905
-5.0566 -3.4260 2.1381
-4.0357 -4.4484 2.1381
-2.8074 -5.1657 2.1381
-1.5693 -5.9417 2.2905
-0.1072 -5.9854 2.2905
0.6772 -2.9834 1.2018
2.5510 -5.0827 2.2905
3.6168 -4.2254 2.2905
4.4468 -3.1699 2.2905
5.0130 -1.9739 2.2905
5.2991 -0.6955 2.2905
5.2983 0.6084 2.2905
5.0121 1.8816 2.2905
4.4502 3.0684 2.2905
3.6309 4.1137 2.2905
2.5827 4.9634 2.2905
0.7702 3.1855 1.3110
-0.0143 3.1918 1.2446
-0.8008 3.1980 1.2520
-2.6961 5.1105 2.1381
-3.9234 4.4297 2.1381
-4.9591 3.4447 2.1381
-6.1266 2.3671 2.2905
-6.5727 0.8632 2.2905
-6.6082 -0.7125 2.2905
-6.2277 -2.2409 2.2905
-5.1006 -3.3679 2.1381
-4.0925 -4.4041 2.1381
-2.8723 -5.1377 2.1381
-1.6426 -5.9300 2.2905
-0.1795 -5.9916 2.2905
0.6420 -2.9954 1.2019
2.4922 -5.1194 2.2905
3.5689 -4.2735 2.2905
4.4114 -3.2265 2.2905
4.9913 -2.0362 2.2905
5.2916 -0.7605 2.2905
5.3052 0.5435 2.2905
5.0331 1.8195 2.2905
4.4846 3.0119 2.2905
3.6776 4.0657 2.2905
2.6400 4.9264 2.2905
0.8111 3.1852 1.3164
0.0242 3.1915 1.2462
-0.7600 3.1977 1.2498
-2.6313 5.1359 2.1381
-3.8658 4.4712 2.1381
-4.9132 3.5004 2.1381
-6.0941 2.4384 2.2905
-6.5599 0.9411 2.2905
-6.6164 -0.6338 2.2905
-6.2562 -2.1674 2.2905
-5.1439 -3.3091 2.1381
-4.1487 -4.3591 2.1381
-2.9369 -5.1088 2.1381
-1.7158 -5.9175 2.2905
-0.2519 -5.9969 2.2905
0.6066 -3.0070 1.2019
2.4329 -5.1554 2.2905
3.5203 -4.3210 2.2905
4.3753 -3.2827 2.2905
4.9688 -2.0982 2.2905
5.2834 -0.8254 2.2905
5.3113 0.4785 2.2905
5.0533 1.7572 2.2905
4.5183 2.9552 2.2905
3.7237 4.0171 2.2905
2.6968 4.8888 2.2905
0.8522 3.1849 1.3220
0.0627 3.1912 1.2479
-0.7194 3.1974 1.2479
-2.5663 5.1606 2.1381
-3.8078 4.5121 2.1381
-4.8667 3.5555 2.1381
-3.7553 1.5547 1.4192
-6.5461 1.0187 2.2905
-6.6236 -0.5551 2.2905
-6.2838 -2.0935 2.2905
-5.1864 -3.2498 2.1381
-4.2043 -4.3134 2.1381
-3.0012 -5.0791 2.1381
-1.7889 -5.9040 2.2905
-0.3244 -6.0014 2.2905
0.5710 -3.0182 1.2020
2.3731 -5.1907 2.2905
3.4712 -4.3680 2.2905
4.3386 -3.3386 2.2905
4.9457 -2.1600 2.2905
5.2745 -0.8902 2.2905
5.3168 0.4134 2.2905
5.0729 1.6948 2.2905
4.5514 2.8980 2.2905
3.7692 3.9681 2.2905
2.7531 4.8505 2.2905
0.8936 3.1845 1.3279
0.1013 3.1909 1.2498
-0.6790 3.1971 1.2461
-2.5011 5.1844 2.1381
-3.7493 4.5521 2.1381
-4.8194 3.6100 2.1381
-3.7366 1.5994 1.4202
-6.5313 1.0962 2.2905
-6.6297 -0.4762 2.2905
-6.3104 -2.0193 2.2905
-5.2282 -3.1899 2.1381
-4.2594 -4.2668 2.1381
-3.0652 -5.0486 2.1381
-1.8619 -5.8896 2.2905
-0.3971 -6.0050 2.2905
0.5353 -3.0290 1.2021
2.3129 -5.2254 2.2905
3.4214 -4.4146 2.2905
4.3012 -3.3941 2.2905
4.9218 -2.2215 2.2905
5.2648 -0.9550 2.2905
5.3215 0.3483 2.2905
5.0918 1.6321 2.2905
4.5839 2.8406 2.2905
3.8142 3.9186 2.2905
2.8089 4.8117 2.2905
0.9353 3.1842 1.3340
0.1398 3.1906 1.2518
-0.6389 3.1968 1.2446
-2.4356 5.2074 2.1381
-3.6904 4.5914 2.1381
-4.7715 3.6638 2.1381
-5.5926 2.4731 2.1381
-6.5154 1.1734 2.2905
-6.6348 -0.3973 2.2905
-6.3360 -1.9447 2.2905
-5.2692 -3.1293 2.1381
-4.3139 -4.2195 2.1381
-3.1289 -5.0172 2.1381
-1.9348 -5.8742 2.2905
-0.4699 -6.0078 2.2905
0.4994 -3.0394 1.2021
2.2522 -5.2595 2.2905
3.3711 -4.4606 2.2905
4.2632 -3.4492 2.2905
4.8973 -2.2829 2.2905
5.2544 -1.0197 2.2905
5.3255 0.2832 2.2905
5.1100 1.5692 2.2905
4.6157 2.7828 2.2905
3.8585 3.8686 2.2905
2.8643 4.7723 2.2905
0.9772 3.1839 1.3403
0.1784 3.1902 1.2541
-0.5989 3.1964 1.2432
-2.3700 5.2295 2.1381
-3.6310 4.6299 2.1381
-4.7230 3.7169 2.1381
-5.5589 2.5378 2.1381
-6.4986 1.2504 2.2905
-6.6388 -0.3183 2.2905
-6.3606 -1.8697 2.2905
-5.3094 -3.0683 2.1381
-4.3679 -4.1715 2.1381
-3.1922 -4.9850 2.1381
-2.0076 -5.8580 2.2905
-0.5428 -6.0096 2.2905
0.4633 -3.0494 1.2022
2.1910 -5.2928 2.2905
3.3203 -4.5060 2.2905
4.2245 -3.5039 2.2905
4.8720 -2.3440 2.2905
5.2433 -1.0843 2.2905
5.3288 0.2180 2.2905
5.1275 1.5062 2.2905
4.6468 2.7247 2.2905
3.9022 3.8182 2.2905
2.9191 4.7322 2.2905
1.0195 3.1835 1.3469
0.2171 3.1899 1.2565
-0.5591 3.1961 1.2420
-2.3041 5.2509 2.1381
-3.5712 4.6675 2.1381
-4.6738 3.7694 2.1381
-5.5244 2.6020 2.1381
-6.4807 1.3271 2.2905
-6.6418 -0.2393 2.2905
-6.3843 -1.7944 2.2905
-5.3488 -3.0066 2.1381
-4.4212 -4.1228 2.1381
-3.2551 -4.9520 2.1381
-2.0802 -5.8408 2.2905
-0.6159 -6.0106 2.2905
0.4271 -3.0589 1.2023
2.1294 -5.3255 2.2905
3.2688 -4.5509 2.2905
4.1852 -3.5582 2.2905
4.8461 -2.4048 2.2905
5.2315 -1.1487 2.2905
5.3313 0.1527 2.2905
5.1443 1.4430 2.2905
4.6772 2.6663 2.2905
3.9454 3.7674 2.2905
2.9734 4.6916 2.2905
1.0621 3.1832 1.3537
0.2558 3.1896 1.2592
-0.5195 3.1958 1.2410
-2.2381 5.2713 2.1381
-3.5110 4.7044 2.1381
-4.6239 3.8212 2.1381
-5.4891 2.6655 2.1381
-6.4618 1.4036 2.2905
-6.6437 -0.1602 2.2905
-6.4069 -1.7188 2.2905
-5.3874 -2.9445 2.1381
-4.4740 -4.0733 2.1381
-3.3177 -4.9181 2.1381
-2.1528 -5.8227 2.2905
