ply
format ascii 1.0
element vertex 2115
property float32 x
property float32 y
property float32 z
end_header
-12.7653 2.0897 2.7886
-12.9014 -1.0227 2.7886
-12.2931 -4.0803 2.7886
-10.9735 -6.9078 2.7886
-9.0161 -9.3423 2.7886
-6.5313 -11.2422 2.7886
-3.6607 -12.4955 2.7886
-0.4838 -11.0657 2.3688
1.5082 -7.5333 1.6409
3.5333 -7.5274 1.7741
8.2265 -10.1705 2.7886
9.8607 -7.4871 2.6380
11.1550 -4.8241 2.5890
12.2235 -2.0596 2.6411
12.3543 0.9200 2.6409
11.7661 3.8416 2.6407
5.5541 3.4578 1.3974
4.6124 4.7315 1.4131
3.6062 6.1356 1.5242
3.7181 12.4589 2.7886
0.6319 12.9681 2.7886
-2.3470 12.0313 2.6362
-5.4467 11.7518 2.7886
-8.0911 10.1008 2.7886
-10.2657 7.8699 2.7886
-11.8471 5.1869 2.7886
-12.7457 2.2050 2.7886
-12.9098 -0.9061 2.7886
-12.3291 -3.9689 2.7886
-11.0350 -6.8081 2.7886
-9.0996 -9.2600 2.7886
-6.6322 -11.1822 2.7886
-3.7732 -12.4612 2.7886
-0.6871 -13.0203 2.7886
1.4375 -7.5329 1.6380
3.4504 -7.5269 1.7666
8.1341 -10.2441 2.7886
9.7919 -7.5753 2.6378
11.1527 -4.9431 2.5987
12.2046 -2.1699 2.6411
12.3624 0.8084 2.6409
11.8007 3.7353 2.6407
5.5828 3.4061 1.3967
4.6535 4.6881 1.4126
3.6055 6.0096 1.5008
3.8311 12.4253 2.7886
0.7495 12.9625 2.7886
-2.2379 12.0527 2.6362
-5.3401 11.8011 2.7886
-7.9994 10.1741 2.7886
-10.1940 7.9628 2.7886
-11.7996 5.2941 2.7886
-12.7250 2.3204 2.7886
-12.9172 -0.7890 2.7886
-12.3641 -3.8568 2.7886
-11.0958 -6.7074 2.7886
-9.1828 -9.1767 2.7886
-6.7330 -11.1210 2.7886
-3.8859 -12.4258 2.7886
-0.8051 -13.0129 2.7886
1.3667 -7.5325 1.6352
3.3680 -7.5264 1.7593
8.0407 -10.3172 2.7886
9.7220 -7.6631 2.6376
11.1503 -5.0635 2.6088
10.9011 -2.0403 2.3629
12.3696 0.6963 2.6409
11.8344 3.6287 2.6407
10.6026 6.3381 2.6381
4.6941 4.6443 1.4120
3.6049 5.8873 1.4783
3.9434 12.3909 2.7886
0.8666 12.9559 2.7886
-2.1290 12.0730 2.6362
-5.2335 11.8493 2.7886
-7.9073 10.2462 2.7886
-10.1218 8.0546 2.7886
-11.7513 5.4005 2.7886
-12.7034 2.4353 2.7886
-12.9234 -0.6722 2.7886
-12.3980 -3.7448 2.7886
-11.1554 -6.6066 2.7886
-9.2648 -9.0929 2.7886
-6.8328 -11.0591 2.7886
-3.9977 -12.3896 2.7886
-0.9226 -13.0044 2.7886
1.2965 -7.5321 1.6326
3.2865 -7.5259 1.7523
7.9470 -10.3891 2.7886
9.6516 -7.7500 2.6374
11.1480 -5.1844 2.6191
10.9021 -2.1426 2.3672
12.3757 0.5846 2.6409
11.8673 3.5214 2.6407
10.6608 6.2424 2.6382
4.7344 4.6000 1.4115
3.6043 5.7682 1.4564
4.0558 12.3553 2.7886
0.9841 12.9481 2.7886
-2.0195 12.0923 2.6362
-5.1260 11.8968 2.7886
-7.8143 10.3178 2.7886
-10.0485 8.1462 2.7886
-11.7019 5.5069 2.7886
-12.6806 2.5504 2.7886
-12.9287 -0.5549 2.7886
-12.4310 -3.6320 2.7886
-11.2144 -6.5049 2.7886
-9.3464 -9.0080 2.7886
-6.9324 -10.9961 2.7886
-4.1097 -12.3521 2.7886
-1.0404 -12.9949 2.7886
1.2262 -7.5317 1.6301
3.2522 -7.6353 1.7709
7.8526 -10.4602 2.7886
9.5805 -7.8362 2.6373
11.1457 -5.3063 2.6297
12.1418 -2.5003 2.6411
12.3808 0.4728 2.6409
11.8991 3.4142 2.6407
10.7178 6.1465 2.6384
4.7741 4.5555 1.4109
3.6037 5.6530 1.4354
4.1675 12.3188 2.7886
1.1011 12.9394 2.7886
-1.9103 12.1106 2.6362
-5.0184 11.9433 2.7886
-7.7210 10.3882 2.7886
-9.9746 8.2368 2.7886
-11.6517 5.6124 2.7886
-12.6569 2.6648 2.7886
-12.9329 -0.4381 2.7886
-12.4629 -3.5195 2.7886
-11.2722 -6.4030 2.7886
-9.4270 -8.9228 2.7886
-7.0311 -10.9324 2.7886
-4.2209 -12.3138 2.7886
-1.1577 -12.9843 2.7886
1.1565 -7.5313 1.6278
3.2512 -7.8284 1.8089
7.7573 -10.5306 2.7886
9.5082 -7.9221 2.6371
11.1453 -5.4306 2.6411
12.1188 -2.6103 2.6411
12.3849 0.3605 2.6409
11.9300 3.3063 2.6407
10.7743 6.0497 2.6386
4.8136 4.5105 1.4104
3.6247 5.5737 1.4235
4.2793 12.2812 2.7886
1.2185 12.9296 2.7886
-1.8004 12.1280 2.6362
-4.9101 11.9883 2.7886
-7.6266 10.4581 2.7886
-9.8997 8.3271 2.7886
-11.6003 5.7179 2.7886
-12.6321 2.7795 2.7886
-12.9360 -0.3208 2.7886
-12.4939 -3.4062 2.7886
-11.3293 -6.3002 2.7886
-9.5070 -8.8365 2.7886
-7.1295 -10.8676 2.7886
-4.3317 -12.2745 2.7886
-1.2748 -12.9726 2.7886
1.0869 -7.5309 1.6256
3.2502 -8.0299 1.8486
7.6616 -10.6000 2.7886
9.4355 -8.0069 2.6369
11.0953 -5.5307 2.6410
12.0949 -2.7196 2.6411
12.3880 0.2487 2.6409
11.9598 3.1986 2.6408
10.8296 5.9528 2.6387
4.8524 4.4653 1.4098
3.6740 5.5394 1.4231
4.3903 12.2427 2.7886
1.3353 12.9187 2.7886
-1.6909 12.1443 2.6362
-4.8018 12.0328 2.7886
-7.5320 10.5269 2.7886
-9.8242 8.4163 2.7886
-11.5482 5.8225 2.7886
-12.6063 2.8935 2.7886
-12.9381 -0.2039 2.7886
-12.5237 -3.2930 2.7886
-11.3853 -6.1974 2.7886
-9.5860 -8.7498 2.7886
-7.2270 -10.8022 2.7886
-4.4426 -12.2341 2.7886
-1.3923 -12.9598 2.7886
1.0172 -7.5306 1.6235
3.2491 -8.2413 1.8905
7.5650 -10.6687 2.7886
9.3617 -8.0914 2.6367
11.0441 -5.6308 2.6409
12.0699 -2.8292 2.6412
10.0499 0.1106 2.1422
11.9887 3.0902 2.6408
10.8842 5.8550 2.6389
4.8910 4.4196 1.4093
3.7231 5.5045 1.4227
4.5014 12.2031 2.7886
1.4525 12.9067 2.7886
-1.5808 12.1598 2.6362
-4.4362 11.4164 2.6362
-7.4365 10.5951 2.7886
-9.7476 8.5052 2.7886
-11.4949 5.9270 2.7886
-12.5794 3.0077 2.7886
-12.9391 -0.0865 2.7886
-12.5525 -3.1796 2.7886
-11.4403 -6.0940 2.7886
-9.6641 -8.6624 2.7886
-7.3239 -10.7359 2.7886
-4.5526 -12.1928 2.7886
-1.5092 -12.9460 2.7886
0.9480 -7.5302 1.6216
3.2480 -8.4617 1.9343
5.2437 -7.5384 1.9580
9.2874 -8.1749 2.6365
10.9922 -5.7300 2.6407
12.0440 -2.9381 2.6412
12.3911 0.0245 2.6410
12.0166 2.9819 2.6408
10.9378 5.7570 2.6390
4.9290 4.3737 1.4087
3.7717 5.4693 1.4222
4.6117 12.1626 2.7886
1.5691 12.8938 2.7886
-1.4709 12.1741 2.6362
-4.3330 11.4566 2.6362
-7.3407 10.6621 2.7886
-9.6705 8.5931 2.7886
-11.4410 6.0306 2.7886
-12.5516 3.1212 2.7886
-12.9391 0.0304 2.7886
-12.5804 -3.0656 2.7886
-11.4946 -5.9897 2.7886
-9.7418 -8.5740 2.7886
-7.4206 -10.6685 2.7886
-4.6627 -12.1503 2.7886
-1.6265 -12.9311 2.7886
0.8787 -7.5298 1.6198
3.2468 -8.6934 1.9806
5.1425 -7.5377 1.9457
9.2121 -8.2580 2.6363
10.9393 -5.8291 2.6406
12.0170 -3.0472 2.6412
12.3911 -0.0879 2.6410
12.0436 2.8729 2.6408
10.9906 5.6582 2.6392
4.9666 4.3273 1.4081
3.8202 5.4335 1.4218
4.7220 12.1209 2.7886
1.6860 12.8797 2.7886
-1.3605 12.1875 2.6362
-4.2291 11.4957 2.6362
-7.2442 10.7284 2.7886
-9.5926 8.6803 2.7886
-11.3861 6.1338 2.7886
-12.5228 3.2345 2.7886
-12.9380 0.1473 2.7886
-12.6072 -2.9517 2.7886
-11.5478 -5.8854 2.7886
-9.8184 -8.4852 2.7886
-7.5163 -10.6004 2.7886
-4.7721 -12.1071 2.7886
-1.7431 -12.9152 2.7886
0.8098 -7.5295 1.6182
3.2456 -8.9355 2.0290
5.0429 -7.5371 1.9337
9.1364 -8.3402 2.6362
10.8856 -5.9273 2.6405
11.9891 -3.1557 2.6412
12.3901 -0.1998 2.6410
12.0695 2.7641 2.6408
11.0424 5.5592 2.6394
5.0037 4.2807 1.4075
3.8681 5.3973 1.4213
4.8316 12.0784 2.7886
1.8024 12.8646 2.7886
-1.2504 12.1999 2.6362
-4.1252 11.5339 2.6362
-7.1468 10.7939 2.7886
-9.5137 8.7671 2.7886
-11.3300 6.2369 2.7886
-12.4929 3.3479 2.7886
-12.9359 0.2646 2.7886
-12.6331 -2.8371 2.7886
-11.6002 -5.7802 2.7886
-9.8945 -8.3954 2.7886
-7.6117 -10.5313 2.7886
-4.8814 -12.0626 2.7886
-1.8600 -12.8982 2.7886
0.7407 -7.5291 1.6167
3.2443 -9.1907 2.0803
4.9441 -7.5364 1.9220
9.0603 -8.4226 2.6362
10.8308 -6.0254 2.6403
11.9602 -3.2642 2.6412
12.3881 -0.3121 2.6410
12.0944 2.6547 2.6408
11.0934 5.4595 2.6395
5.0405 4.2336 1.4070
3.9159 5.3606 1.4209
4.9408 12.0350 2.7886
1.9187 12.8485 2.7886
-1.1402 12.2113 2.6362
-4.0210 11.5712 2.6362
-7.0492 10.8584 2.7886
-9.4342 8.8528 2.7886
-11.2733 6.3390 2.7886
-12.4620 3.4606 2.7886
-12.9327 0.3815 2.7886
-12.6578 -2.7228 2.7886
-11.6515 -5.6749 2.7886
-9.9694 -8.3053 2.7886
-7.7061 -10.4615 2.7886
-4.9899 -12.0174 2.7886
-1.9764 -12.8802 2.7886
0.6721 -7.5287 1.6153
3.2429 -9.4582 2.1342
4.8469 -7.5358 1.9107
8.9938 -8.5134 2.6391
10.7754 -6.1227 2.6402
11.9303 -3.3722 2.6412
12.3850 -0.4240 2.6410
12.1183 2.5454 2.6408
11.1434 5.3595 2.6396
5.0767 4.1864 1.4064
3.9631 5.3236 1.4204
5.0500 11.9903 2.7886
2.0352 12.8312 2.7886
-1.0294 12.2217 2.6362
-3.9161 11.6076 2.6362
-6.9507 10.9222 2.7886
-9.3537 8.9382 2.7886
-11.2154 6.4410 2.7886
-12.4300 3.5735 2.7886
-12.9285 0.4988 2.7886
-12.6816 -2.6078 2.7886
-11.7020 -5.5688 2.7886
-10.0438 -8.2141 2.7886
-7.8002 -10.3907 2.7886
-5.0983 -11.9710 2.7886
-2.0930 -12.8611 2.7886
0.6033 -7.5284 1.6141
3.2415 -9.7410 2.1914
4.7505 -7.5352 1.8996
8.9769 -8.6531 2.6571
10.7188 -6.2197 2.6401
10.9404 -3.1998 2.4284
12.3810 -0.5358 2.6410
12.1412 2.4360 2.6408
11.1924 5.2592 2.6398
5.1124 4.1388 1.4058
4.0099 5.2862 1.4200
5.1583 11.9449 2.7886
2.1511 12.8130 2.7886
-0.9536 12.6907 2.7352
-3.8112 11.6430 2.6362
-6.8519 10.9849 2.7886
-2.8373 2.7608 0.8533
-11.1568 6.5422 2.7886
-12.3971 3.6856 2.7886
-12.9232 0.6156 2.7886
-12.7042 -2.4930 2.7886
-11.7513 -5.4626 2.7886
-10.1172 -8.1226 2.7886
-7.8933 -10.3192 2.7886
-5.2060 -11.9238 2.7886
-2.2089 -12.8410 2.7886
0.5349 -7.5280 1.6130
3.2400 -10.0381 2.2517
4.6556 -7.5345 1.8888
8.9691 -8.8032 2.6783
10.6615 -6.3159 2.6399
11.8676 -3.5876 2.6412
12.3759 -0.6480 2.6410
12.1632 2.3259 2.6408
11.2407 5.1580 2.6399
5.1478 4.0908 1.4052
4.0565 5.2481 1.4195
5.2667 11.8982 2.7886
2.2674 12.7936 2.7886
-0.8548 12.9471 2.7886
-3.7056 11.6776 2.6362
-6.7522 11.0469 2.7886
-2.8008 2.7751 0.8498
-11.0971 6.6431 2.7886
-12.3631 3.7979 2.7886
-12.9168 0.7327 2.7886
-12.7259 -2.3776 2.7886
-11.7999 -5.3556 2.7886
-10.1899 -8.0302 2.7886
-7.9862 -10.2467 2.7886
-5.3136 -11.8755 2.7886
-2.3251 -12.8197 2.7886
0.4663 -7.5276 1.6120
3.2384 -10.3534 2.3158
4.5617 -7.5339 1.8783
8.9611 -8.9557 2.7000
10.6034 -6.4115 2.6398
11.8348 -3.6946 2.6412
12.3698 -0.7598 2.6410
12.1842 2.2160 2.6408
11.2879 5.0567 2.6401
5.1826 4.0426 1.4046
4.1026 5.2098 1.4190
5.3743 11.8508 2.7886
2.3830 12.7733 2.7886
-0.7379 12.9549 2.7886
-3.6001 11.7111 2.6362
-6.6523 11.1078 2.7886
-2.7832 2.8080 0.8521
-11.0367 6.7432 2.7886
-12.3282 3.9094 2.7886
-12.9094 0.8494 2.7886
-12.7465 -2.2625 2.7886
-11.8473 -5.2485 2.7886
-10.2615 -7.9374 2.7886
-8.0780 -10.1736 2.7886
-5.4204 -11.8263 2.7886
-2.4407 -12.7975 2.7886
0.3981 -7.5273 1.6112
3.2367 -10.6858 2.3836
4.4685 -7.5333 1.8680
8.9534 -9.1117 2.7225
10.5442 -6.5070 2.6396
11.8009 -3.8018 2.6412
12.3627 -0.8719 2.6410
12.2041 2.1055 2.6408
11.3343 4.9546 2.6402
5.2170 3.9939 1.4040
4.1485 5.1709 1.4185
5.4818 11.8023 2.7886
2.4988 12.7518 2.7886
-0.6204 12.9617 2.7886
-3.4939 11.7437 2.6362
-6.5515 11.1681 2.7886
-9.0247 9.2717 2.7886
-10.9751 6.8430 2.7886
-12.2922 4.0211 2.7886
-12.9010 0.9664 2.7886
-12.7661 -2.1467 2.7886
-11.8940 -5.1407 2.7886
-10.3326 -7.8436 2.7886
-8.1695 -10.0994 2.7886
-5.5267 -11.7762 2.7886
-2.5561 -12.7743 2.7886
0.3299 -7.5269 1.6105
3.2069 -10.9426 2.4344
4.3767 -7.5327 1.8581
8.9456 -9.2697 2.7455
10.4843 -6.6015 2.6395
9.6422 -3.2027 2.1644
12.3545 -0.9835 2.6410
12.2231 1.9953 2.6408
11.3796 4.8526 2.6403
5.2509 3.9451 1.4034
4.1938 5.1318 1.4181
5.5885 11.7529 2.7886
2.6141 12.7294 2.7886
-0.5033 12.9674 2.7886
-3.3878 11.7753 2.6362
-6.4506 11.2272 2.7886
-8.9408 9.3531 2.7886
-10.9129 6.9420 2.7886
-12.2553 4.1319 2.7886
-12.8915 1.0829 2.7886
-12.7846 -2.0312 2.7886
-11.9395 -5.0328 2.7886
-10.4026 -7.7496 2.7886
-8.2599 -10.0246 2.7886
-5.6329 -11.7250 2.7886
-2.6716 -12.7499 2.7886
0.2616 -7.5266 1.6099
3.1105 -10.9817 2.4369
4.2855 -7.5322 1.8483
8.9375 -9.4310 2.7693
10.4234 -6.6959 2.6394
11.7304 -4.0148 2.6412
10.9172 -0.9688 2.3355
12.2410 1.8845 2.6408
11.4242 4.7496 2.6405
5.2844 3.8958 1.4028
4.2389 5.0920 1.4176
5.6952 11.7024 2.7886
2.7295 12.7059 2.7886
-0.3857 12.9721 2.7886
-3.2810 11.8060 2.6362
-6.3487 11.2856 2.7886
-8.8558 9.4340 2.7886
-10.8496 7.0408 2.7886
-12.2173 4.2428 2.7886
-12.8810 1.1994 2.7886
-12.8021 -1.9156 2.7886
-11.9840 -4.9245 2.7886
-10.4717 -7.6549 2.7886
-8.3497 -9.9491 2.7886
-5.7383 -11.6730 2.7886
-2.7866 -12.7246 2.7886
0.1935 -7.5262 1.6095
3.0232 -11.0532 2.4467
4.1956 -7.5316 1.8389
8.9135 -9.5774 2.7886
10.3618 -6.7893 2.6392
11.6937 -4.1206 2.6412
12.3352 -1.2070 2.6410
12.2580 1.7739 2.6408
11.4676 4.6466 2.6406
5.3173 3.8465 1.4022
4.2835 5.0520 1.4171
3.6118 7.2543 1.7362
2.8444 12.6814 2.7886
-0.2685 12.9757 2.7886
-3.1743 11.8357 2.6362
-6.2467 11.3427 2.7886
-8.7704 9.5138 2.7886
-10.7857 7.1386 2.7886
-12.1784 4.3531 2.7886
-12.8693 1.3161 2.7886
-12.8185 -1.7993 2.7886
-12.0277 -4.8155 2.7886
-10.5402 -7.5593 2.7886
-8.4392 -9.8725 2.7886
-5.8436 -11.6198 2.7886
-2.9017 -12.6981 2.7886
0.1252 -7.5259 1.6092
2.9500 -11.1831 2.4695
4.1062 -7.5310 1.8296
8.8261 -9.6576 2.7886
10.2991 -6.8825 2.6390
11.3594 -4.1189 2.5740
12.3240 -1.3188 2.6411
12.2739 1.6627 2.6409
11.5085 4.5422 2.6403
5.3498 3.7966 1.4016
4.3278 5.0115 1.4166
3.6110 7.0908 1.7048
2.9594 12.6557 2.7886
-0.1508 12.9782 2.7886
-3.0670 11.8645 2.6362
-6.1441 11.3992 2.7886
-8.6842 9.5929 2.7886
-10.7208 7.2358 2.7886
-12.1385 4.4629 2.7886
-12.8567 1.4323 2.7886
-12.8339 -1.6834 2.7886
-12.0702 -4.7064 2.7886
-10.6075 -7.4634 2.7886
-8.5276 -9.7953 2.7886
-5.9480 -11.5660 2.7886
-3.0161 -12.6706 2.7886
0.0572 -7.5255 1.6090
3.2168 -12.6569 2.7886
4.0181 -7.5305 1.8207
8.7384 -9.7367 2.7886
10.2358 -6.9747 2.6389
11.1678 -4.1639 2.5390
12.3118 -1.4301 2.6411
12.2888 1.5519 2.6409
11.5061 4.4215 2.6304
5.3818 3.7466 1.4009
4.3716 4.9707 1.4161
3.6102 6.9336 1.6747
3.0738 12.6292 2.7886
-0.0336 12.9797 2.7886
-2.9598 11.8922 2.6362
-6.0407 11.4548 2.7886
-8.5971 9.6715 2.7886
-10.6549 7.3328 2.7886
-12.0975 4.5726 2.7886
-12.8430 1.5488 2.7886
-12.8483 -1.5669 2.7886
-12.1119 -4.5966 2.7886
-10.6743 -7.3666 2.7886
-8.6156 -9.7171 2.7886
-2.9469 -5.6048 1.3578
-3.1307 -12.6421 2.7886
-0.0110 -7.5252 1.6090
3.1018 -12.6850 2.7886
3.9306 -7.5299 1.8119
8.6495 -9.8153 2.7886
10.1715 -7.0667 2.6387
11.1655 -4.2788 2.5472
12.2986 -1.5416 2.6411
12.3028 1.4405 2.6409
11.5038 4.3014 2.6208
5.4134 3.6962 1.4003
4.4151 4.9293 1.4156
3.6094 6.7818 1.6457
3.1879 12.6016 2.7886
0.0837 12.9801 2.7886
-2.6799 11.1984 2.4767
-5.9372 11.5094 2.7886
-8.5095 9.7490 2.7886
-10.5883 7.4289 2.7886
-12.0557 4.6819 2.7886
-12.8283 1.6648 2.7886
-12.8616 -1.4507 2.7886
-12.1525 -4.4868 2.7886
-10.7399 -7.2695 2.7886
-8.7026 -9.6383 2.7886
-2.9895 -5.5631 1.3542
-3.2446 -12.6126 2.7886
-0.0790 -7.5248 1.6091
2.9870 -12.7119 2.7886
3.8442 -7.5294 1.8034
8.5603 -9.8928 2.7886
10.1065 -7.1578 2.6386
11.1633 -4.3939 2.5557
12.2844 -1.6527 2.6411
12.3156 1.3293 2.6409
11.5015 4.1825 2.6114
5.4444 3.6457 1.3997
4.4581 4.8877 1.4150
3.6087 6.6347 1.6178
3.3022 12.5728 2.7886
0.2014 12.9795 2.7886
-2.7443 11.9449 2.6362
-5.8327 11.5632 2.7886
-8.4210 9.8260 2.7886
-10.5206 7.5247 2.7886
-12.0127 4.7910 2.7886
-12.8124 1.7811 2.7886
-12.8738 -1.3339 2.7886
-12.1923 -4.3762 2.7886
-10.8049 -7.1715 2.7886
-8.7892 -9.5585 2.7886
-6.2590 -11.3982 2.7886
-3.3586 -12.5820 2.7886
-0.1472 -7.5245 1.6093
1.6985 -7.5343 1.6494
3.7582 -7.5288 1.7951
8.4701 -9.9697 2.7886
10.0405 -7.2485 2.6384
11.1275 -4.4968 2.5567
12.2692 -1.7636 2.6411
12.3275 1.2181 2.6409
11.5471 4.0814 2.6132
5.4749 3.5950 1.3991
4.5006 4.8457 1.4145
3.6080 6.4929 1.5910
3.4159 12.5432 2.7886
0.3187 12.9778 2.7886
-2.6364 11.9698 2.6362
-5.7282 11.6158 2.7886
-8.3320 9.9019 2.7886
-10.4523 7.6195 2.7886
-11.9689 4.8994 2.7886
-12.7957 1.8967 2.7886
-12.8850 -1.2175 2.7886
-12.2308 -4.2657 2.7886
-10.8687 -7.0733 2.7886
-8.8747 -9.4782 2.7886
-6.3613 -11.3406 2.7886
-3.4719 -12.5505 2.7886
-0.2152 -7.5241 1.6096
1.6270 -7.5339 1.6461
3.6734 -7.5283 1.7871
8.3795 -10.0456 2.7886
9.9739 -7.3384 2.6382
11.1253 -4.6132 2.5657
12.2529 -1.8748 2.6411
12.3384 1.1063 2.6409
11.7060 4.0185 2.6407
5.5050 3.5437 1.3984
4.5429 4.8032 1.4140
3.6073 6.3552 1.5652
3.5296 12.5124 2.7886
0.4364 12.9750 2.7886
-2.5278 11.9937 2.6362
-5.6228 11.6676 2.7886
-8.2421 9.9773 2.7886
-10.3829 7.7141 2.7886
-11.9240 5.0077 2.7886
-12.7778 2.0127 2.7886
-12.8952 -1.1006 2.7886
-12.2686 -4.1545 2.7886
-10.9319 -6.9741 2.7886
-8.9598 -9.3969 2.7886
-6.4636 -11.2819 2.7886
-3.5854 -12.5178 2.7886
-0.4146 -11.0046 2.3551
1.5556 -7.5335 1.6429
3.5893 -7.5278 1.7792
8.2882 -10.1206 2.7886
9.9064 -7.4276 2.6381
11.1230 -4.7304 2.5749
12.2357 -1.9854 2.6411
12.3482 0.9949 2.6409
11.7422 3.9128 2.6407
5.5345 3.4924 1.3978
4.5846 4.7604 1.4135
3.6066 6.2224 1.5403
3.6427 12.4806 2.7886
0.5536 12.9712 2.7886
-2.4195 12.0166 2.6362
-5.5174 11.7183 2.7886
-8.1518 10.0517 2.7886
-10.3129 7.8077 2.7886
-11.8782 5.1153 2.7886
-12.7589 2.1280 2.7886
-12.9043 -0.9840 2.7886
-12.3052 -4.0433 2.7886
-10.9940 -6.8747 2.7886
-9.0439 -9.3151 2.7886
-6.5648 -11.2224 2.7886
-3.6981 -12.4842 2.7886
-0.5193 -11.1138 2.3795
1.4847 -7.5331 1.6399
3.5057 -7.5272 1.7716
8.1959 -10.1951 2.7886
9.8379 -7.5165 2.6379
11.1542 -4.8635 2.5922
12.2173 -2.0962 2.6411
12.3571 0.8829 2.6409
11.7777 3.8064 2.6407
5.5636 3.4407 1.3972
4.6261 4.7171 1.4129
3.6060 6.0933 1.5163
3.7560 12.4478 2.7886
0.6712 12.9664 2.7886
-2.3105 12.0386 2.6362
-5.4111 11.7684 2.7886
-8.0605 10.1254 2.7886
-10.2418 7.9010 2.7886
-11.8313 5.2228 2.7886
-12.7389 2.2436 2.7886
-12.9124 -0.8669 2.7886
-12.3409 -3.9314 2.7886
-11.0554 -6.7744 2.7886
-9.1272 -9.2325 2.7886
-6.6656 -11.1620 2.7886
-3.8105 -12.4497 2.7886
-0.7262 -13.0180 2.7886
1.4140 -7.5328 1.6371
3.4231 -7.5267 1.7642
8.1033 -10.2684 2.7886
9.7689 -7.6044 2.6377
11.1519 -4.9829 2.6020
12.1981 -2.2065 2.6411
12.3649 0.7713 2.6409
11.8120 3.7000 2.6407
5.5922 3.3889 1.3965
4.6670 4.6736 1.4124
3.6053 5.9685 1.4932
3.8685 12.4140 2.7886
0.7884 12.9604 2.7886
-2.2017 12.0595 2.6362
-5.3047 11.8172 2.7886
-7.9689 10.1981 2.7886
-10.1701 7.9934 2.7886
-11.7837 5.3295 2.7886
-12.7179 2.3586 2.7886
-12.9194 -0.7502 2.7886
-12.3755 -3.8196 2.7886
-11.1157 -6.6740 2.7886
-9.2101 -9.1489 2.7886
-6.7662 -11.1005 2.7886
-3.9230 -12.4139 2.7886
-0.8441 -13.0102 2.7886
1.3434 -7.5324 1.6344
3.3408 -7.5262 1.7570
8.0097 -10.3412 2.7886
9.6987 -7.6921 2.6376
11.1496 -5.1036 2.6122
10.9288 -2.0794 2.3702
12.3717 0.6592 2.6409
11.8456 3.5929 2.6407
10.6221 6.3061 2.6381
4.7076 4.6295 1.4119
3.6047 5.8471 1.4709
3.9811 12.3791 2.7886
0.9059 12.9534 2.7886
-2.0924 12.0795 2.6362
-5.1975 11.8653 2.7886
-7.8763 10.2702 2.7886
-10.0974 8.0854 2.7886
-11.7349 5.4362 2.7886
-12.6959 2.4734 2.7886
-12.9253 -0.6334 2.7886
-12.4090 -3.7075 2.7886
-11.1750 -6.5730 2.7886
-9.2919 -9.0649 2.7886
-6.8658 -11.0384 2.7886
-4.0348 -12.3773 2.7886
-0.9615 -13.0014 2.7886
1.2732 -7.5320 1.6318
3.2596 -7.5257 1.7500
7.9157 -10.4128 2.7886
9.6281 -7.7787 2.6374
11.1472 -5.2248 2.6226
12.1565 -2.4270 2.6411
12.3775 0.5475 2.6409
11.8780 3.4859 2.6407
10.6798 6.2106 2.6383
4.7476 4.5853 1.4113
3.6041 5.7296 1.4494
4.0930 12.3433 2.7886
1.0230 12.9454 2.7886
-1.9833 12.0985 2.6362
-5.0903 11.9122 2.7886
-7.7834 10.3413 2.7886
-10.0240 8.1764 2.7886
-11.6853 5.5420 2.7886
-12.6728 2.5884 2.7886
-12.9302 -0.5161 2.7886
-12.4417 -3.5947 2.7886
-11.2337 -6.4711 2.7886
-9.3733 -8.9798 2.7886
-6.9652 -10.9750 2.7886
-4.1466 -12.3395 2.7886
-1.0793 -12.9915 2.7886
1.2030 -7.5316 1.6294
3.2519 -7.6985 1.7833
7.8208 -10.4838 2.7886
9.5564 -7.8650 2.6372
11.1449 -5.3474 2.6333
12.1342 -2.5371 2.6411
12.3823 0.4352 2.6409
11.9095 3.3782 2.6407
10.7368 6.1142 2.6385
4.7874 4.5405 1.4108
3.6035 5.6151 1.4285
4.2050 12.3063 2.7886
1.1404 12.9362 2.7886
-1.8735 12.1165 2.6362
-4.9827 11.9582 2.7886
-7.6898 10.4115 2.7886
-9.9499 8.2667 2.7886
-11.6348 5.6473 2.7886
-12.6488 2.7028 2.7886
-12.9340 -0.3993 2.7886
-12.4733 -3.4820 2.7886
-11.2912 -6.3691 2.7886
-9.4535 -8.8943 2.7886
-7.0637 -10.9111 2.7886
-4.2577 -12.3009 2.7886
-1.1966 -12.9805 2.7886
1.1333 -7.5312 1.6271
3.2509 -7.8943 1.8219
7.7256 -10.5538 2.7886
9.4842 -7.9503 2.6370
11.1288 -5.4639 2.6411
12.1110 -2.6466 2.6411
12.3861 0.3234 2.6409
11.9400 3.2706 2.6408
10.7927 6.0176 2.6386
4.8265 4.4955 1.4102
3.6411 5.5624 1.4234
4.3162 12.2685 2.7886
1.2573 12.9261 2.7886
-1.7641 12.1335 2.6362
-4.8742 12.0033 2.7886
-7.5953 10.4811 2.7886
-9.8747 8.3568 2.7886
-11.5831 5.7527 2.7886
-12.6236 2.8174 2.7886
-12.9368 -0.2819 2.7886
-12.5039 -3.3686 2.7886
-11.3480 -6.2661 2.7886
-9.5333 -8.8078 2.7886
-7.1620 -10.8460 2.7886
-4.3688 -12.2611 2.7886
-1.3141 -12.9684 2.7886
1.0635 -7.5308 1.6249
3.2498 -8.0996 1.8624
7.6294 -10.6231 2.7886
9.4109 -8.0353 2.6368
11.0782 -5.5643 2.6409
12.0866 -2.7563 2.6411
12.3888 0.2111 2.6410
11.9696 3.1623 2.6408
10.8480 5.9201 2.6388
4.8652 4.4502 1.4096
3.6903 5.5279 1.4229
4.4271 12.2297 2.7886
1.3741 12.9148 2.7886
-1.6545 12.1495 2.6362
-4.7657 12.0474 2.7886
-7.5005 10.5496 2.7886
-9.7989 8.4458 2.7886
-11.5307 5.8571 2.7886
-12.5975 2.9313 2.7886
-12.9386 -0.1650 2.7886
-11.2916 -2.9327 2.7886
-10.2729 -5.5518 2.7886
-8.6579 -7.8551 2.7886
-6.5379 -9.7089 2.7886
-4.0335 -11.0046 2.7886
-1.2886 -11.6648 2.7886
0.9945 -7.5327 1.8032
3.2131 -8.2223 2.0929
6.7803 -9.6234 2.7886
8.8881 -7.7290 2.7886
9.9131 -5.0920 2.6378
10.8507 -2.5781 2.6399
10.0502 0.0801 2.3799
10.7931 2.7470 2.6391
5.1646 2.7580 1.3887
4.3973 3.9492 1.4034
3.6019 5.2904 1.5216
4.0873 10.9773 2.7886
1.3437 11.6209 2.7886
-1.3906 10.9577 2.6362
-3.9652 10.2969 2.6362
-6.6709 9.5660 2.7886
-8.7593 7.6898 2.7886
-10.3410 5.3716 2.7886
-11.3260 2.7441 2.7886
-11.6580 -0.0429 2.7886
-11.3173 -2.8303 2.7886
-10.3223 -5.4584 2.7886
-8.7283 -7.7761 2.7886
-6.6252 -9.6489 2.7886
-4.1327 -10.9671 2.7886
-1.3940 -11.6521 2.7886
0.9252 -7.5323 1.8011
3.1466 -8.2723 2.0983
5.2116 -7.5409 2.1714
8.8177 -7.8090 2.7886
9.8662 -5.1812 2.6377
10.8268 -2.6762 2.6399
11.1506 -0.0120 2.6404
10.8182 2.6494 2.6391
5.1874 2.7101 1.3881
4.4314 3.9080 1.4029
3.6014 5.1881 1.5014
4.1867 10.9404 2.7886
1.4488 11.6088 2.7886
-1.2914 10.9703 2.6362
-3.8720 10.3328 2.6362
-6.5843 9.6262 2.7886
-8.6895 7.7689 2.7886
-10.2920 5.4650 2.7886
-11.3006 2.8465 2.7886
-11.6577 0.0626 2.7886
-11.3422 -2.7276 2.7886
-10.3709 -5.3646 2.7886
-8.7979 -7.6964 2.7886
-6.7119 -9.5881 2.7886
-4.2316 -10.9287 2.7886
-1.4994 -11.6385 2.7886
0.8560 -7.5319 1.7992
3.0943 -8.3616 2.1139
5.1110 -7.5402 2.1579
8.7465 -7.8883 2.7886
9.8185 -5.2700 2.6375
10.8020 -2.7740 2.6398
11.1503 -0.1129 2.6404
10.8424 2.5516 2.6392
5.2096 2.6620 1.3875
4.4652 3.8665 1.4024
3.6009 5.0885 1.4819
4.2857 10.9026 2.7886
1.5539 11.5958 2.7886
-1.1921 10.9820 2.6362
-3.7784 10.3678 2.6362
-6.4970 9.6857 2.7886
-8.6190 7.8473 2.7886
-10.2422 5.5580 2.7886
-11.2743 2.9486 2.7886
-11.6564 0.1681 2.7886
-11.3660 -2.6248 2.7886
-10.4186 -5.2703 2.7886
-8.8668 -7.6162 2.7886
-6.7980 -9.5265 2.7886
-4.3301 -10.8894 2.7886
-1.6045 -11.6239 2.7886
0.7870 -7.5316 1.7974
3.2452 -9.0191 2.2726
5.0116 -7.5395 2.1447
8.6746 -7.9670 2.7886
9.7699 -5.3584 2.6374
10.7764 -2.8715 2.6398
11.1491 -0.2137 2.6404
10.8656 2.4535 2.6393
5.3089 2.6524 1.4074
4.4985 3.8247 1.4019
3.6004 4.9914 1.4630
4.3844 10.8640 2.7886
1.6589 11.5818 2.7886
-1.0927 10.9929 2.6362
-3.6846 10.4019 2.6362
-6.4093 9.7444 2.7886
-8.5477 7.9251 2.7886
-10.1915 5.6505 2.7886
-11.2470 3.0505 2.7886
-11.6542 0.2736 2.7886
-11.3890 -2.5217 2.7886
-10.4655 -5.1755 2.7886
-8.9349 -7.5353 2.7886
-6.8836 -9.4641 2.7886
-4.4282 -10.8492 2.7886
-1.7095 -11.6083 2.7886
0.7182 -7.5312 1.7957
3.2438 -9.2781 2.3305
4.9134 -7.5389 2.1318
8.6021 -8.0450 2.7886
9.7206 -5.4463 2.6373
10.7498 -2.9688 2.6397
11.1469 -0.3146 2.6404
10.8880 2.3553 2.6394
5.4293 2.6515 1.4329
4.5315 3.7826 1.4013
3.5999 4.8967 1.4446
4.4828 10.8244 2.7886
1.7637 11.5669 2.7886
-1.0049 11.1324 2.6672
-3.5904 10.4352 2.6362
-6.3210 9.8022 2.7886
-8.4758 8.0023 2.7886
-10.1400 5.7425 2.7886
-11.2189 3.1521 2.7886
-11.6510 0.3791 2.7886
-11.4110 -2.4185 2.7886
-10.5115 -5.0804 2.7886
-9.0024 -7.4538 2.7886
-6.9687 -9.4010 2.7886
-4.5260 -10.8082 2.7886
-1.8144 -11.5918 2.7886
0.6494 -7.5308 1.7943
3.2425 -9.5506 2.3916
4.8164 -7.5382 2.1193
8.5288 -8.1223 2.7886
9.6704 -5.5336 2.6372
10.7223 -3.0659 2.6397
11.1439 -0.4154 2.6404
10.9095 2.2568 2.6394
5.5543 2.6505 1.4594
4.5640 3.7402 1.4008
3.5994 4.8043 1.4269
4.5808 10.7839 2.7886
1.8684 11.5510 2.7886
-0.9453 11.6484 2.7886
-3.4960 10.4677 2.6362
-6.2322 9.8594 2.7886
-8.4032 8.0788 2.7886
-10.0876 5.8341 2.7886
-11.1898 3.2535 2.7886
-11.6469 0.4845 2.7886
-11.4321 -2.3150 2.7886
-10.5566 -4.9849 2.7886
-9.0690 -7.3717 2.7886
-7.0531 -9.3371 2.7886
-4.6234 -10.7663 2.7886
-1.9191 -11.5744 2.7886
0.5808 -7.5305 1.7929
3.2410 -9.8378 2.4561
4.7205 -7.5376 2.1071
8.4548 -8.1990 2.7886
9.6194 -5.6206 2.6371
10.6940 -3.1627 2.6396
11.1399 -0.5162 2.6404
10.9301 2.1581 2.6395
10.0790 4.6983 2.6369
4.5961 3.6975 1.4003
3.6074 4.7253 1.4130
4.6784 10.7426 2.7886
1.9729 11.5342 2.7886
-0.8399 11.6570 2.7886
-3.4012 10.4993 2.6362
-6.1429 9.9157 2.7886
-2.8248 2.7655 0.9457
-10.0345 5.9252 2.7886
-11.1599 3.3547 2.7886
-11.6418 0.5899 2.7886
-11.4523 -2.2114 2.7886
-10.6009 -4.8890 2.7886
-9.1350 -7.2890 2.7886
-7.1370 -9.2724 2.7886
-4.7204 -10.7235 2.7886
-2.0237 -11.5560 2.7886
0.5123 -7.5301 1.7917
3.2395 -10.1409 2.5245
4.6257 -7.5369 2.0952
8.3802 -8.2750 2.7886
9.5677 -5.7071 2.6369
10.6647 -3.2593 2.6395
11.1349 -0.6170 2.6404
10.9497 2.0593 2.6396
10.1220 4.6073 2.6370
4.6278 3.6546 1.3998
3.6491 4.6913 1.4126
4.7757 10.7003 2.7886
2.0773 11.5164 2.7886
-0.7344 11.6646 2.7886
-3.3062 10.5300 2.6362
-6.0530 9.9711 2.7886
-2.7933 2.7845 0.9435
-9.9805 6.0158 2.7886
-11.1290 3.4555 2.7886
-11.6358 0.6952 2.7886
-11.4715 -2.1076 2.7886
-10.6444 -4.7926 2.7886
-9.2002 -7.2057 2.7886
-7.2203 -9.2070 2.7886
-4.8169 -10.6798 2.7886
-2.1281 -11.5366 2.7886
0.4439 -7.5297 1.7907
3.4767 -11.2332 2.7886
4.5320 -7.5363 2.0836
8.3048 -8.3504 2.7886
9.5151 -5.7931 2.6368
10.6346 -3.3556 2.6395
11.1291 -0.7177 2.6404
10.9685 1.9602 2.6396
10.1641 4.5159 2.6372
4.6591 3.6113 1.3992
3.6905 4.6569 1.4121
4.8725 10.6572 2.7886
2.1816 11.4977 2.7886
-0.6288 11.6713 2.7886
-3.2108 10.5599 2.6362
-5.9627 10.0258 2.7886
-2.7779 2.8197 0.9468
-9.9257 6.1060 2.7886
-11.0972 3.5561 2.7886
-11.6288 0.8005 2.7886
-11.4898 -2.0036 2.7886
-10.6869 -4.6959 2.7886
-9.2646 -7.1218 2.7886
-7.3029 -9.1409 2.7886
-4.9132 -10.6352 2.7886
-2.2323 -11.5164 2.7886
0.3755 -7.5294 1.7898
3.3748 -11.2638 2.7886
4.4393 -7.5357 2.0723
8.2288 -8.4250 2.7886
9.4618 -5.8786 2.6367
9.6485 -3.1407 2.4017
11.1223 -0.8184 2.6404
10.9863 1.8610 2.6397
10.2054 4.4242 2.6373
4.6900 3.5678 1.3987
3.7315 4.6222 1.4117
4.9690 10.6132 2.7886
2.2856 11.4780 2.7886
-0.5232 11.6771 2.7886
-3.1153 10.5890 2.6362
-5.8719 10.0796 2.7886
-8.1058 8.3784 2.7886
-9.8701 6.1956 2.7886
-11.0645 3.6564 2.7886
-11.6209 0.9057 2.7886
-11.5072 -1.8995 2.7886
-10.7286 -4.5989 2.7886
-9.3283 -7.0374 2.7886
-7.3850 -9.0740 2.7886
-5.0090 -10.5898 2.7886
-2.3362 -11.4951 2.7886
0.3072 -7.5290 1.7891
3.2353 -11.1646 2.7568
4.3476 -7.5351 2.0613
8.1521 -8.4989 2.7886
9.4077 -5.9636 2.6365
9.6425 -3.2355 2.4073
11.1146 -0.9190 2.6404
11.0032 1.7617 2.6398
10.2458 4.3320 2.6374
4.7205 3.5240 1.3981
3.7722 4.5870 1.4113
5.0650 10.5684 2.7886
2.3895 11.4574 2.7886
-0.4176 11.6818 2.7886
-3.0195 10.6171 2.6362
-5.7806 10.1323 2.7886
-8.0298 8.4515 2.7886
-9.8137 6.2847 2.7886
-11.0309 3.7564 2.7886
-11.6121 1.0108 2.7886
-11.5236 -1.7952 2.7886
-10.7694 -4.5014 2.7886
-9.3912 -6.9523 2.7886
-7.4665 -9.0063 2.7886
-5.1043 -10.5435 2.7886
-2.4401 -11.4729 2.7886
0.2390 -7.5287 1.7885
3.1702 -11.3221 2.7886
4.2568 -7.5345 2.0506
8.0747 -8.5721 2.7886
9.3528 -6.0481 2.6364
10.5389 -3.6426 2.6392
11.1060 -1.0195 2.6404
11.0192 1.6621 2.6398
10.2854 4.2395 2.6375
4.7505 3.4799 1.3976
3.8126 4.5515 1.4108
5.1608 10.5226 2.7886
2.4932 11.4359 2.7886
-0.3118 11.6857 2.7886
-2.9234 10.6444 2.6362
-5.6888 10.1848 2.7886
-7.9531 8.5240 2.7886
-9.7565 6.3734 2.7886
-10.9964 3.8561 2.7886
-11.6023 1.1159 2.7886
-11.5391 -1.6908 2.7886
-10.8093 -4.4036 2.7886
-9.4533 -6.8668 2.7886
-7.5473 -8.9379 2.7886
-5.1992 -10.4964 2.7886
-2.5436 -11.4499 2.7886
0.1708 -7.5283 1.7881
3.0676 -11.3499 2.7886
4.1671 -7.5339 2.0401
7.9967 -8.6447 2.7886
9.2971 -6.1321 2.6363
10.5052 -3.7377 2.6392
11.0964 -1.1200 2.6404
11.0343 1.5624 2.6399
10.3242 4.1466 2.6376
4.7802 3.4356 1.3970
3.8525 4.5156 1.4104
3.6116 7.1984 1.9161
2.5967 11.4134 2.7886
-0.2061 11.6885 2.7886
-2.8270 10.6709 2.6362
-5.5966 10.2361 2.7886
-7.8758 8.5959 2.7886
-9.6985 6.4615 2.7886
-10.9610 3.9554 2.7886
-11.5915 1.2209 2.7886
-11.5536 -1.5862 2.7886
-10.8483 -4.3054 2.7886
-9.5146 -6.7807 2.7886
-7.6275 -8.8689 2.7886
-5.2937 -10.4484 2.7886
-2.6470 -11.4258 2.7886
0.1027 -7.5280 1.7878
2.9646 -11.3767 2.7886
4.0782 -7.5334 2.0300
7.9180 -8.7165 2.7886
9.2408 -6.2157 2.6362
10.4707 -3.8325 2.6391
11.0859 -1.2203 2.6404
11.0485 1.4626 2.6399
10.3621 4.0534 2.6377
4.8093 3.3911 1.3965
3.8922 4.4794 1.4099
3.6107 7.0371 1.8817
2.7000 11.3900 2.7886
-0.1003 11.6904 2.7886
-2.7304 10.6964 2.6362
-5.5038 10.2867 2.7886
-7.7978 8.6670 2.7886
-9.6396 6.5491 2.7886
-10.9247 4.0545 2.7886
-11.5798 1.3257 2.7886
-11.5672 -1.4816 2.7886
-10.8865 -4.2070 2.7886
-9.5752 -6.6940 2.7886
-7.7071 -8.7991 2.7886
-5.3878 -10.3995 2.7886
-2.7501 -11.4008 2.7886
0.0346 -7.5276 1.7876
2.8614 -11.4026 2.7886
3.9902 -7.5328 2.0200
7.8386 -8.7876 2.7886
9.1841 -6.2990 2.6362
10.4353 -3.9270 2.6390
11.0745 -1.3205 2.6404
11.0618 1.3627 2.6400
10.3991 3.9597 2.6379
4.8381 3.3462 1.3959
3.9315 4.4428 1.4095
3.6100 6.8815 1.8487
2.8032 11.3657 2.7886
0.0056 11.6914 2.7886
-2.6336 10.7211 2.6362
-5.4107 10.3365 2.7886
-7.7192 8.7374 2.7886
-9.5801 6.6360 2.7886
-10.8876 4.1532 2.7886
-11.5672 1.4304 2.7886
-11.5798 -1.3768 2.7886
-10.9237 -4.1081 2.7886
-9.6350 -6.6068 2.7886
-7.7860 -8.7286 2.7886
-2.9558 -5.5811 1.5037
-2.8531 -11.3749 2.7886
-0.0336 -7.5273 1.7876
2.7580 -11.4276 2.7886
3.9030 -7.5322 2.0104
7.7587 -8.8579 2.7886
9.1267 -6.3817 2.6362
10.3991 -4.0211 2.6389
11.0622 -1.4206 2.6403
11.0741 1.2626 2.6400
10.4353 3.8658 2.6380
4.8664 3.3011 1.3954
3.9704 4.4058 1.4090
3.6092 6.7313 1.8169
2.9061 11.3404 2.7886
0.1114 11.6914 2.7886
-2.5365 10.7450 2.6362
-5.3171 10.3853 2.7886
-7.6400 8.8070 2.7886
-9.5198 6.7226 2.7886
-10.8495 4.2515 2.7886
-11.5536 1.5351 2.7886
-11.5915 -1.2719 2.7886
-10.9601 -4.0089 2.7886
-9.6940 -6.5190 2.7886
-7.8643 -8.6573 2.7886
-3.0093 -5.5598 1.5053
-2.9557 -11.3481 2.7886
-0.1017 -7.5269 1.7878
1.7471 -7.5369 1.8353
3.8168 -7.5317 2.0010
7.6781 -8.9275 2.7886
9.0685 -6.4639 2.6362
10.3619 -4.1148 2.6388
11.0489 -1.5207 2.6403
11.0856 1.1624 2.6401
10.4707 3.7715 2.6381
4.8943 3.2558 1.3948
4.0090 4.3684 1.4086
3.6085 6.5861 1.7864
3.0087 11.3142 2.7886
0.2171 11.6905 2.7886
-2.4393 10.7679 2.6362
-5.2231 10.4334 2.7886
-7.5602 8.8760 2.7886
-9.4586 6.8086 2.7886
-10.8106 4.3496 2.7886
-11.5391 1.6396 2.7886
-11.6023 -1.1669 2.7886
-10.9955 -3.9094 2.7886
-9.7522 -6.4307 2.7886
-7.9420 -8.5854 2.7886
-5.6673 -10.2479 2.7886
-3.0581 -11.3203 2.7886
-0.1697 -7.5266 1.7880
1.6753 -7.5365 1.8315
3.7312 -7.5311 1.9919
7.5968 -8.9964 2.7886
9.0383 -6.5665 2.6446
10.3239 -4.2083 2.6388
11.0348 -1.6206 2.6403
11.0961 1.0621 2.6401
10.5051 3.6769 2.6382
4.9218 3.2102 1.3943
4.0472 4.3308 1.4081
3.6077 6.4458 1.7570
3.1111 11.2871 2.7886
0.3229 11.6886 2.7886
-2.3418 10.7900 2.6362
-5.1286 10.4806 2.7886
-7.4797 8.9443 2.7886
-9.3967 6.8940 2.7886
-10.7707 4.4473 2.7886
-11.5236 1.7439 2.7886
-11.6121 -1.0618 2.7886
-11.0301 -3.8096 2.7886
-9.8096 -6.3419 2.7886
-8.0189 -8.5128 2.7886
-5.7595 -10.1957 2.7886
-3.1602 -11.2916 2.7886
-0.2379 -7.5262 1.7885
1.6037 -7.5361 1.8279
3.6465 -7.5306 1.9830
7.5149 -9.0646 2.7886
9.0271 -6.6840 2.6589
10.2851 -4.3014 2.6387
11.0197 -1.7204 2.6403
11.1057 0.9617 2.6401
10.5387 3.5819 2.6383
4.9488 3.1644 1.3937
4.0851 4.2928 1.4076
3.6071 6.3099 1.7287
3.2132 11.2590 2.7886
0.4287 11.6857 2.7886
-2.2442 10.8111 2.6362
-5.0337 10.5269 2.7886
-7.3985 9.0119 2.7886
-9.3340 6.9788 2.7886
-10.7300 4.5446 2.7886
-11.5072 1.8481 2.7886
-11.6209 -0.9566 2.7886
-11.0637 -3.7096 2.7886
-9.8662 -6.2527 2.7886
-8.0953 -8.4395 2.7886
-5.8512 -10.1427 2.7886
-3.2621 -11.2620 2.7886
-0.4540 -11.1640 2.6539
1.5325 -7.5357 1.8244
3.5625 -7.5301 1.9744
7.4324 -9.1320 2.7886
9.0210 -6.8067 2.6752
10.2454 -4.3941 2.6386
11.0037 -1.8200 2.6402
11.1143 0.8613 2.6402
10.5714 3.4867 2.6384
4.9754 3.1184 1.3931
4.1225 4.2544 1.4072
3.6064 6.1782 1.7014
3.3152 11.2300 2.7886
0.5345 11.6819 2.7886
-2.1463 10.8315 2.6362
-4.9383 10.5723 2.7886
-7.3168 9.0787 2.7886
-9.2705 7.0631 2.7886
-10.6885 4.6415 2.7886
-11.4899 1.9521 2.7886
-11.6289 -0.8514 2.7886
-11.0965 -3.6091 2.7886
-9.9220 -6.1629 2.7886
-8.1710 -8.3655 2.7886
-5.9425 -10.0888 2.7886
-3.3638 -11.2315 2.7886
-0.5832 -11.7250 2.7886
1.4616 -7.5353 1.8211
3.4792 -7.5295 1.9660
7.3493 -9.1987 2.7886
9.0147 -6.9307 2.6918
10.2049 -4.4864 2.6385
10.9868 -1.9194 2.6402
11.1220 0.7607 2.6402
10.6033 3.3912 2.6385
5.0016 3.0721 1.3926
4.1597 4.2157 1.4067
3.6057 6.0507 1.6751
3.4168 11.2001 2.7886
0.6403 11.6771 2.7886
-2.0483 10.8509 2.6362
-4.8426 10.6170 2.7886
-7.2346 9.1447 2.7886
-9.2064 7.1468 2.7886
-10.6460 4.7380 2.7886
-11.4716 2.0561 2.7886
-11.6358 -0.7461 2.7886
-11.1284 -3.5084 2.7886
-9.9769 -6.0726 2.7886
-8.2459 -8.2908 2.7886
-6.0333 -10.0341 2.7886
-3.4651 -11.2000 2.7886
-0.6892 -11.7187 2.7886
1.3908 -7.5349 1.8180
3.3967 -7.5290 1.9578
7.2657 -9.2645 2.7886
9.0083 -7.0564 2.7089
10.1635 -4.5784 2.6384
10.9690 -2.0187 2.6402
11.1289 0.6601 2.6402
10.6343 3.2953 2.6386
5.0273 3.0256 1.3920
4.1964 4.1766 1.4062
3.6051 5.9270 1.6498
3.5183 11.1693 2.7886
0.7460 11.6714 2.7886
-1.9501 10.8694 2.6362
-4.4871 10.0781 2.6362
-7.1517 9.2100 2.7886
-9.1414 7.2299 2.7886
-10.6027 4.8342 2.7886
-11.4524 2.1598 2.7886
-11.6418 -0.6407 2.7886
-11.1593 -3.4074 2.7886
-10.0311 -5.9818 2.7886
-8.3203 -8.2154 2.7886
-6.1235 -9.9786 2.7886
-3.5661 -11.1676 2.7886
-0.7952 -11.7114 2.7886
1.3204 -7.5345 1.8150
3.3147 -7.5285 1.9498
7.1813 -9.3297 2.7886
9.0018 -7.1838 2.7264
10.1212 -4.6700 2.6383
10.9502 -2.1180 2.6401
11.1348 0.5593 2.6403
10.6644 3.1991 2.6387
5.0526 2.9788 1.3914
4.2328 4.1372 1.4057
3.6045 5.8069 1.6253
3.6193 11.1376 2.7886
0.8515 11.6647 2.7886
-1.8517 10.8871 2.6362
-4.3958 10.1185 2.6362
-7.0682 9.2746 2.7886
-9.0757 7.3125 2.7886
-10.5585 4.9300 2.7886
-11.4323 2.2634 2.7886
-11.6469 -0.5353 2.7886
-11.1893 -3.3062 2.7886
-10.0844 -5.8905 2.7886
-8.3939 -8.1394 2.7886
-6.2133 -9.9223 2.7886
-3.6669 -11.1344 2.7886
-0.9011 -11.7032 2.7886
1.2502 -7.5341 1.8122
3.2525 -7.5722 1.9535
7.0964 -9.3941 2.7886
8.9951 -7.3124 2.7443
10.0782 -4.7611 2.6382
10.9306 -2.2168 2.6401
11.1397 0.4587 2.6403
10.6936 3.1029 2.6388
5.0774 2.9319 1.3908
4.2687 4.0976 1.4052
3.6039 5.6905 1.6017
3.7201 11.1049 2.7886
0.9571 11.6571 2.7886
-1.7532 10.9039 2.6362
-4.3042 10.1584 2.6362
-6.9841 9.3385 2.7886
-9.0093 7.3944 2.7886
-10.5135 5.0254 2.7886
-11.4112 2.3668 2.7886
-11.6510 -0.4298 2.7886
-11.2184 -3.2046 2.7886
-10.1369 -5.7988 2.7886
-8.4669 -8.0627 2.7886
-6.3025 -9.8652 2.7886
-3.7673 -11.1002 2.7886
-1.0069 -11.6940 2.7886
1.1801 -7.5337 1.8095
3.2515 -7.7626 1.9950
7.0111 -9.4576 2.7886
8.9884 -7.4430 2.7627
10.0343 -4.8518 2.6381
10.9100 -2.3156 2.6401
11.1437 0.3579 2.6403
10.7219 3.0062 2.6388
5.1018 2.8848 1.3902
4.3043 4.0575 1.4047
3.6033 5.5773 1.5789
3.8207 11.0713 2.7886
1.0626 11.6485 2.7886
-1.6545 10.9197 2.6362
-4.2122 10.1973 2.6362
-6.8994 9.4015 2.7886
-8.9421 7.4758 2.7886
-10.4676 5.1203 2.7886
-11.3892 2.4699 2.7886
-11.6542 -0.3243 2.7886
-11.2467 -3.1028 2.7886
-10.1886 -5.7065 2.7886
-8.5391 -7.9854 2.7886
-6.3912 -9.8072 2.7886
-3.8672 -11.0651 2.7886
-1.1125 -11.6839 2.7886
1.1105 -7.5333 1.8070
3.2505 -7.9616 2.0386
6.9251 -9.5204 2.7886
8.9815 -7.5753 2.7816
9.9896 -4.9422 2.6380
10.8885 -2.4142 2.6400
11.1469 0.2571 2.6403
10.7494 2.9092 2.6389
5.1257 2.8374 1.3896
4.3395 4.0172 1.4042
3.6028 5.4673 1.5568
3.9209 11.0368 2.7886
1.1681 11.6389 2.7886
-1.5556 10.9347 2.6362
-4.1199 10.2354 2.6362
-6.8142 9.4638 2.7886
-8.8742 7.5565 2.7886
-10.4208 5.2149 2.7886
-11.3663 2.5729 2.7886
-11.6564 -0.2188 2.7886
-11.2739 -3.0008 2.7886
-10.2394 -5.6139 2.7886
-8.6105 -7.9076 2.7886
-6.4793 -9.7486 2.7886
-3.9670 -11.0291 2.7886
-1.2181 -11.6728 2.7886
1.0409 -7.5329 1.8047
3.2495 -8.1694 2.0843
6.8385 -9.5824 2.7886
8.9347 -7.6753 2.7886
9.9440 -5.0322 2.6379
10.8661 -2.5126 2.6400
10.0496 0.1408 2.3800
10.7759 2.8120 2.6390
5.1492 2.7898 1.3891
4.3743 3.9765 1.4037
3.6022 5.3602 1.5355
4.0208 11.0014 2.7886
1.2734 11.6284 2.7886
-1.4567 10.9488 2.6362
-4.0272 10.2726 2.6362
-6.7284 9.5254 2.7886
-8.8055 7.6367 2.7886
-10.3732 5.3091 2.7886
-11.3424 2.6757 2.7886
-11.6577 -0.1133 2.7886
-11.3002 -2.8987 2.7886
-10.2893 -5.5209 2.7886
-8.6813 -7.8290 2.7886
-6.5669 -9.6891 2.7886
-4.0665 -10.9922 2.7886
-1.3236 -11.6607 2.7886
0.9714 -7.5326 1.8025
3.1899 -8.2358 2.0939
6.7513 -9.6436 2.7886
8.8648 -7.7557 2.7886
9.8976 -5.1217 2.6377
10.8429 -2.6108 2.6399
10.0233 0.0497 2.3735
10.8016 2.7146 2.6391
5.1722 2.7421 1.3885
4.4087 3.9355 1.4032
3.6017 5.2560 1.5148
4.1204 10.9652 2.7886
1.3787 11.6170 2.7886
-1.3576 10.9620 2.6362
-3.9342 10.3090 2.6362
-6.6421 9.5861 2.7886
-8.7362 7.7162 2.7886
-10.3248 5.4028 2.7886
-11.3177 2.7780 2.7886
-11.6580 -0.0079 2.7886
-11.3257 -2.7962 2.7886
-10.3385 -5.4273 2.7886
-8.7514 -7.7497 2.7886
-6.6540 -9.6288 2.7886
-4.1656 -10.9544 2.7886
-1.4290 -11.6477 2.7886
0.9022 -7.5322 1.8004
3.1272 -8.2960 2.1020
5.1780 -7.5406 2.1669
8.7941 -7.8354 2.7886
9.8504 -5.2108 2.6376
10.8187 -2.7087 2.6399
11.1506 -0.0456 2.6404
10.8264 2.6169 2.6392
5.1948 2.6941 1.3879
4.4427 3.8942 1.4027
3.6012 5.1546 1.4949
4.2197 10.9280 2.7886
1.4839 11.6046 2.7886
-1.2583 10.9743 2.6362
-3.8409 10.3445 2.6362
-6.5552 9.6461 2.7886
-8.6662 7.7950 2.7886
-10.2756 5.4959 2.7886
-11.2920 2.8804 2.7886
-11.6574 0.0976 2.7886
-11.3502 -2.6935 2.7886
-10.3868 -5.3333 2.7886
-8.8208 -7.6698 2.7886
-6.7406 -9.5677 2.7886
-4.2643 -10.9158 2.7886
-1.5343 -11.6338 2.7886
0.8331 -7.5318 1.7986
3.0845 -8.4126 2.1244
5.0778 -7.5400 2.1535
8.7227 -7.9146 2.7886
9.8024 -5.2995 2.6375
10.7936 -2.8065 2.6398
11.1500 -0.1464 2.6404
10.8502 2.5190 2.6392
5.2309 2.6530 1.3910
4.4763 3.8526 1.4022
3.6007 5.0558 1.4755
4.3187 10.8899 2.7886
1.5889 11.5912 2.7886
-1.1592 10.9858 2.6362
-3.7474 10.3792 2.6362
-6.4680 9.7052 2.7886
-8.5954 7.8732 2.7886
-10.2254 5.5887 2.7886
-11.2653 2.9824 2.7886
-11.6558 0.2031 2.7886
-11.3738 -2.5906 2.7886
-10.4343 -5.2389 2.7886
-8.8895 -7.5894 2.7886
-6.8265 -9.5059 2.7886
-4.3627 -10.8762 2.7886
-1.6394 -11.6188 2.7886
0.7641 -7.5314 1.7968
3.2447 -9.1038 2.2915
4.9788 -7.5393 2.1404
8.6506 -7.9930 2.7886
9.7536 -5.3877 2.6374
10.7676 -2.9040 2.6398
11.1485 -0.2473 2.6404
10.8732 2.4208 2.6393
5.3485 2.6521 1.4158
4.5095 3.8107 1.4017
3.6002 4.9595 1.4568
4.4171 10.8509 2.7886
1.6936 11.5770 2.7886
-1.0597 10.9962 2.6362
-3.6534 10.4131 2.6362
-6.3800 9.7637 2.7886
-8.5239 7.9508 2.7886
-10.1745 5.6811 2.7886
-11.2378 3.0843 2.7886
-11.6532 0.3086 2.7886
-11.3964 -2.4875 2.7886
-10.4809 -5.1440 2.7886
-8.9574 -7.5082 2.7886
-6.9120 -9.4432 2.7886
-4.4608 -10.8357 2.7886
-1.7444 -11.6030 2.7886
0.6953 -7.5311 1.7952
3.2434 -9.3672 2.3504
4.8810 -7.5386 2.1276
8.5778 -8.0708 2.7886
9.7039 -5.4754 2.6373
10.7407 -3.0012 2.6397
11.1460 -0.3482 2.6404
10.8953 2.3225 2.6394
5.4705 2.6512 1.4416
4.5423 3.7686 1.4012
3.5997 4.8658 1.4387
4.5153 10.8111 2.7886
1.7984 11.5617 2.7886
-0.9905 11.3537 2.7195
-3.5591 10.4461 2.6362
-6.2916 9.8212 2.7886
-8.4518 8.0278 2.7886
-10.1227 5.7730 2.7886
-11.2093 3.1859 2.7886
-11.6498 0.4141 2.7886
-11.4181 -2.3841 2.7886
-10.5266 -5.0487 2.7886
-9.0246 -7.4265 2.7886
-6.9968 -9.3798 2.7886
-4.5584 -10.7944 2.7886
-1.8493 -11.5861 2.7886
0.6266 -7.5307 1.7938
3.2420 -9.6445 2.4127
4.7843 -7.5380 2.1152
8.5042 -8.1480 2.7886
9.6535 -5.5627 2.6371
10.7130 -3.0982 2.6396
11.1426 -0.4490 2.6404
10.9164 2.2241 2.6395
10.0498 4.7589 2.6368
4.5747 3.7261 1.4006
3.5993 4.7742 1.4211
4.6132 10.7703 2.7886
1.9031 11.5455 2.7886
-0.9103 11.6514 2.7886
-3.4645 10.4783 2.6362
-6.2026 9.8781 2.7886
-2.8622 2.7684 0.9526
-10.0700 5.8644 2.7886
-11.1800 3.2872 2.7886
-11.6453 0.5196 2.7886
-11.4389 -2.2806 2.7886
-10.5715 -4.9530 2.7886
-9.0911 -7.3442 2.7886
-7.0811 -9.3157 2.7886
-4.6557 -10.7521 2.7886
-1.9540 -11.5684 2.7886
0.5580 -7.5303 1.7925
3.2405 -9.9369 2.4785
4.6888 -7.5374 2.1031
8.4300 -8.2244 2.7886
9.6023 -5.6495 2.6370
10.6844 -3.1948 2.6396
11.1383 -0.5497 2.6404
10.9367 2.1254 2.6395
10.0934 4.6682 2.6369
4.6067 3.6833 1.4001
3.6213 4.7141 1.4128
4.7107 10.7286 2.7886
2.0076 11.5284 2.7886
-0.8049 11.6596 2.7886
-3.3697 10.5096 2.6362
-6.1131 9.9341 2.7886
-2.8127 2.7702 0.9444
-10.0166 5.9554 2.7886
-11.1497 3.3883 2.7886
-11.6399 0.6250 2.7886
-11.4588 -2.1769 2.7886
-10.6155 -4.8570 2.7886
-9.1568 -7.2613 2.7886
-7.1648 -9.2507 2.7886
-4.7526 -10.7090 2.7886
-2.0585 -11.5496 2.7886
0.4895 -7.5300 1.7914
3.2389 -10.2457 2.5482
4.5943 -7.5367 2.0913
8.3553 -8.3001 2.7886
9.5503 -5.7357 2.6369
10.6548 -3.2913 2.6395
11.1331 -0.6504 2.6404
10.9560 2.0264 2.6396
10.1360 4.5770 2.6371
4.6383 3.6402 1.3996
3.6629 4.6799 1.4124
4.8079 10.6861 2.7886
2.1120 11.5103 2.7886
-0.6993 11.6670 2.7886
-3.2745 10.5401 2.6362
-6.0231 9.9894 2.7886
-2.7881 2.7962 0.9446
-9.9623 6.0459 2.7886
-11.1185 3.4890 2.7886
-11.6336 0.7303 2.7886
-11.4777 -2.0730 2.7886
-10.6586 -4.7605 2.7886
-9.2217 -7.1778 2.7886
-7.2478 -9.1851 2.7886
-4.8491 -10.6650 2.7886
-2.1628 -11.5300 2.7886
0.4212 -7.5296 1.7904
3.4430 -11.2434 2.7886
4.5011 -7.5361 2.0798
8.2797 -8.3752 2.7886
9.4975 -5.8215 2.6368
10.6244 -3.3874 2.6394
11.1269 -0.7511 2.6404
10.9745 1.9273 2.6397
10.1779 4.4855 2.6372
4.6694 3.5969 1.3990
3.7041 4.6454 1.4120
4.9046 10.6427 2.7886
2.2162 11.4913 2.7886
-0.5937 11.6733 2.7886
-3.1791 10.5697 2.6362
-5.9326 10.0438 2.7886
-2.7886 2.8477 0.9534
-9.9073 6.1358 2.7886
-11.0864 3.5896 2.7886
-11.6263 0.8355 2.7886
-11.4957 -1.9690 2.7886
-10.7009 -4.6636 2.7886
-9.2859 -7.0937 2.7886
-7.3303 -9.1187 2.7886
-4.9450 -10.6203 2.7886
-2.2668 -11.5094 2.7886
0.3529 -7.5293 1.7896
3.3085 -11.1642 2.7615
4.4088 -7.5355 2.0686
8.2034 -8.4496 2.7886
9.4439 -5.9069 2.6366
9.6144 -3.1616 2.3955
11.1198 -0.8518 2.6404
10.9920 1.8280 2.6397
10.2189 4.3936 2.6373
4.7002 3.5533 1.3985
3.7451 4.6105 1.4116
5.0010 10.5984 2.7886
2.3202 11.4713 2.7886
-0.4880 11.6787 2.7886
-3.0834 10.5984 2.6362
-5.8416 10.0973 2.7886
-8.0806 8.4028 2.7886
-9.8514 6.2253 2.7886
-11.0534 3.6897 2.7886
-11.6181 0.9408 2.7886
-11.5127 -1.8648 2.7886
-10.7423 -4.5664 2.7886
-9.3492 -7.0092 2.7886
-7.4121 -9.0516 2.7886
-5.0406 -10.5745 2.7886
-2.3707 -11.4879 2.7886
0.2846 -7.5289 1.7889
3.2088 -11.1989 2.7629
4.3174 -7.5349 2.0577
8.1264 -8.5233 2.7886
9.3895 -5.9917 2.6365
9.6155 -3.2586 2.4030
10.8895 -0.9333 2.5876
11.0086 1.7286 2.6398
10.2591 4.3013 2.6374
4.7305 3.5094 1.3980
3.7857 4.5752 1.4111
5.0970 10.5532 2.7886
2.4241 11.4504 2.7886
-0.3823 11.6832 2.7886
-2.9875 10.6263 2.6362
-5.7501 10.1502 2.7886
-8.0043 8.4758 2.7886
-9.7947 6.3143 2.7886
-11.0195 3.7896 2.7886
-11.6089 1.0459 2.7886
-11.5288 -1.7606 2.7886
-10.7827 -4.4690 2.7886
-9.4119 -6.9240 2.7886
-7.4933 -8.9837 2.7886
-5.1359 -10.5280 2.7886
-2.4745 -11.4654 2.7886
0.2164 -7.5286 1.7883
3.1361 -11.3314 2.7886
4.2269 -7.5343 2.0471
8.0488 -8.5963 2.7886
9.3344 -6.0761 2.6364
10.5278 -3.6743 2.6392
11.1029 -1.0529 2.6404
11.0244 1.6290 2.6398
10.2984 4.2086 2.6376
4.7604 3.4652 1.3974
3.8259 4.5396 1.4107
5.1925 10.5072 2.7886
2.5277 11.4285 2.7886
-0.2766 11.6867 2.7886
-2.8913 10.6533 2.6362
-5.6581 10.2020 2.7886
-7.9274 8.5480 2.7886
-9.7372 6.4028 2.7886
-10.9848 3.8891 2.7886
-11.5988 1.1507 2.7886
-11.5440 -1.6561 2.7886
-10.8223 -4.3711 2.7886
-9.4738 -6.8383 2.7886
-7.5740 -8.9151 2.7886
-5.2307 -10.4805 2.7886
-2.5780 -11.4420 2.7886
0.1482 -7.5282 1.7879
3.0334 -11.3589 2.7886
4.1374 -7.5337 2.0367
7.9706 -8.6686 2.7886
9.2785 -6.1599 2.6362
10.4938 -3.7693 2.6391
11.0930 -1.1533 2.6404
11.0392 1.5292 2.6399
10.3369 4.1156 2.6377
4.7899 3.4208 1.3969
3.8658 4.5036 1.4102
3.6113 7.1440 1.9045
2.6312 11.4057 2.7886
-0.1708 11.6893 2.7886
-2.7948 10.6795 2.6362
-5.5659 10.2531 2.7886
-7.8500 8.6195 2.7886
-9.6791 6.4906 2.7886
-10.9491 3.9883 2.7886
-11.5878 1.2557 2.7886
-11.5582 -1.5515 2.7886
-10.8611 -4.2728 2.7886
-9.5349 -6.7519 2.7886
-7.6540 -8.8458 2.7886
-5.3251 -10.4322 2.7886
-2.6813 -11.4176 2.7886
0.0800 -7.5279 1.7877
2.9303 -11.3854 2.7886
4.0488 -7.5332 2.0266
7.8917 -8.7402 2.7886
9.2221 -6.2434 2.6362
10.4590 -3.8640 2.6391
11.0822 -1.2537 2.6404
11.0530 1.4293 2.6399
10.3745 4.0222 2.6378
4.8190 3.3761 1.3963
3.9053 4.4672 1.4098
3.6105 6.9846 1.8706
2.7344 11.3820 2.7886
-0.0652 11.6909 2.7886
-2.6983 10.7047 2.6362
-5.4730 10.3033 2.7886
-7.7718 8.6904 2.7886
-9.6200 6.5780 2.7886
-10.9125 4.0873 2.7886
-11.5758 1.3605 2.7886
-11.5715 -1.4468 2.7886
-10.8989 -4.1741 2.7886
-9.5952 -6.6651 2.7886
-7.7334 -8.7757 2.7886
-5.4190 -10.3831 2.7886
-2.7844 -11.3923 2.7886
0.0119 -7.5275 1.7876
2.8271 -11.4110 2.7886
3.9611 -7.5326 2.0168
7.8121 -8.8111 2.7886
9.1651 -6.3265 2.6362
10.4233 -3.9583 2.6390
11.0705 -1.3539 2.6404
11.0660 1.3293 2.6400
10.4113 3.9285 2.6379
4.8476 3.3312 1.3958
3.9445 4.4305 1.4093
3.6097 6.8312 1.8380
2.8373 11.3574 2.7886
0.0406 11.6916 2.7886
-2.6014 10.7291 2.6362
-5.3797 10.3528 2.7886
-7.6930 8.7606 2.7886
-9.5601 6.6649 2.7886
-10.8750 4.1859 2.7886
-11.5628 1.4652 2.7886
-11.5838 -1.3419 2.7886
-10.9359 -4.0752 2.7886
-9.6547 -6.5777 2.7886
-7.8121 -8.7050 2.7886
-2.9717 -5.5704 1.5033
-2.8872 -11.3661 2.7886
-0.0562 -7.5272 1.7876
2.7236 -11.4357 2.7886
3.8742 -7.5320 2.0073
7.7319 -8.8812 2.7886
9.1074 -6.4091 2.6362
10.3868 -4.0524 2.6389
11.0579 -1.4540 2.6403
11.0780 1.2292 2.6400
10.4472 3.8344 2.6380
4.8757 3.2861 1.3952
3.9833 4.3934 1.4089
3.6089 6.6826 1.8067
2.9401 11.3318 2.7886
0.1465 11.6912 2.7886
-2.5043 10.7527 2.6362
-5.2859 10.4014 2.7886
-7.6136 8.8300 2.7886
-9.4995 6.7512 2.7886
-10.8367 4.2842 2.7886
-11.5489 1.5698 2.7886
-11.5952 -1.2370 2.7886
-10.9720 -3.9759 2.7886
-9.7135 -6.4897 2.7886
-7.8902 -8.6335 2.7886
-3.0369 -5.5706 1.5108
-2.9898 -11.3389 2.7886
-0.1243 -7.5268 1.7878
1.7231 -7.5368 1.8340
3.7882 -7.5315 1.9980
7.6510 -8.9506 2.7886
9.0489 -6.4912 2.6362
10.3494 -4.1460 2.6388
11.0443 -1.5540 2.6403
11.0891 1.1292 2.6401
10.4822 3.7402 2.6381
4.9035 3.2407 1.3946
4.0217 4.3560 1.4084
3.6082 6.5390 1.7765
3.0427 11.3053 2.7886
0.2523 11.6896 2.7886
-2.4069 10.7753 2.6362
-5.1917 10.4492 2.7886
-7.5335 8.8988 2.7886
-9.4381 6.8370 2.7886
-10.7974 4.3821 2.7886
-11.5341 1.6743 2.7886
-11.6056 -1.1320 2.7886
-11.0071 -3.8763 2.7886
-9.7714 -6.4013 2.7886
-7.9677 -8.5613 2.7886
-5.6980 -10.2306 2.7886
-3.0922 -11.3109 2.7886
-0.1925 -7.5265 1.7882
1.6514 -7.5364 1.8303
3.7029 -7.5309 1.9889
7.5696 -9.0192 2.7886
9.0331 -6.6042 2.6489
10.3112 -4.2392 2.6387
11.0299 -1.6537 2.6403
11.0993 1.0288 2.6401
10.5164 3.6454 2.6382
4.9308 3.1950 1.3941
4.0598 4.3182 1.4080
3.6075 6.4001 1.7475
3.1451 11.2778 2.7886
0.3581 11.6877 2.7886
-2.3092 10.7971 2.6362
-5.0973 10.4960 2.7886
-7.4526 8.9670 2.7886
-9.3760 6.9221 2.7886
-10.7572 4.4798 2.7886
-11.5183 1.7784 2.7886
-11.6151 -1.0266 2.7886
-11.0413 -3.7765 2.7886
-9.8286 -6.3122 2.7886
-8.0443 -8.4886 2.7886
-5.7903 -10.1780 2.7886
-3.1941 -11.2819 2.7886
-0.3829 -11.0527 2.6268
1.5801 -7.5359 1.8267
3.6185 -7.5304 1.9801
7.4876 -9.0870 2.7886
9.0251 -6.7245 2.6643
10.2720 -4.3322 2.6386
11.0145 -1.7534 2.6403
11.1086 0.9284 2.6402
10.5497 3.5504 2.6383
4.9577 3.1491 1.3935
4.0976 4.2800 1.4075
3.6068 6.2656 1.7195
3.2472 11.2495 2.7886
0.4639 11.6845 2.7886
-2.2117 10.8180 2.6362
-5.0020 10.5421 2.7886
-7.3715 9.0341 2.7886
-9.3130 7.0069 2.7886
-10.7163 4.5768 2.7886
-11.5016 1.8828 2.7886
-11.6237 -0.9216 2.7886
-11.0748 -3.6761 2.7886
-9.8849 -6.2228 2.7886
-8.1206 -8.4149 2.7886
-5.8817 -10.1248 2.7886
-3.2960 -11.2519 2.7886
-0.5125 -11.7287 2.7886
1.5088 -7.5355 1.8233
3.5346 -7.5299 1.9715
7.4048 -9.1543 2.7886
9.0189 -6.8479 2.6807
10.2320 -4.4249 2.6385
10.9981 -1.8532 2.6402
11.1170 0.8277 2.6402
10.5822 3.4548 2.6384
4.9842 3.1029 1.3929
4.1350 4.2415 1.4070
3.6062 6.1352 1.6925
3.3488 11.2202 2.7886
0.5695 11.6804 2.7886
-2.1139 10.8380 2.6362
-4.9067 10.5873 2.7886
-7.2897 9.1006 2.7886
-9.2494 7.0909 2.7886
-10.6745 4.6735 2.7886
-11.4840 1.9866 2.7886
-11.6313 -0.8165 2.7886
-11.1072 -3.5758 2.7886
-9.9403 -6.1330 2.7886
-8.1959 -8.3408 2.7886
-5.9726 -10.0708 2.7886
