ply
format ascii 1.0
element vertex 2175
property float32 x
property float32 y
property float32 z
end_header
-4.2768 4.7202 2.1382
-5.3855 3.6503 2.1382
-6.6347 2.4754 2.2906
-7.0987 0.8472 2.2906
-7.1154 -0.8538 2.2906
-6.6805 -2.4966 2.2906
-5.4450 -3.6935 2.1382
-4.3394 -4.7901 2.1382
-3.0124 -5.5544 2.1382
-1.6780 -6.3784 2.2906
-0.1083 -6.4144 2.2906
1.3874 -6.0836 2.2906
2.7318 -5.4299 2.2906
3.8654 -4.5080 2.2906
4.7459 -3.3780 2.2906
5.3453 -2.1016 2.2906
5.6474 -0.7395 2.2906
5.6457 0.6486 2.2906
5.3421 2.0043 2.2906
4.7462 3.2697 2.2906
3.8767 4.3870 2.2906
2.7621 5.2989 2.2906
0.7738 3.1890 1.2277
-0.0116 3.1955 1.1639
-0.7989 3.2018 1.1689
-2.8905 5.4893 2.1382
-4.2151 4.7654 2.1382
-5.3365 3.7108 2.1382
-6.6004 2.5526 2.2906
-7.0859 0.9314 2.2906
-7.1254 -0.7690 2.2906
-6.7126 -2.4179 2.2906
-5.4928 -3.6310 2.1382
-4.4008 -4.7428 2.1382
-3.0824 -5.5247 2.1382
-1.7568 -6.3664 2.2906
-0.1858 -6.4216 2.2906
1.3157 -6.1083 2.2906
2.6692 -5.4694 2.2906
3.8144 -4.5595 2.2906
4.7084 -3.4385 2.2906
5.3223 -2.1680 2.2906
5.6395 -0.8088 2.2906
5.6530 0.5795 2.2906
5.3643 1.9382 2.2906
4.7827 3.2095 2.2906
3.9263 4.3356 2.2906
2.8231 5.2590 2.2906
0.8147 3.1886 1.2329
0.0270 3.1952 1.1655
-0.7580 3.2015 1.1670
-2.8207 5.5162 2.1382
-4.1529 4.8098 2.1382
-5.2867 3.7706 2.1382
-6.5651 2.6294 2.2906
-7.0720 1.0154 2.2906
-7.1343 -0.6841 2.2906
-6.7435 -2.3386 2.2906
-5.5397 -3.5679 2.1382
-4.4616 -4.6946 2.1382
-3.1521 -5.4941 2.1382
-1.8355 -6.3534 2.2906
-0.2634 -6.4279 2.2906
1.2436 -6.1321 2.2906
2.6060 -5.5083 2.2906
3.7629 -4.6105 2.2906
4.6701 -3.4986 2.2906
5.2985 -2.2341 2.2906
5.6308 -0.8779 2.2906
5.6596 0.5103 2.2906
5.3858 1.8719 2.2906
4.8185 3.1489 2.2906
3.9752 4.2836 2.2906
2.8835 5.2185 2.2906
0.8559 3.1882 1.2382
0.0655 3.1949 1.1671
-0.7174 3.2012 1.1653
-2.7507 5.5422 2.1382
-4.0902 4.8534 2.1382
-5.2362 3.8298 2.1382
-3.7550 1.5561 1.3174
-7.0569 1.0992 2.2906
-7.1420 -0.5992 2.2906
-6.7735 -2.2590 2.2906
-5.5858 -3.5041 2.1382
-4.5218 -4.6456 2.1382
-3.2215 -5.4626 2.1382
-1.9142 -6.3395 2.2906
-0.3412 -6.4333 2.2906
1.1711 -6.1551 2.2906
2.5423 -5.5464 2.2906
3.7106 -4.6610 2.2906
4.6312 -3.5583 2.2906
5.2740 -2.3000 2.2906
5.6214 -0.9469 2.2906
5.6654 0.4410 2.2906
5.4066 1.8057 2.2906
4.8536 3.0880 2.2906
4.0236 4.2311 2.2906
2.9435 5.1774 2.2906
0.8973 3.1879 1.2438
0.1041 3.1946 1.1690
-0.6770 3.2008 1.1637
-2.6804 5.5674 2.1382
-4.0270 4.8961 2.1382
-5.1850 3.8882 2.1382
-3.7377 1.6014 1.3188
-7.0408 1.1827 2.2906
-7.1486 -0.5140 2.2906
-6.8023 -2.1789 2.2906
-5.6311 -3.4401 2.1382
-4.5814 -4.5958 2.1382
-3.2906 -5.4302 2.1382
-1.9927 -6.3245 2.2906
-0.4192 -6.4377 2.2906
1.0982 -6.1772 2.2906
2.4781 -5.5839 2.2906
3.6578 -4.7109 2.2906
4.5916 -3.6177 2.2906
5.2488 -2.3657 2.2906
5.6112 -1.0159 2.2906
5.6704 0.3717 2.2906
5.4266 1.7386 2.2906
4.8880 3.0267 2.2906
4.0713 4.1782 2.2906
3.0028 5.1357 2.2906
0.9390 3.1875 1.2496
0.1427 3.1943 1.1710
-0.6368 3.2005 1.1624
-2.6099 5.5916 2.1382
-3.9633 4.9379 2.1382
-5.1331 3.9459 2.1382
-6.4534 2.8565 2.2906
-7.0235 1.2660 2.2906
-7.1541 -0.4289 2.2906
-6.8301 -2.0985 2.2906
-5.6755 -3.3745 2.1382
-4.6405 -4.5451 2.1382
-3.3593 -5.3968 2.1382
-2.0712 -6.3086 2.2906
-0.4972 -6.4412 2.2906
1.0250 -6.1986 2.2906
2.4134 -5.6207 2.2906
3.6044 -4.7603 2.2906
4.5512 -3.6767 2.2906
5.2229 -2.4311 2.2906
5.6002 -1.0848 2.2906
5.6747 0.3024 2.2906
5.4459 1.6716 2.2906
4.9217 2.9651 2.2906
4.1184 4.1247 2.2906
3.0617 5.0933 2.2906
0.9810 3.1872 1.2556
0.1814 3.1939 1.1732
-0.5968 3.2002 1.1612
-2.5392 5.6149 2.1382
-3.8992 4.9789 2.1382
-5.0805 4.0029 2.1382
-6.4142 2.9311 2.2906
-7.0051 1.3491 2.2906
-7.1584 -0.3436 2.2906
-6.8569 -2.0176 2.2906
-5.7191 -3.3088 2.1382
-4.6989 -4.4937 2.1382
-3.4277 -5.3626 2.1382
-2.1495 -6.2917 2.2906
-0.5755 -6.4437 2.2906
0.9515 -6.2191 2.2906
2.3483 -5.6568 2.2906
3.5503 -4.8091 2.2906
4.5102 -3.7352 2.2906
5.1962 -2.4963 2.2906
5.5885 -1.1536 2.2906
5.6782 0.2330 2.2906
5.4645 1.6045 2.2906
4.9547 2.9031 2.2906
4.1648 4.0709 2.2906
3.1200 5.0503 2.2906
1.0233 3.1868 1.2618
0.2200 3.1936 1.1756
-0.5570 3.1999 1.1602
-2.4683 5.6373 2.1382
-3.8346 5.0191 2.1382
-5.0272 4.0591 2.1382
-6.3740 3.0051 2.2906
-6.9857 1.4318 2.2906
-7.1616 -0.2583 2.2906
-6.8825 -1.9364 2.2906
-5.7619 -3.2425 2.1382
-4.7566 -4.4415 2.1382
-3.4956 -5.3274 2.1382
-2.2278 -6.2737 2.2906
-0.6538 -6.4453 2.2906
0.8776 -6.2387 2.2906
2.2826 -5.6922 2.2906
3.4956 -4.8574 2.2906
4.4685 -3.7933 2.2906
5.1687 -2.5612 2.2906
5.5761 -1.2223 2.2906
5.6809 0.1635 2.2906
5.4823 1.5372 2.2906
4.9870 2.8408 2.2906
4.2106 4.0164 2.2906
3.1778 5.0067 2.2906
1.0659 3.1864 1.2682
0.2588 3.1933 1.1782
-0.5173 3.1996 1.1594
-2.3972 5.6589 2.1382
-3.7696 5.0584 2.1382
-4.9732 4.1146 2.1382
-6.3329 3.0786 2.2906
-6.9651 1.5143 2.2906
-7.1636 -0.1730 2.2906
-6.9071 -1.8548 2.2906
-6.2175 -3.4019 2.2906
-4.8138 -4.3885 2.1382
-3.5632 -5.2914 2.1382
-2.3058 -6.2548 2.2906
-0.7323 -6.4460 2.2906
0.8034 -6.2575 2.2906
2.2164 -5.7268 2.2906
3.4403 -4.9051 2.2906
4.4262 -3.8510 2.2906
5.1405 -2.6258 2.2906
5.5628 -1.2908 2.2906
5.6829 0.0940 2.2906
5.4993 1.4697 2.2906
5.0186 2.7782 2.2906
4.2557 3.9616 2.2906
3.2350 4.9624 2.2906
1.9923 5.7241 2.2906
0.2976 3.1930 1.1809
-0.4778 3.1993 1.1587
-2.3259 5.6795 2.1382
-3.7041 5.0968 2.1382
-4.9186 4.1693 2.1382
-6.2909 3.1514 2.2906
-6.9434 1.5964 2.2906
-7.1645 -0.0877 2.2906
-6.9305 -1.7729 2.2906
-6.2614 -3.3296 2.2906
-4.8702 -4.3346 2.1382
-3.6304 -5.2544 2.1382
-2.3803 -6.2259 2.2872
-0.8108 -6.4456 2.2906
0.7289 -6.2754 2.2906
2.1498 -5.7607 2.2906
3.3845 -4.9522 2.2906
4.3831 -3.9083 2.2906
5.1116 -2.6902 2.2906
5.5489 -1.3592 2.2906
5.6842 0.0245 2.2906
5.5157 1.4020 2.2906
5.0495 2.7152 2.2906
4.3003 3.9063 2.2906
3.2916 4.9176 2.2906
2.0590 5.6926 2.2906
0.3365 3.1927 1.1838
-0.4384 3.1990 1.1582
-2.2545 5.6992 2.1382
-3.6383 5.1343 2.1382
-4.8633 4.2234 2.1382
-6.2479 3.2237 2.2906
-6.9207 1.6783 2.2906
-7.1642 -0.0024 2.2906
-6.9529 -1.6907 2.2906
-6.3044 -3.2567 2.2906
-4.9261 -4.2801 2.1382
-3.6972 -5.2166 2.1382
-2.3858 -6.0227 2.2201
-0.8894 -6.4444 2.2906
0.6541 -6.2925 2.2906
2.0827 -5.7939 2.2906
3.3280 -4.9987 2.2906
4.3394 -3.9651 2.2906
5.0820 -2.7543 2.2906
5.5341 -1.4275 2.2906
5.6846 -0.0450 2.2906
5.5312 1.3342 2.2906
5.0797 2.6520 2.2906
4.3441 3.8505 2.2906
3.3477 4.8722 2.2906
2.1253 5.6603 2.2906
0.3756 3.1923 1.1868
-0.3992 3.1987 1.1579
-2.1829 5.7180 2.1382
-3.5721 5.1710 2.1382
-4.8073 4.2766 2.1382
-6.2040 3.2953 2.2906
-6.8968 1.7597 2.2906
-7.1628 0.0829 2.2906
-6.9742 -1.6081 2.2906
-6.3465 -3.1832 2.2906
-4.9812 -4.2247 2.1382
-3.7635 -5.1779 2.1382
-2.3909 -5.8306 2.1568
-0.9681 -6.4422 2.2906
0.5790 -6.3087 2.2906
2.0151 -5.8263 2.2906
3.2709 -5.0446 2.2906
4.2949 -4.0215 2.2906
5.0516 -2.8181 2.2906
5.5186 -1.4957 2.2906
5.6843 -0.1145 2.2906
5.5461 1.2662 2.2906
5.1092 2.5885 2.2906
4.3873 3.7943 2.2906
3.4033 4.8262 2.2906
2.1911 5.6273 2.2906
0.4147 3.1920 1.1901
-0.3601 3.1983 1.1577
-2.1112 5.7359 2.1382
-3.5054 5.2068 2.1382
-4.7508 4.3291 2.1382
-6.1592 3.3663 2.2906
-6.8719 1.8409 2.2906
-7.1603 0.1682 2.2906
-6.9943 -1.5253 2.2906
-6.3875 -3.1091 2.2906
-5.0356 -4.1686 2.1382
-3.8294 -5.1383 2.1382
-2.4424 -5.7587 2.1382
-1.0469 -6.4390 2.2906
0.5037 -6.3240 2.2906
1.9471 -5.8580 2.2906
3.2133 -5.0899 2.2906
4.2499 -4.0775 2.2906
5.0205 -2.8816 2.2906
5.5024 -1.5637 2.2906
5.6833 -0.1841 2.2906
5.5601 1.1981 2.2906
5.1380 2.5246 2.2906
4.4299 3.7377 2.2906
3.4582 4.7796 2.2906
2.2564 5.5936 2.2906
0.4540 3.1917 1.1935
-0.3211 3.1980 1.1577
-2.0613 5.8150 2.1612
-3.4384 5.2417 2.1382
-4.6935 4.3808 2.1382
-6.1135 3.4367 2.2906
-6.8459 1.9217 2.2906
-7.1566 0.2534 2.2906
-7.0134 -1.4421 2.2906
-6.4277 -3.0344 2.2906
-5.0894 -4.1117 2.1382
-3.8949 -5.0978 2.1382
-2.5145 -5.7364 2.1382
-1.1257 -6.4348 2.2906
0.4280 -6.3384 2.2906
1.8787 -5.8889 2.2906
3.1550 -5.1347 2.2906
4.2041 -4.1330 2.2906
4.9887 -2.9448 2.2906
5.4854 -1.6315 2.2906
5.6815 -0.2536 2.2906
5.5735 1.1298 2.2906
5.1660 2.4605 2.2906
4.4718 3.6806 2.2906
3.5126 4.7325 2.2906
2.3213 5.5591 2.2906
0.4933 3.1913 1.1971
-0.2822 3.1977 1.1579
-2.0458 5.9990 2.2234
-3.3711 5.2758 2.1382
-4.6357 4.4317 2.1382
-6.0669 3.5064 2.2906
-6.8189 2.0020 2.2906
-7.1517 0.3386 2.2906
-7.0313 -1.3587 2.2906
-6.4668 -2.9591 2.2906
-5.1424 -4.0541 2.1382
-3.9599 -5.0564 2.1382
-2.5863 -5.7132 2.1382
-1.2046 -6.4297 2.2906
0.3521 -6.3520 2.2906
1.8097 -5.9191 2.2906
3.0963 -5.1787 2.2906
4.1577 -4.1880 2.2906
4.9562 -3.0077 2.2906
5.4676 -1.6992 2.2906
5.6789 -0.3231 2.2906
5.5861 1.0614 2.2906
5.1933 2.3961 2.2906
4.5130 3.6232 2.2906
3.5664 4.6848 2.2906
2.3857 5.5240 2.2906
0.5329 3.1910 1.2009
-0.2434 3.1974 1.1583
-2.0293 6.1931 2.2893
-3.3034 5.3090 2.1382
-4.5773 4.4818 2.1382
-6.0195 3.5755 2.2906
-6.7908 2.0820 2.2906
-7.1457 0.4236 2.2906
-7.0481 -1.2752 2.2906
-6.5049 -2.8834 2.2906
-5.1947 -3.9958 2.1382
-4.0243 -5.0142 2.1382
-2.6580 -5.6890 2.1382
-1.2835 -6.4236 2.2906
0.2759 -6.3647 2.2906
0.9129 -3.1204 1.2016
3.0370 -5.2222 2.2906
4.1106 -4.2425 2.2906
4.9229 -3.0702 2.2906
5.4491 -1.7667 2.2906
5.6755 -0.3926 2.2906
5.5979 0.9929 2.2906
5.2199 2.3315 2.2906
4.5536 3.5652 2.2906
3.6196 4.6365 2.2906
2.4497 5.4882 2.2906
0.5725 3.1907 1.2049
-0.2046 3.1971 1.1588
-1.9532 6.2119 2.2906
-3.2353 5.3412 2.1382
-4.5184 4.5311 2.1382
-5.5738 3.4015 2.1382
-6.7617 2.1615 2.2906
-7.1386 0.5086 2.2906
-7.0639 -1.1913 2.2906
-6.5421 -2.8070 2.2906
-5.2463 -3.9368 2.1382
-4.0884 -4.9711 2.1382
-2.7293 -5.6640 2.1382
-1.3625 -6.4165 2.2906
0.1996 -6.3764 2.2906
1.6707 -5.9771 2.2906
2.9770 -5.2650 2.2906
4.0628 -4.2966 2.2906
4.8890 -3.1324 2.2906
5.4298 -1.8341 2.2906
5.6714 -0.4621 2.2906
5.6090 0.9242 2.2906
5.2458 2.2666 2.2906
4.5934 3.5070 2.2906
3.6722 4.5877 2.2906
2.5132 5.4517 2.2906
0.6124 3.1903 1.2091
-0.1660 3.1968 1.1595
-1.8757 6.2263 2.2906
-3.1669 5.3726 2.1382
-4.4589 4.5795 2.1382
-5.5279 3.4646 2.1382
-6.7315 2.2407 2.2906
-7.1303 0.5935 2.2906
-7.0784 -1.1072 2.2906
-6.5782 -2.7302 2.2906
-5.2971 -3.8770 2.1382
-4.1520 -4.9271 2.1382
-2.8004 -5.6380 2.1382
-1.4413 -6.4085 2.2906
0.1229 -6.3873 2.2906
1.6004 -6.0049 2.2906
2.9166 -5.3072 2.2906
4.0145 -4.3502 2.2906
4.8543 -3.1944 2.2906
5.4098 -1.9013 2.2906
5.6666 -0.5314 2.2906
5.6193 0.8555 2.2906
5.2710 2.2014 2.2906
4.6327 3.4482 2.2906
3.7242 4.5384 2.2906
2.5761 5.4145 2.2906
0.6524 3.1900 1.2134
-0.1273 3.1965 1.1604
-1.7983 6.2397 2.2906
-3.0983 5.4031 2.1382
-4.3987 4.6273 2.1382
-5.4812 3.5272 2.1382
-6.7002 2.3192 2.2906
-7.1209 0.6781 2.2906
-7.0919 -1.0229 2.2906
-6.6134 -2.6528 2.2906
-5.3472 -3.8166 2.1382
-4.2149 -4.8824 2.1382
-2.8713 -5.6110 2.1382
-1.5203 -6.3994 2.2906
0.0461 -6.3972 2.2906
1.5299 -6.0319 2.2906
2.8555 -5.3487 2.2906
3.9654 -4.4033 2.2906
4.8189 -3.2559 2.2906
5.3891 -1.9682 2.2906
5.6609 -0.6009 2.2906
5.6289 0.7866 2.2906
5.2954 2.1360 2.2906
4.6712 3.3892 2.2906
3.7756 4.4884 2.2906
2.6386 5.3766 2.2906
0.6926 3.1896 1.2180
-0.0887 3.1962 1.1614
-0.8814 3.2024 1.1733
-3.0293 5.4328 2.1382
-4.3381 4.6741 2.1382
-5.4338 3.5890 2.1382
-6.6680 2.3975 2.2906
-7.1104 0.7627 2.2906
-7.1042 -0.9385 2.2906
-6.6474 -2.5750 2.2906
-5.3965 -3.7554 2.1382
-4.2774 -4.8367 2.1382
-2.9419 -5.5832 2.1382
-1.5991 -6.3894 2.2906
-0.0310 -6.4063 2.2906
1.4589 -6.0582 2.2906
2.7940 -5.3896 2.2906
3.9158 -4.4558 2.2906
4.7827 -3.3171 2.2906
5.3675 -2.0350 2.2906
5.6546 -0.6702 2.2906
5.6377 0.7177 2.2906
5.3191 2.0703 2.2906
4.7090 3.3296 2.2906
3.8264 4.4380 2.2906
2.7006 5.3381 2.2906
0.7331 3.1893 1.2227
-0.0501 3.1958 1.1626
-0.8400 3.2021 1.1710
-2.9601 5.4614 2.1382
-4.2769 4.7202 2.1382
-5.3855 3.6503 2.1382
-6.6347 2.4752 2.2906
-7.0987 0.8471 2.2906
-7.1153 -0.8539 2.2906
-6.6805 -2.4967 2.2906
-5.4450 -3.6936 2.1382
-4.3393 -4.7902 2.1382
-3.0123 -5.5544 2.1382
-1.6780 -6.3784 2.2906
-0.1082 -6.4144 2.2906
1.3875 -6.0836 2.2906
2.7318 -5.4298 2.2906
3.8654 -4.5079 2.2906
4.7459 -3.3779 2.2906
5.3453 -2.1015 2.2906
5.6474 -0.7395 2.2906
5.6457 0.6487 2.2906
5.3420 2.0045 2.2906
4.7462 3.2698 2.2906
3.8766 4.3871 2.2906
2.7621 5.2989 2.2906
0.7737 3.1890 1.2277
-0.0116 3.1955 1.1639
-0.7989 3.2018 1.1689
-2.8905 5.4893 2.1382
-4.2152 4.7654 2.1382
-5.3365 3.7107 2.1382
-6.6004 2.5525 2.2906
-7.0859 0.9313 2.2906
-7.1254 -0.7692 2.2906
-6.7125 -2.4180 2.2906
-5.4927 -3.6311 2.1382
-4.4007 -4.7428 2.1382
-3.0823 -5.5248 2.1382
-1.7567 -6.3664 2.2906
-0.1857 -6.4216 2.2906
1.3157 -6.1083 2.2906
2.6693 -5.4693 2.2906
3.8145 -4.5594 2.2906
4.7084 -3.4385 2.2906
5.3223 -2.1679 2.2906
5.6395 -0.8086 2.2906
5.6530 0.5796 2.2906
5.3643 1.9383 2.2906
4.7827 3.2096 2.2906
3.9262 4.3357 2.2906
2.8230 5.2591 2.2906
0.8147 3.1886 1.2329
0.0270 3.1952 1.1655
-0.7581 3.2015 1.1670
-2.8208 5.5162 2.1382
-4.1530 4.8098 2.1382
-5.2867 3.7706 2.1382
-6.5652 2.6292 2.2906
-7.0720 1.0153 2.2906
-7.1343 -0.6842 2.2906
-6.7435 -2.3387 2.2906
-5.5396 -3.5680 2.1382
-4.4615 -4.6947 2.1382
-3.1520 -5.4941 2.1382
-1.8355 -6.3535 2.2906
-0.2634 -6.4279 2.2906
1.2437 -6.1320 2.2906
2.6061 -5.5082 2.2906
3.7629 -4.6105 2.2906
4.6701 -3.4986 2.2906
5.2986 -2.2339 2.2906
5.6308 -0.8778 2.2906
5.6596 0.5104 2.2906
5.3858 1.8719 2.2906
4.8185 3.1490 2.2906
3.9752 4.2837 2.2906
2.8835 5.2186 2.2906
0.8559 3.1882 1.2382
0.0655 3.1949 1.1671
-0.7174 3.2012 1.1653
-2.7507 5.5422 2.1382
-4.0902 4.8534 2.1382
-5.2363 3.8297 2.1382
-3.7550 1.5560 1.3174
-7.0569 1.0991 2.2906
-7.1420 -0.5992 2.2906
-6.7734 -2.2591 2.2906
-5.5857 -3.5041 2.1382
-4.5218 -4.6456 2.1382
-3.2215 -5.4626 2.1382
-1.9141 -6.3395 2.2906
-0.3411 -6.4333 2.2906
1.1711 -6.1551 2.2906
2.5424 -5.5464 2.2906
3.7107 -4.6609 2.2906
4.6312 -3.5583 2.2906
5.2741 -2.3000 2.2906
5.6214 -0.9469 2.2906
5.6654 0.4411 2.2906
5.4066 1.8054 2.2906
4.8536 3.0880 2.2906
4.0235 4.2312 2.2906
2.9434 5.1775 2.2906
0.8973 3.1879 1.2438
0.1041 3.1946 1.1690
-0.6770 3.2008 1.1637
-2.6805 5.5673 2.1382
-4.0270 4.8960 2.1382
-5.1851 3.8881 2.1382
-3.7377 1.6014 1.3188
-7.0408 1.1826 2.2906
-7.1486 -0.5141 2.2906
-6.8023 -2.1790 2.2906
-5.6311 -3.4401 2.1382
-4.5813 -4.5958 2.1382
-3.2905 -5.4302 2.1382
-1.9927 -6.3246 2.2906
-0.4191 -6.4377 2.2906
1.0983 -6.1772 2.2906
2.4782 -5.5839 2.2906
3.6578 -4.7109 2.2906
4.5916 -3.6177 2.2906
5.2489 -2.3656 2.2906
5.6112 -1.0158 2.2906
5.6704 0.3718 2.2906
5.4266 1.7386 2.2906
4.8880 3.0268 2.2906
4.0712 4.1783 2.2906
3.0028 5.1357 2.2906
0.9390 3.1875 1.2496
0.1427 3.1943 1.1710
-0.6368 3.2005 1.1624
-2.6100 5.5916 2.1382
-3.9633 4.9379 2.1382
-5.1332 3.9458 2.1382
-6.4534 2.8564 2.2906
-7.0235 1.2660 2.2906
-7.1541 -0.4289 2.2906
-6.8301 -2.0986 2.2906
-5.6755 -3.3746 2.1382
-4.6404 -4.5452 2.1382
-3.3593 -5.3968 2.1382
-2.0711 -6.3086 2.2906
-0.4971 -6.4412 2.2906
1.0251 -6.1985 2.2906
2.4135 -5.6207 2.2906
3.6044 -4.7602 2.2906
4.5513 -3.6766 2.2906
5.2229 -2.4311 2.2906
5.6003 -1.0848 2.2906
5.6747 0.3025 2.2906
5.4459 1.6717 2.2906
4.9217 2.9651 2.2906
4.1183 4.1247 2.2906
3.0616 5.0933 2.2906
0.9809 3.1872 1.2556
0.1813 3.1939 1.1732
-0.5968 3.2002 1.1612
-2.5393 5.6149 2.1382
-3.8992 4.9789 2.1382
-5.0805 4.0028 2.1382
-6.4142 2.9310 2.2906
-7.0052 1.3489 2.2906
-7.1584 -0.3437 2.2906
-6.8568 -2.0177 2.2906
-5.7191 -3.3088 2.1382
-4.6988 -4.4938 2.1382
-3.4276 -5.3626 2.1382
-2.1495 -6.2917 2.2906
-0.5754 -6.4437 2.2906
0.9516 -6.2190 2.2906
2.3484 -5.6567 2.2906
3.5503 -4.8091 2.2906
4.5103 -3.7352 2.2906
5.1962 -2.4962 2.2906
5.5886 -1.1535 2.2906
5.6782 0.2330 2.2906
5.4645 1.6045 2.2906
4.9547 2.9032 2.2906
4.1647 4.0709 2.2906
3.1200 5.0503 2.2906
1.0233 3.1868 1.2618
0.2200 3.1936 1.1756
-0.5570 3.1999 1.1602
-2.4684 5.6373 2.1382
-3.8346 5.0191 2.1382
-5.0273 4.0590 2.1382
-6.3741 3.0050 2.2906
-6.9857 1.4318 2.2906
-7.1616 -0.2584 2.2906
-6.8825 -1.9365 2.2906
-5.7618 -3.2426 2.1382
-4.7566 -4.4415 2.1382
-3.4956 -5.3275 2.1382
-2.2277 -6.2738 2.2906
-0.6537 -6.4453 2.2906
0.8777 -6.2387 2.2906
2.2826 -5.6921 2.2906
3.4957 -4.8573 2.2906
4.4686 -3.7932 2.2906
5.1687 -2.5615 2.2906
5.5761 -1.2222 2.2906
5.6809 0.1636 2.2906
5.4822 1.5373 2.2906
4.9870 2.8408 2.2906
4.2106 4.0165 2.2906
3.1777 5.0067 2.2906
1.0659 3.1864 1.2682
0.2588 3.1933 1.1782
-0.5173 3.1996 1.1594
-2.3973 5.6588 2.1382
-3.7697 5.0583 2.1382
-4.9733 4.1146 2.1382
-6.3329 3.0785 2.2906
-6.9651 1.5142 2.2906
-7.1636 -0.1731 2.2906
-6.9070 -1.8549 2.2906
-6.2174 -3.4019 2.2906
-4.8137 -4.3885 2.1382
-3.5631 -5.2914 2.1382
-2.3058 -6.2548 2.2906
-0.7322 -6.4460 2.2906
0.8035 -6.2575 2.2906
2.2165 -5.7267 2.2906
3.4404 -4.9050 2.2906
4.4262 -3.8510 2.2906
5.1406 -2.6257 2.2906
5.5629 -1.2907 2.2906
5.6829 0.0941 2.2906
5.4993 1.4697 2.2906
5.0186 2.7783 2.2906
4.2557 3.9617 2.2906
3.2349 4.9625 2.2906
1.9923 5.7241 2.2906
0.2976 3.1930 1.1809
-0.4779 3.1993 1.1587
-2.3260 5.6795 2.1382
-3.7042 5.0968 2.1382
-4.9187 4.1693 2.1382
-6.2909 3.1514 2.2906
-6.9434 1.5964 2.2906
-7.1645 -0.0878 2.2906
-6.9305 -1.7730 2.2906
-6.2613 -3.3297 2.2906
-4.8702 -4.3347 2.1382
-3.6304 -5.2545 2.1382
-2.3803 -6.2260 2.2873
-0.8107 -6.4456 2.2906
0.7290 -6.2754 2.2906
2.1498 -5.7607 2.2906
3.3845 -4.9521 2.2906
4.3832 -3.9082 2.2906
5.1117 -2.6901 2.2906
5.5489 -1.3592 2.2906
5.6842 0.0246 2.2906
5.5156 1.4021 2.2906
5.0495 2.7153 2.2906
4.3002 3.9063 2.2906
3.2916 4.9177 2.2906
2.0589 5.6926 2.2906
0.3365 3.1927 1.1838
-0.4385 3.1990 1.1582
-2.2546 5.6992 2.1382
-3.6384 5.1343 2.1382
-4.8633 4.2233 2.1382
-6.2479 3.2237 2.2906
-6.9207 1.6781 2.2906
-7.1642 -0.0025 2.2906
-6.9529 -1.6907 2.2906
-6.3044 -3.2567 2.2906
-4.9260 -4.2802 2.1382
-3.6971 -5.2167 2.1382
-2.3858 -6.0229 2.2201
-0.8894 -6.4444 2.2906
0.6542 -6.2925 2.2906
2.0828 -5.7938 2.2906
3.3280 -4.9987 2.2906
4.3394 -3.9651 2.2906
5.0820 -2.7542 2.2906
5.5341 -1.4274 2.2906
5.6846 -0.0449 2.2906
5.5312 1.3342 2.2906
5.0797 2.6521 2.2906
4.3441 3.8506 2.2906
3.3477 4.8722 2.2906
2.1252 5.6603 2.2906
0.3755 3.1923 1.1868
-0.3993 3.1987 1.1579
-2.1830 5.7180 2.1382
-3.5721 5.1710 2.1382
-4.8074 4.2765 2.1382
-6.2041 3.2952 2.2906
-6.8968 1.7597 2.2906
-7.1628 0.0829 2.2906
-6.9741 -1.6082 2.2906
-6.3464 -3.1833 2.2906
-4.9812 -4.2248 2.1382
-3.7635 -5.1779 2.1382
-2.3909 -5.8309 2.1569
-0.9680 -6.4422 2.2906
0.5791 -6.3087 2.2906
2.0152 -5.8263 2.2906
3.2710 -5.0445 2.2906
4.2950 -4.0215 2.2906
5.0517 -2.8180 2.2906
5.5186 -1.4956 2.2906
5.6843 -0.1144 2.2906
5.5460 1.2663 2.2906
5.1092 2.5885 2.2906
4.3873 3.7944 2.2906
3.4032 4.8263 2.2906
2.1910 5.6273 2.2906
0.4147 3.1920 1.1901
-0.3601 3.1983 1.1577
-2.1113 5.7359 2.1382
-3.5055 5.2068 2.1382
-4.7508 4.3290 2.1382
-6.1592 3.3663 2.2906
-6.8720 1.8408 2.2906
-7.1603 0.1681 2.2906
-6.9943 -1.5253 2.2906
-6.3875 -3.1091 2.2906
-5.0356 -4.1686 2.1382
-3.8293 -5.1383 2.1382
-2.4424 -5.7588 2.1382
-1.0469 -6.4390 2.2906
0.5037 -6.3240 2.2906
1.9472 -5.8579 2.2906
3.2133 -5.0899 2.2906
4.2499 -4.0774 2.2906
5.0205 -2.8816 2.2906
5.5024 -1.5636 2.2906
5.6833 -0.1840 2.2906
5.5601 1.1981 2.2906
5.1380 2.5247 2.2906
4.4298 3.7378 2.2906
3.4582 4.7797 2.2906
2.2564 5.5936 2.2906
0.4509 3.1913 1.2764
-0.3241 3.1976 1.2401
-2.0418 5.7432 2.2906
-3.2047 4.8769 2.1382
-4.3661 4.0696 2.1382
-5.3009 2.9764 2.1382
-6.3527 1.7811 2.2906
-6.6376 0.2344 2.2906
-6.5050 -1.3367 2.2906
-5.5683 -2.6263 2.1382
-4.7283 -3.8158 2.1382
-3.6244 -4.7368 2.1382
-2.3773 -5.4111 2.1673
-1.0551 -5.9980 2.2906
0.2068 -3.1073 1.2027
0.9184 -2.8882 1.2013
2.9490 -4.8086 2.2906
3.9362 -3.8753 2.2906
4.6763 -2.7640 2.2906
5.1458 -1.5325 2.2906
5.3317 -0.2387 2.2906
5.2303 1.0608 2.2906
4.8460 2.3101 2.2906
4.1913 3.4535 2.2906
3.2881 4.4365 2.2906
2.1685 5.2053 2.2906
0.4903 3.1910 1.2802
-0.2852 3.1973 1.2402
-1.9701 5.7600 2.2906
-3.1423 4.9089 2.1382
-4.3127 4.1172 2.1382
-5.2608 3.0369 2.1382
-6.3279 1.8556 2.2906
-6.6332 0.3133 2.2906
-6.5216 -1.2595 2.2906
-5.6019 -2.5614 2.1382
-4.7773 -3.7622 2.1382
-3.6846 -4.6981 2.1382
-2.4120 -5.3162 2.1382
-1.1285 -5.9927 2.2906
0.1696 -3.1139 1.2028
0.8846 -2.9029 1.2014
2.8938 -4.8496 2.2906
3.8925 -3.9267 2.2906
4.6456 -2.8228 2.2906
5.1290 -1.5961 2.2906
5.3292 -0.3040 2.2906
5.2422 0.9966 2.2906
4.8718 2.2497 2.2906
4.2302 3.3998 2.2906
3.3387 4.3920 2.2906
2.2289 5.1727 2.2906
0.5298 3.1906 1.2841
-0.2464 3.1970 1.2405
-1.8983 5.7757 2.2906
-3.0796 4.9402 2.1382
-4.2588 4.1640 2.1382
-5.2200 3.0969 2.1382
-6.3020 1.9299 2.2906
-6.6277 0.3922 2.2906
-6.5371 -1.1820 2.2906
-5.6348 -2.4955 2.1382
-4.8256 -3.7079 2.1382
-3.7442 -4.6585 2.1382
-2.4784 -5.2933 2.1382
-1.2019 -5.9865 2.2906
0.1323 -3.1200 1.2028
0.8506 -2.9173 1.2014
2.8380 -4.8899 2.2906
3.8481 -3.9776 2.2906
4.6142 -2.8814 2.2906
5.1115 -1.6594 2.2906
5.3261 -0.3692 2.2906
5.2533 0.9322 2.2906
4.8968 2.1890 2.2906
4.2684 3.3456 2.2906
3.3887 4.3470 2.2906
2.2890 5.1395 2.2906
0.5695 3.1903 1.2883
-0.2076 3.1967 1.2409
-1.8264 5.7905 2.2906
-3.0165 4.9706 2.1382
-4.2043 4.2101 2.1382
-5.1784 3.1563 2.1382
-6.2752 2.0037 2.2906
-6.6212 0.4709 2.2906
-6.5516 -1.1042 2.2906
-5.6667 -2.4293 2.1382
-4.8732 -3.6529 2.1382
-3.8035 -4.6181 2.1382
-2.5446 -5.2696 2.1382
-1.2753 -5.9794 2.2906
0.1806 -5.9520 2.2906
0.8163 -2.9313 1.2015
2.7817 -4.9297 2.2906
3.8032 -4.0281 2.2906
4.5821 -2.9397 2.2906
5.0932 -1.7226 2.2906
5.3221 -0.4345 2.2906
5.2638 0.8680 2.2906
4.9213 2.1281 2.2906
4.3060 3.2910 2.2906
3.4383 4.3015 2.2906
2.3486 5.1057 2.2906
0.6093 3.1899 1.2927
-0.1689 3.1964 1.2416
-1.7544 5.8043 2.2906
-2.9531 5.0002 2.1382
-4.1492 4.2555 2.1382
-5.1361 3.2151 2.1382
-6.2475 2.0771 2.2906
-6.6137 0.5495 2.2906
-6.5650 -1.0263 2.2906
-5.6978 -2.3628 2.1382
-4.9201 -3.5973 2.1382
-3.8622 -4.5770 2.1382
-2.6106 -5.2450 2.1382
-1.3488 -5.9714 2.2906
0.1090 -5.9616 2.2906
0.7819 -2.9449 1.2016
2.7249 -4.9689 2.2906
3.7576 -4.0781 2.2906
4.5494 -2.9977 2.2906
5.0743 -1.7856 2.2906
5.3175 -0.4997 2.2906
5.2735 0.8031 2.2906
4.9450 2.0669 2.2906
4.3430 3.2360 2.2906
3.4872 4.2554 2.2906
2.4077 5.0712 2.2906
0.6494 3.1896 1.2972
-0.1303 3.1961 1.2424
-1.6823 5.8173 2.2906
-2.8894 5.0290 2.1382
-4.0937 4.3001 2.1382
-5.0931 3.2734 2.1382
-6.2188 2.1501 2.2906
-6.6051 0.6280 2.2906
-6.5774 -0.9483 2.2906
-5.7280 -2.2958 2.1382
-4.9662 -3.5410 2.1382
-3.9205 -4.5351 2.1382
-2.6763 -5.2195 2.1382
-1.4222 -5.9625 2.2906
0.0373 -5.9704 2.2906
0.7473 -2.9581 1.2017
2.6676 -5.0074 2.2906
3.7114 -4.1276 2.2906
4.5160 -3.0553 2.2906
5.0547 -1.8485 2.2906
5.3122 -0.5649 2.2906
5.2825 0.7385 2.2906
4.9680 2.0055 2.2906
4.3793 3.1806 2.2906
3.5356 4.2088 2.2906
2.4664 5.0360 2.2906
0.6896 3.1893 1.3020
-0.0917 3.1958 1.2434
-0.8844 3.2020 1.2582
-2.8254 5.0570 2.1382
-4.0376 4.3440 2.1382
-5.0493 3.3310 2.1382
-6.1891 2.2228 2.2906
-6.5954 0.7064 2.2906
-6.5888 -0.8700 2.2906
-6.1677 -2.3872 2.2906
-5.0117 -3.4841 2.1382
-3.9782 -4.4923 2.1382
-2.7418 -5.1932 2.1382
-1.4955 -5.9527 2.2906
-0.0346 -5.9784 2.2906
0.7124 -2.9709 1.2017
2.6098 -5.0453 2.2906
3.6646 -4.1766 2.2906
4.4819 -3.1126 2.2906
5.0343 -1.9111 2.2906
5.3061 -0.6300 2.2906
5.2908 0.6737 2.2906
4.9904 1.9439 2.2906
4.4150 3.1249 2.2906
3.5834 4.1617 2.2906
2.5246 5.0002 2.2906
0.7300 3.1889 1.3070
-0.0531 3.1955 1.2446
-0.8430 3.2017 1.2556
-2.7612 5.0842 2.1382
-3.9810 4.3872 2.1382
-5.0048 3.3880 2.1382
-6.1585 2.2949 2.2906
-6.5847 0.7846 2.2906
-6.5991 -0.7916 2.2906
-6.1982 -2.3146 2.2906
-5.0565 -3.4266 2.1382
-4.0355 -4.4489 2.1382
-2.8070 -5.1660 2.1382
-1.5689 -5.9419 2.2906
-0.1067 -5.9855 2.2906
0.6774 -2.9833 1.2018
2.5515 -5.0826 2.2906
3.6173 -4.2252 2.2906
4.4471 -3.1696 2.2906
5.0133 -1.9735 2.2906
5.2993 -0.6950 2.2906
5.2984 0.6089 2.2906
5.0121 1.8820 2.2906
4.4500 3.0688 2.2906
3.6307 4.1142 2.2906
2.5824 4.9638 2.2906
0.7707 3.1886 1.3122
-0.0146 3.1951 1.2459
-0.8019 3.2014 1.2533
-2.6966 5.1105 2.1382
-3.9239 4.4295 2.1382
-4.9596 3.4444 2.1382
-6.1270 2.3667 2.2906
-6.5730 0.8626 2.2906
-6.6084 -0.7131 2.2906
-6.2277 -2.2415 2.2906
-5.1005 -3.3684 2.1382
-4.0922 -4.4046 2.1382
-2.8719 -5.1380 2.1382
-1.6421 -5.9303 2.2906
-0.1790 -5.9917 2.2906
0.6422 -2.9953 1.2019
2.4927 -5.1193 2.2906
3.5693 -4.2732 2.2906
4.4117 -3.2261 2.2906
4.9915 -2.0358 2.2906
5.2918 -0.7600 2.2906
5.3052 0.5440 2.2906
5.0330 1.8200 2.2906
4.4844 3.0124 2.2906
3.6774 4.0661 2.2906
2.6397 4.9268 2.2906
0.8116 3.1882 1.3176
0.0240 3.1948 1.2475
-0.7611 3.2011 1.2512
-2.6319 5.1360 2.1382
-3.8664 4.4711 2.1382
-4.9137 3.5002 2.1382
-6.0946 2.4380 2.2906
-6.5602 0.9405 2.2906
-6.6166 -0.6344 2.2906
-6.2563 -2.1680 2.2906
-5.1438 -3.3097 2.1382
-4.1484 -4.3596 2.1382
-2.9365 -5.1092 2.1382
-1.7153 -5.9177 2.2906
-0.2514 -5.9971 2.2906
0.6068 -3.0069 1.2019
2.4334 -5.1553 2.2906
3.5207 -4.3208 2.2906
4.3757 -3.2824 2.2906
4.9691 -2.0978 2.2906
5.2836 -0.8250 2.2906
5.3114 0.4790 2.2906
5.0533 1.7577 2.2906
4.5182 2.9556 2.2906
3.7235 4.0176 2.2906
2.6965 4.8892 2.2906
0.8527 3.1878 1.3232
0.0625 3.1945 1.2492
-0.7204 3.2008 1.2492
-2.5669 5.1606 2.1382
-3.8083 4.5119 2.1382
-4.8672 3.5553 2.1382
-3.7555 1.5544 1.4192
-6.5464 1.0182 2.2906
-6.6238 -0.5557 2.2906
-6.2838 -2.0941 2.2906
-5.1863 -3.2503 2.1382
-4.2041 -4.3138 2.1382
-3.0008 -5.0795 2.1382
-1.7884 -5.9042 2.2906
-0.3239 -6.0016 2.2906
0.5713 -3.0181 1.2020
2.3736 -5.1906 2.2906
3.4716 -4.3678 2.2906
4.3389 -3.3382 2.2906
4.9459 -2.1596 2.2906
5.2746 -0.8898 2.2906
5.3168 0.4139 2.2906
5.0729 1.6952 2.2906
4.5513 2.8985 2.2906
3.7690 3.9685 2.2906
2.7528 4.8509 2.2906
0.8941 3.1875 1.3291
0.1011 3.1942 1.2511
-0.6801 3.2004 1.2475
-2.5016 5.1844 2.1382
-3.7498 4.5520 2.1382
-4.8199 3.6097 2.1382
-3.7365 1.5989 1.4201
-6.5316 1.0957 2.2906
-6.6299 -0.4768 2.2906
-6.3104 -2.0199 2.2906
-5.2281 -3.1904 2.1382
-4.2592 -4.2673 2.1382
-3.0649 -5.0490 2.1382
-1.8614 -5.8898 2.2906
-0.3966 -6.0052 2.2906
0.5355 -3.0289 1.2021
2.3134 -5.2253 2.2906
3.4219 -4.4143 2.2906
4.3015 -3.3938 2.2906
4.9221 -2.2212 2.2906
5.2650 -0.9546 2.2906
5.3216 0.3488 2.2906
5.0918 1.6325 2.2906
4.5837 2.8411 2.2906
3.8140 3.9190 2.2906
2.8086 4.8121 2.2906
0.9358 3.1871 1.3352
0.1397 3.1939 1.2531
-0.6398 3.2001 1.2459
-2.4362 5.2074 2.1382
-3.6909 4.5913 2.1382
-4.7720 3.6636 2.1382
-5.5931 2.4727 2.1382
-6.5158 1.1729 2.2906
-6.6350 -0.3979 2.2906
-6.3361 -1.9453 2.2906
-5.2691 -3.1299 2.1382
-4.3137 -4.2200 2.1382
-3.1285 -5.0176 2.1382
-1.9343 -5.8745 2.2906
-0.4694 -6.0079 2.2906
0.4996 -3.0393 1.2021
2.2527 -5.2594 2.2906
3.3716 -4.4603 2.2906
4.2635 -3.4489 2.2906
4.8976 -2.2825 2.2906
5.2546 -1.0193 2.2906
5.3256 0.2836 2.2906
5.1100 1.5697 2.2906
4.6155 2.7833 2.2906
3.8583 3.8691 2.2906
2.8639 4.7727 2.2906
0.9778 3.1868 1.3415
0.1783 3.1936 1.2554
-0.5998 3.1998 1.2445
-2.3705 5.2296 2.1382
-3.6315 4.6297 2.1382
-4.7235 3.7167 2.1382
-5.5594 2.5374 2.1382
-6.4989 1.2499 2.2906
-6.6390 -0.3189 2.2906
-6.3607 -1.8703 2.2906
-5.3093 -3.0688 2.1382
-4.3676 -4.1720 2.1382
-3.1918 -4.9854 2.1382
-2.0071 -5.8583 2.2906
-0.5424 -6.0098 2.2906
0.4636 -3.0493 1.2022
2.1915 -5.2927 2.2906
3.3207 -4.5058 2.2906
4.2248 -3.5036 2.2906
4.8723 -2.3436 2.2906
5.2435 -1.0838 2.2906
5.3289 0.2184 2.2906
5.1275 1.5067 2.2906
4.6467 2.7252 2.2906
3.9020 3.8187 2.2906
2.9188 4.7326 2.2906
1.0201 3.1864 1.3480
0.2170 3.1932 1.2578
-0.5600 3.1995 1.2433
-2.3047 5.2509 2.1382
-3.5718 4.6674 2.1382
-4.6743 3.7692 2.1382
-5.5249 2.6017 2.1382
-6.4810 1.3266 2.2906
-6.6420 -0.2399 2.2906
-6.3843 -1.7950 2.2906
-5.3487 -3.0072 2.1382
-4.4210 -4.1233 2.1382
-3.2548 -4.9523 2.1382
-2.0798 -5.8411 2.2906
-0.6154 -6.0108 2.2906
0.4273 -3.0589 1.2023
2.1299 -5.3254 2.2906
3.2693 -4.5507 2.2906
4.1855 -3.5579 2.2906
4.8464 -2.4044 2.2906
5.2317 -1.1483 2.2906
5.3314 0.1532 2.2906
5.1443 1.4434 2.2906
4.6771 2.6668 2.2906
3.9452 3.7678 2.2906
2.9731 4.6921 2.2906
1.0627 3.1860 1.3548
0.2558 3.1929 1.2605
-0.5203 3.1992 1.2423
-2.2386 5.2714 2.1382
-3.5116 4.7043 2.1382
-4.6245 3.8210 2.1382
-5.4896 2.6654 2.1382
-6.4622 1.4031 2.2906
-6.6439 -0.1608 2.2906
-6.4070 -1.7194 2.2906
-5.3873 -2.9450 2.1382
-4.4738 -4.0738 2.1382
-3.3174 -4.9185 2.1382
-2.1523 -5.8230 2.2906
-0.6885 -6.0109 2.2906
0.3910 -3.0680 1.2023
2.0679 -5.3574 2.2906
3.2173 -4.5951 2.2906
4.1456 -3.6119 2.2906
4.8198 -2.4650 2.2906
5.2192 -1.2126 2.2906
5.3333 0.0879 2.2906
5.1604 1.3801 2.2906
4.7069 2.6081 2.2906
3.9877 3.7165 2.2906
3.0269 4.6509 2.2906
1.8597 5.3580 2.2906
0.2946 3.1926 1.2633
-0.4808 3.1989 1.2415
-2.1724 5.2910 2.1382
-3.4510 4.7404 2.1382
-4.5740 3.8721 2.1382
-5.4534 2.7283 2.1382
-6.4423 1.4793 2.2906
-6.6447 -0.0818 2.2906
-6.4286 -1.6434 2.2906
-5.4252 -2.8823 2.1382
-4.5259 -4.0236 2.1382
-3.3796 -4.8838 2.1382
-2.2247 -5.8040 2.2906
-0.7617 -6.0101 2.2906
0.3544 -3.0767 1.2024
2.0054 -5.3887 2.2906
3.1648 -4.6389 2.2906
4.1050 -3.6654 2.2906
4.7925 -2.5253 2.2906
5.2059 -1.2769 2.2906
5.3344 0.0226 2.2906
5.1758 1.3165 2.2906
4.7361 2.5491 2.2906
4.0297 3.6648 2.2906
3.0802 4.6091 2.2906
1.9222 5.3288 2.2906
0.3335 3.1923 1.2663
-0.4415 3.1986 1.2409
-2.1060 5.3098 2.1382
-3.3900 4.7757 2.1382
-4.5230 3.9225 2.1382
-5.4165 2.7913 2.1382
-6.4214 1.5552 2.2906
-6.6445 -0.0027 2.2906
-6.4492 -1.5672 2.2906
-5.4622 -2.8191 2.1382
-4.5775 -3.9727 2.1382
-3.4414 -4.8483 2.1382
-2.2969 -5.7841 2.2906
-0.8349 -6.0084 2.2906
0.3177 -3.0850 1.2025
1.9425 -5.4194 2.2906
3.1117 -4.6822 2.2906
4.0637 -3.7185 2.2906
4.7645 -2.5854 2.2906
5.1920 -1.3410 2.2906
5.3348 -0.0427 2.2906
5.1905 1.2528 2.2906
4.7646 2.4897 2.2906
4.0710 3.6126 2.2906
3.1329 4.5668 2.2906
1.9844 5.2990 2.2906
0.3725 3.1919 1.2694
-0.4022 3.1983 1.2405
-2.0711 5.4103 2.1713
-3.3286 4.8102 2.1382
-4.4713 3.9722 2.1382
-5.3788 2.8535 2.1382
-6.3995 1.6308 2.2906
-6.6433 0.0763 2.2906
-6.4688 -1.4907 2.2906
-5.4984 -2.7554 2.1382
-4.6284 -3.9212 2.1382
-3.5028 -4.8120 2.1382
-2.3669 -5.7584 2.2886
-0.9082 -6.0058 2.2906
0.2809 -3.0929 1.2026
1.8791 -5.4493 2.2906
3.0580 -4.7249 2.2906
4.0219 -3.7712 2.2906
4.7358 -2.6452 2.2906
5.1773 -1.4050 2.2906
5.3345 -0.1080 2.2906
5.2045 1.1890 2.2906
4.7924 2.4302 2.2906
4.1117 3.5601 2.2906
3.1851 4.5240 2.2906
2.0461 5.2684 2.2906
0.4116 3.1916 1.2728
-0.3631 3.1980 1.2402
-2.0568 5.5725 2.2292
-3.2669 4.8439 2.1382
-4.4190 4.0212 2.1382
-5.3402 2.9152 2.1382
-6.3766 1.7060 2.2906
-6.6410 0.1554 2.2906
-6.4874 -1.4139 2.2906
-5.5337 -2.6911 2.1382
-4.6787 -3.8689 2.1382
-3.5638 -4.7748 2.1382
-2.3722 -5.5803 2.2263
-0.9816 -6.0024 2.2906
0.2440 -3.1003 1.2026
1.8154 -5.4785 2.2906
3.0038 -4.7670 2.2906
3.9794 -3.8235 2.2906
4.7064 -2.7047 2.2906
5.1619 -1.4688 2.2906
5.3335 -0.1733 2.2906
5.2177 1.1250 2.2906
4.8195 2.3703 2.2906
4.1518 3.5070 2.2906
3.2369 4.4805 2.2906
2.1075 5.2372 2.2906
0.4509 3.1913 1.2764
-0.3241 3.1976 1.2401
-2.0418 5.7432 2.2905
-3.2048 4.8768 2.1382
-4.3662 4.0696 2.1382
-5.3009 2.9763 2.1382
-6.3527 1.7810 2.2906
-6.6376 0.2343 2.2906
-6.5050 -1.3368 2.2906
-5.5682 -2.6264 2.1382
-4.7283 -3.8159 2.1382
-3.6244 -4.7369 2.1382
-2.3773 -5.4112 2.1674
-1.0550 -5.9980 2.2906
0.2069 -3.1073 1.2027
0.9184 -2.8882 1.2013
2.9491 -4.8086 2.2906
3.9363 -3.8753 2.2906
4.6764 -2.7639 2.2906
5.1458 -1.5325 2.2906
5.3317 -0.2386 2.2906
5.2303 1.0609 2.2906
4.8460 2.3101 2.2906
4.1913 3.4537 2.2906
3.2880 4.4366 2.2906
2.1684 5.2053 2.2906
0.4903 3.1909 1.2802
-0.2852 3.1973 1.2402
-1.9702 5.7600 2.2906
-3.1424 4.9089 2.1382
-4.3128 4.1172 2.1382
-5.2609 3.0369 2.1382
-6.3279 1.8556 2.2906
-6.6332 0.3132 2.2906
-6.5216 -1.2595 2.2906
-5.6019 -2.5614 2.1382
-4.7773 -3.7622 2.1382
-3.6845 -4.6981 2.1382
-2.4119 -5.3162 2.1382
-1.1284 -5.9927 2.2906
0.1696 -3.1139 1.2028
0.8846 -2.9029 1.2014
2.8938 -4.8496 2.2906
3.8925 -3.9266 2.2906
4.6456 -2.8228 2.2906
5.1290 -1.5960 2.2906
5.3292 -0.3039 2.2906
5.2422 0.9967 2.2906
4.8717 2.2497 2.2906
4.2301 3.3998 2.2906
3.3386 4.3921 2.2906
2.2289 5.1728 2.2906
0.5298 3.1906 1.2841
-0.2464 3.1970 1.2405
-1.8984 5.7757 2.2906
-3.0796 4.9402 2.1382
-4.2588 4.1640 2.1382
-5.2201 3.0968 2.1382
-6.3021 1.9298 2.2906
-6.6277 0.3921 2.2906
-6.5371 -1.1821 2.2906
-5.6347 -2.4955 2.1382
-4.8255 -3.7079 2.1382
-3.7441 -4.6586 2.1382
-2.4784 -5.2933 2.1382
-1.2018 -5.9865 2.2906
0.1323 -3.1200 1.2028
0.8506 -2.9173 1.2014
2.8381 -4.8899 2.2906
3.8482 -3.9776 2.2906
4.6142 -2.8814 2.2906
5.1115 -1.6593 2.2906
5.3261 -0.3691 2.2906
5.2533 0.9323 2.2906
4.8968 2.1890 2.2906
4.2684 3.3456 2.2906
3.3887 4.3471 2.2906
2.2889 5.1396 2.2906
0.5694 3.1903 1.2883
-0.2076 3.1967 1.2409
-1.8265 5.7904 2.2906
-3.0165 4.9706 2.1382
-4.2043 4.2101 2.1382
-5.1785 3.1563 2.1382
-6.2753 2.0036 2.2906
-6.6212 0.4708 2.2906
-6.5516 -1.1043 2.2906
-5.6667 -2.4294 2.1382
-4.8731 -3.6530 2.1382
-3.8034 -4.6182 2.1382
-2.5446 -5.2696 2.1382
-1.2753 -5.9794 2.2906
0.1807 -5.9520 2.2906
0.8164 -2.9313 1.2015
2.7818 -4.9297 2.2906
3.8032 -4.0281 2.2906
4.5822 -2.9396 2.2906
5.0933 -1.7225 2.2906
5.3221 -0.4344 2.2906
5.2637 0.8677 2.2906
4.9212 2.1282 2.2906
4.3060 3.2910 2.2906
3.4382 4.3015 2.2906
2.3485 5.1057 2.2906
0.6093 3.1899 1.2926
-0.1690 3.1964 1.2416
-1.7544 5.8043 2.2906
-2.9531 5.0002 2.1382
-4.1493 4.2554 2.1382
-5.1362 3.2151 2.1382
-6.2475 2.0771 2.2906
-6.6137 0.5495 2.2906
-6.5650 -1.0265 2.2906
-5.6978 -2.3629 2.1382
-4.9200 -3.5973 2.1382
-3.8622 -4.5770 2.1382
-2.6105 -5.2450 2.1382
-1.3487 -5.9714 2.2906
0.1091 -5.9616 2.2906
0.7819 -2.9449 1.2016
2.7250 -4.9688 2.2906
3.7577 -4.0780 2.2906
4.5494 -2.9976 2.2906
5.0743 -1.7856 2.2906
5.3175 -0.4996 2.2906
5.2735 0.8031 2.2906
4.9450 2.0670 2.2906
4.3430 3.2360 2.2906
3.4871 4.2555 2.2906
2.4076 5.0712 2.2906
0.6493 3.1896 1.2972
-0.1303 3.1961 1.2424
-1.6824 5.8173 2.2906
-2.8895 5.0290 2.1382
-4.0937 4.3001 2.1382
-5.0931 3.2733 2.1382
-6.2188 2.1500 2.2906
-6.6051 0.6279 2.2906
-6.5774 -0.9483 2.2906
-5.7280 -2.2958 2.1382
-4.9662 -3.5411 2.1382
-3.9204 -4.5351 2.1382
-2.6763 -5.2195 2.1382
-1.4221 -5.9625 2.2906
0.0374 -5.9704 2.2906
0.7473 -2.9581 1.2017
2.6676 -5.0074 2.2906
3.7114 -4.1276 2.2906
4.5160 -3.0552 2.2906
5.0547 -1.8484 2.2906
5.3122 -0.5648 2.2906
5.2825 0.7385 2.2906
4.9680 2.0056 2.2906
4.3793 3.1807 2.2906
3.5356 4.2089 2.2906
2.4664 5.0360 2.2906
0.6895 3.1893 1.3020
-0.0918 3.1958 1.2434
-0.8845 3.2020 1.2582
-2.8255 5.0570 2.1382
-4.0377 4.3440 2.1382
-5.0494 3.3309 2.1382
-6.1892 2.2227 2.2906
-6.5954 0.7063 2.2906
-6.5888 -0.8701 2.2906
-6.1677 -2.3873 2.2906
-5.0117 -3.4841 2.1382
-3.9782 -4.4924 2.1382
-2.7417 -5.1933 2.1382
-1.4954 -5.9527 2.2906
-0.0346 -5.9784 2.2906
0.7125 -2.9709 1.2017
2.6099 -5.0453 2.2906
3.6647 -4.1766 2.2906
4.4819 -3.1125 2.2906
5.0343 -1.9111 2.2906
5.3061 -0.6299 2.2906
5.2908 0.6738 2.2906
4.9904 1.9439 2.2906
4.4150 3.1250 2.2906
3.5834 4.1618 2.2906
2.5246 5.0003 2.2906
0.7300 3.1889 1.3070
-0.0532 3.1955 1.2446
-0.8431 3.2017 1.2556
-2.7613 5.0841 2.1382
-3.9810 4.3871 2.1382
-5.0048 3.3880 2.1382
-6.1586 2.2948 2.2906
-6.5847 0.7843 2.2906
-6.5991 -0.7917 2.2906
-6.1982 -2.3146 2.2906
-5.0564 -3.4267 2.1382
-4.0354 -4.4489 2.1382
-2.8069 -5.1661 2.1382
-1.5688 -5.9420 2.2906
-0.1066 -5.9855 2.2906
0.6775 -2.9833 1.2018
2.5515 -5.0826 2.2906
3.6173 -4.2251 2.2906
4.4472 -3.1694 2.2906
5.0133 -1.9735 2.2906
5.2993 -0.6950 2.2906
5.2984 0.6089 2.2906
5.0120 1.8822 2.2906
4.4500 3.0689 2.2906
3.6307 4.1142 2.2906
2.5824 4.9639 2.2906
0.7706 3.1886 1.3122
-0.0146 3.1951 1.2459
-0.8020 3.2014 1.2533
-2.6967 5.1105 2.1382
-3.9240 4.4294 2.1382
-4.9597 3.4443 2.1382
-6.1270 2.3666 2.2906
-6.5730 0.8625 2.2906
-6.6084 -0.7132 2.2906
-6.2277 -2.2416 2.2906
-5.1005 -3.3685 2.1382
-4.0922 -4.4046 2.1382
-2.8718 -5.1381 2.1382
-1.6420 -5.9303 2.2906
-0.1789 -5.9917 2.2906
0.6423 -2.9953 1.2019
2.4928 -5.1192 2.2906
3.5694 -4.2732 2.2906
4.4118 -3.2261 2.2906
4.9916 -2.0357 2.2906
5.2918 -0.7599 2.2906
5.3052 0.5441 2.2906
5.0330 1.8201 2.2906
4.4844 3.0124 2.2906
3.6773 4.0662 2.2906
2.6396 4.9269 2.2906
0.8115 3.1882 1.3176
0.0239 3.1948 1.2475
-0.7611 3.2011 1.2512
-2.6320 5.1359 2.1382
-3.8664 4.4711 2.1382
-4.9138 3.5001 2.1382
-6.0946 2.4378 2.2906
-6.5602 0.9402 2.2906
-6.6166 -0.6345 2.2906
-6.2562 -2.1681 2.2906
-5.1437 -3.3098 2.1382
-4.1483 -4.3596 2.1382
-2.9365 -5.1092 2.1382
-1.7153 -5.9177 2.2906
-0.2514 -5.9971 2.2906
0.6069 -3.0069 1.2019
2.4334 -5.1552 2.2906
3.5208 -4.3207 2.2906
4.3757 -3.2824 2.2906
4.9691 -2.0977 2.2906
5.2836 -0.8249 2.2906
5.3114 0.4790 2.2906
5.0533 1.7577 2.2906
4.5181 2.9557 2.2906
3.7234 4.0176 2.2906
2.6964 4.8892 2.2906
0.8527 3.1878 1.3232
0.0625 3.1945 1.2492
-0.7205 3.2008 1.2492
-2.5669 5.1606 2.1382
-3.8084 4.5119 2.1382
-4.8672 3.5552 2.1382
-3.7555 1.5544 1.4192
-6.5465 1.0181 2.2906
-6.6238 -0.5557 2.2906
-6.2838 -2.0943 2.2906
-5.1863 -3.2504 2.1382
-4.2040 -4.3138 2.1382
-3.0008 -5.0795 2.1382
-1.7883 -5.9043 2.2906
-0.3239 -6.0016 2.2906
0.5713 -3.0181 1.2020
2.3736 -5.1906 2.2906
3.4717 -4.3678 2.2906
4.3390 -3.3382 2.2906
4.9460 -2.1595 2.2906
5.2746 -0.8898 2.2906
5.3168 0.4140 2.2906
5.0729 1.6953 2.2906
4.5513 2.8986 2.2906
3.7690 3.9686 2.2906
2.7527 4.8510 2.2906
0.8941 3.1875 1.3291
0.1011 3.1942 1.2511
-0.6801 3.2004 1.2475
-2.5017 5.1844 2.1382
-3.7499 4.5519 2.1382
-4.8200 3.6097 2.1382
-3.7365 1.5989 1.4201
-6.5316 1.0956 2.2906
-6.6299 -0.4769 2.2906
-6.3104 -2.0199 2.2906
-5.2281 -3.1904 2.1382
-4.2591 -4.2673 2.1382
-3.0648 -5.0490 2.1382
-1.8614 -5.8898 2.2906
-0.3966 -6.0052 2.2906
0.5356 -3.0289 1.2021
2.3134 -5.2253 2.2906
3.4219 -4.4143 2.2906
4.3016 -3.3937 2.2906
4.9221 -2.2211 2.2906
5.2650 -0.9545 2.2906
5.3216 0.3488 2.2906
5.0918 1.6326 2.2906
4.5837 2.8411 2.2906
3.8139 3.9191 2.2906
2.8086 4.8121 2.2906
0.9358 3.1871 1.3352
0.1396 3.1939 1.2531
-0.6399 3.2001 1.2459
-2.4362 5.2074 2.1382
-3.6909 4.5912 2.1382
-4.7721 3.6635 2.1382
-5.5931 2.4726 2.1382
-6.5158 1.1728 2.2906
-6.6350 -0.3979 2.2906
-6.3360 -1.9454 2.2906
-5.2690 -3.1300 2.1382
-4.3137 -4.2200 2.1382
-3.1285 -5.0176 2.1382
-1.9342 -5.8745 2.2906
-0.4693 -6.0079 2.2906
0.4997 -3.0393 1.2021
2.2527 -5.2593 2.2906
3.3717 -4.4603 2.2906
4.2636 -3.4488 2.2906
4.8976 -2.2825 2.2906
5.2546 -1.0192 2.2906
5.3256 0.2837 2.2906
5.1100 1.5698 2.2906
4.6155 2.7833 2.2906
3.8583 3.8691 2.2906
2.8639 4.7727 2.2906
0.9777 3.1868 1.3415
0.1783 3.1936 1.2554
-0.5998 3.1998 1.2445
-2.3706 5.2295 2.1382
-3.6316 4.6297 2.1382
-4.7235 3.7167 2.1382
-5.5594 2.5374 2.1382
-6.4989 1.2498 2.2906
-6.6390 -0.3190 2.2906
-6.3607 -1.8705 2.2906
-5.3093 -3.0689 2.1382
-4.3676 -4.1721 2.1382
-3.1917 -4.9854 2.1382
-2.0071 -5.8583 2.2906
-0.5423 -6.0098 2.2906
0.4636 -3.0493 1.2022
2.1916 -5.2927 2.2906
3.3208 -4.5058 2.2906
4.2249 -3.5036 2.2906
4.8724 -2.3435 2.2906
5.2435 -1.0837 2.2906
5.3288 0.2185 2.2906
5.1275 1.5067 2.2906
4.6466 2.7253 2.2906
3.9020 3.8188 2.2906
2.9187 4.7327 2.2906
1.0201 3.1864 1.3480
0.2170 3.1932 1.2578
-0.5600 3.1995 1.2433
-2.3047 5.2509 2.1382
-3.5718 4.6674 2.1382
-4.6744 3.7691 2.1382
-5.5249 2.6016 2.1382
-6.4811 1.3266 2.2906
-6.6420 -0.2399 2.2906
-6.3843 -1.7951 2.2906
-5.3487 -3.0073 2.1382
-4.4210 -4.1233 2.1382
-3.2547 -4.9524 2.1382
-2.0797 -5.8411 2.2906
-0.6153 -6.0108 2.2906
0.4274 -3.0589 1.2023
2.1300 -5.3254 2.2906
3.2694 -4.5507 2.2906
4.1856 -3.5579 2.2906
4.8464 -2.4044 2.2906
5.2317 -1.1482 2.2906
5.3314 0.1533 2.2906
5.1443 1.4435 2.2906
4.6771 2.6668 2.2906
3.9452 3.7679 2.2906
2.9730 4.6921 2.2906
1.0626 3.1860 1.3548
0.2557 3.1929 1.2605
-0.5204 3.1992 1.2423
-2.2387 5.2714 2.1382
-3.5117 4.7043 2.1382
-4.6245 3.8210 2.1382
-5.4896 2.6651 2.1382
-6.4622 1.4030 2.2906
-6.6439 -0.1609 2.2906
-6.4070 -1.7194 2.2906
-5.3873 -2.9451 2.1382
-4.4737 -4.0739 2.1382
-3.3173 -4.9185 2.1382
-2.1523 -5.8230 2.2906
-0.6884 -6.0109 2.2906
0.3910 -3.0680 1.2023
2.0680 -5.3574 2.2906
3.2173 -4.5951 2.2906
4.1456 -3.6118 2.2906
4.8198 -2.4649 2.2906
5.2192 -1.2126 2.2906
5.3333 0.0880 2.2906
5.1604 1.3801 2.2906
4.7069 2.6082 2.2906
3.9877 3.7166 2.2906
3.0268 4.6509 2.2906
1.8596 5.3580 2.2906
0.2945 3.1926 1.2633
-0.4809 3.1989 1.2415
-2.1725 5.2910 2.1382
-3.4510 4.7404 2.1382
-4.5741 3.8720 2.1382
-5.4535 2.7283 2.1382
-6.4423 1.4792 2.2906
-6.6447 -0.0818 2.2906
-6.4286 -1.6435 2.2906
-5.4251 -2.8824 2.1382
-4.5259 -4.0237 2.1382
-3.3795 -4.8838 2.1382
-2.2246 -5.8040 2.2906
-0.7616 -6.0101 2.2906
0.3545 -3.0767 1.2024
2.0054 -5.3887 2.2906
3.1648 -4.6389 2.2906
4.1050 -3.6653 2.2906
4.7925 -2.5253 2.2906
5.2059 -1.2768 2.2906
5.3344 0.0227 2.2906
5.1758 1.3166 2.2906
4.7361 2.5491 2.2906
4.0296 3.6648 2.2906
3.0801 4.6092 2.2906
1.9221 5.3289 2.2906
0.3335 3.1923 1.2663
-0.4415 3.1986 1.2409
-2.1061 5.3098 2.1382
-3.3901 4.7757 2.1382
-4.5230 3.9225 2.1382
-5.4165 2.7913 2.1382
-6.4214 1.5551 2.2906
-6.6445 -0.0028 2.2906
-6.4492 -1.5673 2.2906
-5.4621 -2.8191 2.1382
-4.5774 -3.9728 2.1382
-3.4413 -4.8483 2.1382
-2.2968 -5.7841 2.2906
-0.8349 -6.0084 2.2906
0.3178 -3.0850 1.2025
1.9426 -5.4193 2.2906
3.1117 -4.6822 2.2906
4.0638 -3.7185 2.2906
4.7645 -2.5853 2.2906
5.1920 -1.3409 2.2906
5.3348 -0.0426 2.2906
5.1905 1.2529 2.2906
4.7645 2.4898 2.2906
4.0709 3.6127 2.2906
3.1329 4.5668 2.2906
1.9844 5.2990 2.2906
0.3725 3.1919 1.2694
-0.4023 3.1983 1.2405
-2.0711 5.4102 2.1712
-3.3287 4.8102 2.1382
-4.4714 3.9722 2.1382
-5.3788 2.8535 2.1382
-6.3995 1.6307 2.2906
-6.6433 0.0763 2.2906
-6.4688 -1.4908 2.2906
-5.4983 -2.7555 2.1382
-4.6284 -3.9212 2.1382
-3.5028 -4.8120 2.1382
-2.3669 -5.7587 2.2887
-0.9081 -6.0058 2.2906
0.2810 -3.0929 1.2026
1.8792 -5.4493 2.2906
3.0581 -4.7248 2.2906
4.0219 -3.7711 2.2906
4.7358 -2.6451 2.2906
5.1773 -1.4049 2.2906
5.3345 -0.1079 2.2906
5.2044 1.1891 2.2906
4.7923 2.4302 2.2906
4.1117 3.5601 2.2906
3.1851 4.5240 2.2906
2.0461 5.2685 2.2906
0.4116 3.1916 1.2728
-0.3632 3.1980 1.2402
-2.0569 5.5723 2.2291
-3.2670 4.8439 2.1382
-4.4191 4.0212 2.1382
-5.3403 2.9152 2.1382
-6.3766 1.7059 2.2906
-6.6410 0.1552 2.2906
-6.4874 -1.4139 2.2906
-5.5337 -2.6912 2.1382
-4.6787 -3.8689 2.1382
-3.5637 -4.7749 2.1382
-2.3722 -5.5804 2.2263
-0.9815 -6.0024 2.2906
0.2440 -3.1003 1.2026
1.8155 -5.4785 2.2906
3.0039 -4.7670 2.2906
3.9794 -3.8234 2.2906
4.7064 -2.7047 2.2906
5.1619 -1.4687 2.2906
5.3335 -0.1732 2.2906
5.2177 1.1251 2.2906
4.8195 2.3703 2.2906
4.1518 3.5072 2.2906
3.2368 4.4806 2.2906
2.1074 5.2372 2.2906
0.4478 3.1909 1.3607
-0.3272 3.1972 1.3239
-1.9151 5.3712 2.2906
-2.9982 4.5542 2.1382
-4.0775 3.7952 2.1382
-4.9439 2.7725 2.1382
-5.5257 1.5473 2.1382
-6.1823 0.2177 2.2906
-5.6559 -1.1615 2.1382
-5.1891 -2.4454 2.1382
-4.4107 -3.5556 2.1382
-3.3859 -4.4185 2.1382
-2.3521 -5.3416 2.2906
-0.5214 -2.9483 1.2037
0.1909 -2.9104 1.2025
0.8587 -2.7092 1.2012
2.7647 -4.5168 2.2906
3.6960 -3.6442 2.2906
4.3957 -2.6014 2.2906
4.8403 -1.4434 2.2906
5.0169 -0.2252 2.2906
4.9214 0.9988 2.2906
4.5580 2.1747 2.2906
3.9393 3.2496 2.2906
3.0866 4.1711 2.2906
2.0316 4.8886 2.2906
0.4872 3.1906 1.3646
-0.2883 3.1969 1.3239
-1.8482 5.3871 2.2906
-2.9401 4.5844 2.1382
-4.0279 3.8398 2.1382
-4.9069 2.8290 2.1382
-5.5043 1.6121 2.1382
-6.1783 0.2911 2.2906
-5.6702 -1.0944 2.1382
-5.2203 -2.3846 2.1382
-4.4561 -3.5054 2.1382
-3.4417 -4.3821 2.1382
-2.3598 -5.1897 2.2348
-0.5575 -2.9456 1.2037
0.1560 -2.9163 1.2026
0.8269 -2.7229 1.2013
2.7126 -4.5550 2.2906
3.6547 -3.6923 2.2906
4.3666 -2.6567 2.2906
4.8243 -1.5032 2.2906
5.0145 -0.2867 2.2906
4.9326 0.9383 2.2906
4.5824 2.1179 2.2906
3.9760 3.1991 2.2906
3.1343 4.1294 2.2906
2.0885 4.8584 2.2906
0.5267 3.1902 1.3688
-0.2494 3.1966 1.3241
-1.7811 5.4022 2.2906
-2.8817 4.6140 2.1382
-3.9778 3.8838 2.1382
-4.8691 2.8851 2.1382
-5.4821 1.6765 2.1382
-6.1732 0.3644 2.2906
-5.6836 -1.0271 2.1382
-5.2507 -2.3234 2.1382
-4.5008 -3.4546 2.1382
-3.4972 -4.3450 2.1382
-2.3647 -5.0396 2.1797
-0.5936 -2.9425 1.2038
0.1211 -2.9218 1.2026
0.7949 -2.7361 1.2013
2.6601 -4.5926 2.2906
3.6128 -3.7400 2.2906
4.3369 -2.7117 2.2906
4.8077 -1.5628 2.2906
5.0114 -0.3482 2.2906
4.9431 0.8777 2.2906
4.6061 2.0608 2.2906
4.0121 3.1482 2.2906
3.1816 4.0873 2.2906
2.1451 4.8274 2.2906
0.5663 3.1899 1.3731
-0.2107 3.1963 1.3245
-1.7140 5.4164 2.2906
-2.8229 4.6427 2.1382
-3.9272 3.9270 2.1382
-4.8306 2.9406 2.1382
-5.4589 1.7409 2.1382
-6.1673 0.4377 2.2906
-5.6961 -0.9596 2.1382
-5.2803 -2.2618 2.1382
-4.5449 -3.4033 2.1382
-3.5522 -4.3070 2.1382
-2.3813 -4.9210 2.1382
-0.6297 -2.9389 1.2039
0.0860 -2.9269 1.2027
0.7628 -2.7490 1.2014
2.6071 -4.6297 2.2906
3.5703 -3.7872 2.2906
4.3065 -2.7665 2.2906
4.7905 -1.6223 2.2906
5.0077 -0.4096 2.2906
4.9530 0.8169 2.2906
4.6292 2.0035 2.2906
4.0476 3.0969 2.2906
3.2283 4.0447 2.2906
2.2012 4.7959 2.2906
0.6062 3.1895 1.3777
-0.1720 3.1960 1.3251
-1.6467 5.4298 2.2906
-2.7639 4.6707 2.1382
-3.8761 3.9696 2.1382
-4.7914 2.9955 2.1382
-5.4350 1.8048 2.1382
-6.1603 0.5109 2.2906
-6.1146 -0.9555 2.2906
-5.3091 -2.1998 2.1382
-4.5884 -3.3513 2.1382
-3.6068 -4.2684 2.1382
-2.4427 -4.8976 2.1382
-0.6657 -2.9349 1.2039
0.0508 -2.9316 1.2027
0.7304 -2.7616 1.2015
2.5535 -4.6662 2.2906
3.5273 -3.8340 2.2906
4.2755 -2.8209 2.2906
4.7725 -1.6816 2.2906
5.0033 -0.4710 2.2906
4.9621 0.7561 2.2906
4.6516 1.9460 2.2906
4.0826 3.0453 2.2906
3.2745 4.0015 2.2906
2.2569 4.7638 2.2906
0.6462 3.1892 1.3825
-0.1334 3.1957 1.3259
-1.5794 5.4424 2.2906
-2.7046 4.6980 2.1382
-3.8245 4.0115 2.1382
-4.7515 3.0500 2.1382
-5.4103 1.8683 2.1382
-6.1524 0.5840 2.2906
-6.1261 -0.8828 2.2906
-5.3370 -2.1373 2.1382
-4.6312 -3.2987 2.1382
-3.6609 -4.2291 2.1382
-2.5039 -4.8736 2.1382
-0.7018 -2.9304 1.2040
0.0155 -2.9359 1.2028
0.6979 -2.7738 1.2015
2.4996 -4.7021 2.2906
3.4837 -3.8804 2.2906
4.2439 -2.8750 2.2906
4.7539 -1.7407 2.2906
4.9982 -0.5324 2.2906
4.9706 0.6952 2.2906
4.6734 1.8882 2.2906
4.1169 2.9933 2.2906
3.3202 3.9579 2.2906
2.3121 4.7310 2.2906
0.6864 3.1889 1.3874
-0.0948 3.1954 1.3268
-0.8876 3.2016 1.3446
-2.6450 4.7244 2.1382
-3.7724 4.0527 2.1382
-4.7109 3.1038 2.1382
-5.3847 1.9315 2.1382
-6.1435 0.6569 2.2906
-6.1366 -0.8100 2.2906
-5.3642 -2.0745 2.1382
-4.6734 -3.2456 2.1382
-3.7145 -4.1890 2.1382
-2.5649 -4.8486 2.1382
-0.7378 -2.9255 1.2040
-0.0199 -2.9397 1.2029
0.6652 -2.7856 1.2016
2.4451 -4.7374 2.2906
3.4396 -3.9263 2.2906
4.2117 -2.9288 2.2906
4.7346 -1.7996 2.2906
4.9924 -0.5937 2.2906
4.9785 0.6342 2.2906
4.6946 1.8302 2.2906
4.1506 2.9409 2.2906
3.3653 3.9138 2.2906
2.3670 4.6977 2.2906
0.7268 3.1885 1.3927
-0.0562 3.1951 1.3280
-0.8462 3.2013 1.3418
-2.5852 4.7501 2.1382
-3.7199 4.0932 2.1382
-4.6697 3.1571 2.1382
-5.3583 1.9943 2.1382
-6.1337 0.7297 2.2906
-6.1462 -0.7370 2.2906
-5.3906 -2.0114 2.1382
-4.7149 -3.1918 2.1382
-3.7677 -4.1482 2.1382
-2.6256 -4.8230 2.1382
-0.7738 -2.9202 1.2041
-0.0553 -2.9431 1.2029
0.6323 -2.7970 1.2017
2.3902 -4.7721 2.2906
3.3948 -3.9717 2.2906
4.1788 -2.9823 2.2906
4.7147 -1.8583 2.2906
4.9860 -0.6550 2.2906
4.9856 0.5731 2.2906
4.7150 1.7720 2.2906
4.1837 2.8882 2.2906
3.4099 3.8692 2.2906
2.4214 4.6637 2.2906
0.7675 3.1882 1.3981
-0.0177 3.1948 1.3293
-0.8051 3.2010 1.3392
-2.5251 4.7751 2.1382
-3.6669 4.1330 2.1382
-4.6279 3.2099 2.1382
-5.3311 2.0567 2.1382
-6.1229 0.8024 2.2906
-6.1548 -0.6640 2.2906
-5.4161 -1.9478 2.1382
-4.7557 -3.1376 2.1382
-3.8204 -4.1067 2.1382
-2.6860 -4.7965 2.1382
-0.8098 -2.9144 1.2041
-0.0908 -2.9461 1.2030
0.5993 -2.8081 1.2017
2.3349 -4.8062 2.2906
3.3496 -4.0167 2.2906
4.1453 -3.0354 2.2906
4.6941 -1.9169 2.2906
4.9788 -0.7162 2.2906
4.9921 0.5120 2.2906
4.7349 1.7136 2.2906
4.2163 2.8352 2.2906
3.4540 3.8242 2.2906
2.4754 4.6292 2.2906
0.8083 3.1878 1.4038
0.0209 3.1944 1.3309
-0.7642 3.2007 1.3368
-2.4647 4.7992 2.1382
-3.6134 4.1721 2.1382
-4.5853 3.2620 2.1382
-5.3031 2.1187 2.1382
-6.1111 0.8748 2.2906
-6.1625 -0.5908 2.2906
-5.4408 -1.8840 2.1382
-4.7958 -3.0827 2.1382
-3.8726 -4.0645 2.1382
-2.7462 -4.7692 2.1382
-0.8458 -2.9081 1.2042
-0.1264 -2.9487 1.2031
0.5660 -2.8187 1.2018
2.2791 -4.8397 2.2906
3.3038 -4.0611 2.2906
4.1112 -3.0882 2.2906
4.6728 -1.9752 2.2906
4.9710 -0.7773 2.2906
4.9979 0.4507 2.2906
4.7541 1.6549 2.2906
4.2481 2.7820 2.2906
3.4975 3.7787 2.2906
2.5289 4.5941 2.2906
0.8495 3.1874 1.4097
0.0594 3.1941 1.3326
-0.7236 3.2004 1.3346
-2.4041 4.8226 2.1382
-3.5595 4.2105 2.1382
-4.5422 3.3136 2.1382
-3.7560 1.5527 1.5227
-6.0984 0.9471 2.2906
-6.1691 -0.5175 2.2906
-5.4646 -1.8197 2.1382
-4.8352 -3.0273 2.1382
-3.9242 -4.0216 2.1382
-2.8060 -4.7412 2.1382
-0.8817 -2.9014 1.2042
-0.1621 -2.9508 1.2031
0.5327 -2.8290 1.2019
2.2228 -4.8726 2.2906
