ply
format ascii 1.0
element vertex 2176
property float32 x
property float32 y
property float32 z
end_header
-8.4424 -0.6078 2.2906
-8.0279 -2.5760 2.2906
-7.1052 -4.3490 2.2906
-5.3789 -5.4097 2.1382
-3.8462 -6.3699 2.1382
-2.3138 -7.3900 2.2906
-0.4733 -7.4916 2.2906
1.2872 -7.1597 2.2906
2.8759 -6.4480 2.2906
4.2244 -5.4222 2.2906
5.2853 -4.1527 2.2906
6.0281 -2.7096 2.2906
6.4355 -1.1613 2.2906
6.5003 0.4269 2.2906
6.2235 1.9916 2.2906
5.6132 3.4699 2.2906
4.6860 4.7982 2.2906
3.4684 5.9124 2.2906
0.9459 3.1916 1.0834
0.1485 3.1986 1.0118
-0.6319 3.2049 1.0003
-3.0362 6.5328 2.1382
-4.6350 5.7918 2.1382
-6.4573 4.9754 2.2906
-7.6012 3.3716 2.2906
-8.2888 1.4973 2.2906
-8.4488 -0.5069 2.2906
-8.0612 -2.4811 2.2906
-7.1622 -4.2672 2.2906
-5.4493 -5.3509 2.1382
-3.9276 -6.3319 2.1382
-2.4059 -7.3729 2.2906
-0.5642 -7.4972 2.2906
1.2026 -7.1858 2.2906
2.8017 -6.4916 2.2906
4.1636 -5.4798 2.2906
5.2397 -4.2208 2.2906
5.9988 -2.7849 2.2906
6.4232 -1.2402 2.2906
6.5052 0.3476 2.2906
6.2453 1.9150 2.2906
5.6514 3.3990 2.2906
4.7396 4.7363 2.2906
3.5356 5.8628 2.2906
0.9879 3.1912 1.0888
0.1872 3.1982 1.0138
-0.5918 3.2046 0.9995
-2.9531 6.5587 2.1382
-4.5590 5.8387 2.1382
-6.3899 5.0466 2.2906
-7.5540 3.4593 2.2906
-8.2666 1.5953 2.2906
-8.4539 -0.4062 2.2906
-8.0933 -2.3855 2.2906
-7.2182 -4.1845 2.2906
-5.5189 -5.2912 2.1382
-4.0085 -6.2929 2.1382
-2.4172 -7.1166 2.2165
-0.6555 -7.5016 2.2906
1.1176 -7.2110 2.2906
2.7269 -6.5344 2.2906
4.1019 -5.5369 2.2906
5.1932 -4.2886 2.2906
5.9687 -2.8597 2.2906
6.4101 -1.3190 2.2906
6.5093 0.2682 2.2906
6.2663 1.8380 2.2906
5.6888 3.3278 2.2906
4.7923 4.6740 2.2906
3.6022 5.8125 2.2906
1.0303 3.1908 1.0944
0.2259 3.1979 1.0161
-0.5520 3.2042 0.9989
-2.8697 6.5835 2.1382
-4.4824 5.8847 2.1382
-6.3217 5.1166 2.2906
-7.5058 3.5462 2.2906
-8.2430 1.6931 2.2906
-8.4576 -0.3052 2.2906
-8.1240 -2.2897 2.2906
-7.2730 -4.1011 2.2906
-5.5878 -5.2305 2.1382
-4.0890 -6.2528 2.1382
-2.4224 -6.8605 2.1424
-0.7468 -7.5050 2.2906
1.0321 -7.2352 2.2906
2.6515 -6.5765 2.2906
4.0396 -5.5933 2.2906
5.1459 -4.3558 2.2906
5.9378 -2.9344 2.2906
6.3961 -1.3977 2.2906
6.5125 0.1888 2.2906
6.2865 1.7610 2.2906
5.7254 3.2561 2.2906
4.8444 4.6110 2.2906
3.6681 5.7615 2.2906
1.0730 3.1904 1.1002
0.2647 3.1976 1.0185
-0.5123 3.2039 0.9983
-2.7862 6.6073 2.1382
-4.4054 5.9296 2.1382
-6.2527 5.1857 2.2906
-7.4564 3.6325 2.2906
-8.2181 1.7904 2.2906
-8.4599 -0.2043 2.2906
-8.1534 -2.1932 2.2906
-7.3268 -4.0169 2.2906
-5.6559 -5.1688 2.1382
-4.1691 -6.2117 2.1382
-2.5034 -6.8278 2.1382
-0.8383 -7.5073 2.2906
0.9463 -7.2584 2.2906
2.5756 -6.6177 2.2906
3.9765 -5.6491 2.2906
5.0978 -4.4227 2.2906
5.9060 -3.0087 2.2906
6.3813 -1.4762 2.2906
6.5148 0.1092 2.2906
6.3059 1.6836 2.2906
5.7612 3.1842 2.2906
4.8957 4.5477 2.2906
3.7335 5.7098 2.2906
2.3112 6.6060 2.2906
0.3036 3.1972 1.0210
-0.4727 3.2036 0.9980
-2.7024 6.6301 2.1382
-4.3278 5.9735 2.1382
-6.1828 5.2538 2.2906
-7.4059 3.7179 2.2906
-8.1919 1.8875 2.2906
-8.4608 -0.1033 2.2906
-8.1816 -2.0965 2.2906
-7.3794 -3.9319 2.2906
-5.7233 -5.1062 2.1382
-4.2488 -6.1694 2.1382
-2.5889 -6.8075 2.1382
-0.9299 -7.5085 2.2906
0.8600 -7.2806 2.2906
2.4990 -6.6581 2.2906
3.9128 -5.7042 2.2906
5.0490 -4.4890 2.2906
5.8734 -3.0829 2.2906
6.3656 -1.5547 2.2906
6.5163 0.0297 2.2906
6.3244 1.6062 2.2906
5.7963 3.1119 2.2906
4.9463 4.4837 2.2906
3.7981 5.6576 2.2906
2.3877 6.5685 2.2906
0.3426 3.1969 1.0237
-0.4333 3.2033 0.9978
-2.6186 6.6517 2.1382
-4.2499 6.0164 2.1382
-6.1121 5.3212 2.2906
-7.3543 3.8027 2.2906
-8.1644 1.9840 2.2906
-8.4603 -0.0024 2.2906
-8.2084 -1.9993 2.2906
-7.4309 -3.8461 2.2906
-5.7898 -5.0427 2.1382
-4.3279 -6.1261 2.1382
-2.6744 -6.7860 2.1382
-1.0218 -7.5086 2.2906
0.7735 -7.3019 2.2906
2.4219 -6.6976 2.2906
3.8483 -5.7587 2.2906
4.9994 -4.5549 2.2906
5.8399 -3.1566 2.2906
6.3491 -1.6329 2.2906
6.5169 -0.0499 2.2906
6.3420 1.5285 2.2906
5.8304 3.0393 2.2906
4.9961 4.4193 2.2906
3.8621 5.6045 2.2906
2.4637 6.5302 2.2906
0.3816 3.1966 1.0265
-0.3941 3.2030 0.9977
-2.5345 6.6723 2.1382
-4.1715 6.0582 2.1382
-6.0407 5.3871 2.2906
-7.3016 3.8867 2.2906
-8.1356 2.0802 2.2906
-8.4585 0.0986 2.2906
-8.2339 -1.9018 2.2906
-7.4813 -3.7597 2.2906
-6.2730 -5.3329 2.2906
-4.4066 -6.0817 2.1382
-2.7596 -6.7634 2.1382
-1.1137 -7.5075 2.2906
0.6864 -7.3221 2.2906
2.3442 -6.7364 2.2906
3.7832 -5.8125 2.2906
4.9490 -4.6202 2.2906
5.8056 -3.2301 2.2906
6.3317 -1.7111 2.2906
6.5167 -0.1294 2.2906
6.3588 1.4507 2.2906
5.8639 2.9663 2.2906
5.0452 4.3544 2.2906
3.9254 5.5510 2.2906
2.5392 6.4911 2.2906
0.4208 3.1962 1.0295
-0.3549 3.2027 0.9977
-2.4504 6.6919 2.1382
-4.0927 6.0989 2.1382
-5.9684 5.4523 2.2906
-7.2478 3.9699 2.2906
-8.1055 2.1758 2.2906
-8.4553 0.1994 2.2906
-8.2580 -1.8038 2.2906
-7.5306 -3.6725 2.2906
-6.3427 -5.2628 2.2906
-4.4848 -6.0363 2.1382
-2.8448 -6.7397 2.1382
-1.2058 -7.5053 2.2906
0.5990 -7.3414 2.2906
2.2660 -6.7742 2.2906
3.7174 -5.8657 2.2906
4.8978 -4.6851 2.2906
5.7705 -3.3032 2.2906
6.3134 -1.7890 2.2906
6.5156 -0.2090 2.2906
6.3748 1.3726 2.2906
5.8965 2.8930 2.2906
5.0934 4.2890 2.2906
3.9881 5.4966 2.2906
2.6141 6.4511 2.2906
0.4572 3.1952 1.1130
-0.3187 3.2017 1.0778
-2.1916 6.1983 2.1382
-3.7057 5.6584 2.1382
-5.0690 4.7370 2.1382
-6.6132 3.7215 2.2906
-7.4137 2.0830 2.2906
-7.7544 0.2749 2.2906
-7.5988 -1.5640 2.2906
-6.9596 -3.2888 2.2906
-5.5037 -4.4518 2.1382
-4.2042 -5.5113 2.1382
-2.7071 -6.1909 2.1382
-1.2057 -6.9315 2.2906
0.4670 -6.8147 2.2906
2.0230 -6.3199 2.2906
3.3873 -5.5014 2.2906
4.5052 -4.4220 2.2906
5.3390 -3.1471 2.2906
5.8656 -1.7420 2.2906
6.0727 -0.2699 2.2906
5.9573 1.2074 2.2906
5.5242 2.6294 2.2906
4.7860 3.9356 2.2906
3.7646 5.0653 2.2906
2.4932 5.9580 2.2906
0.4966 3.1948 1.1165
-0.2798 3.2014 1.0780
-2.1139 6.2155 2.1382
-3.6327 5.6946 2.1382
-5.0061 4.7917 2.1382
-6.5624 3.7968 2.2906
-7.3841 2.1701 2.2906
-7.7490 0.3672 2.2906
-7.6184 -1.4736 2.2906
-7.0023 -3.2074 2.2906
-5.5614 -4.3897 2.1382
-4.2748 -5.4670 2.1382
-2.7849 -6.1664 2.1382
-1.2908 -6.9266 2.2906
0.3855 -6.8299 2.2906
1.9492 -6.3528 2.2906
3.3246 -5.5491 2.2906
4.4558 -4.4812 2.2906
5.3045 -3.2145 2.2906
5.8468 -1.8143 2.2906
6.0700 -0.3441 2.2906
5.9707 1.1344 2.2906
5.5532 2.5605 2.2906
4.8299 3.8739 2.2906
3.8219 5.0140 2.2906
2.5620 5.9199 2.2906
0.5362 3.1945 1.1201
-0.2409 3.2011 1.0785
-2.0498 6.2735 2.1527
-3.5593 5.7299 2.1382
-4.9426 4.8455 2.1382
-6.5106 3.8713 2.2906
-7.3534 2.2566 2.2906
-7.7424 0.4595 2.2906
-7.6367 -1.3829 2.2906
-7.0439 -3.1254 2.2906
-5.6184 -4.3269 2.1382
-4.3449 -5.4218 2.1382
-2.8625 -6.1409 2.1382
-1.3759 -6.9207 2.2906
0.3036 -6.8442 2.2906
1.8750 -6.3849 2.2906
3.2612 -5.5961 2.2906
4.4057 -4.5398 2.2906
5.2692 -3.2815 2.2906
5.8272 -1.8865 2.2906
6.0665 -0.4183 2.2906
5.9833 1.0612 2.2906
5.5815 2.4914 2.2906
4.8730 3.8119 2.2906
3.8786 4.9620 2.2906
2.6303 5.8811 2.2906
0.5759 3.1941 1.1239
-0.2021 3.2007 1.0791
-2.0327 6.4840 2.2197
-3.4856 5.7642 2.1382
-4.8785 4.8983 2.1382
-6.4578 3.9451 2.2906
-7.3215 2.3428 2.2906
-7.7346 0.5516 2.2906
-7.6539 -1.2919 2.2906
-7.0844 -3.0428 2.2906
-5.6746 -4.2632 2.1382
-4.4145 -5.3756 2.1382
-2.9398 -6.1144 2.1382
-1.4611 -6.9138 2.2906
0.2215 -6.8575 2.2906
1.8002 -6.4162 2.2906
3.1973 -5.6424 2.2906
4.3549 -4.5980 2.2906
5.2331 -3.3482 2.2906
5.8068 -1.9585 2.2906
6.0622 -0.4925 2.2906
5.9951 0.9879 2.2906
5.6090 2.4220 2.2906
4.9154 3.7494 2.2906
3.9347 4.9095 2.2906
2.6981 5.8415 2.2906
0.6158 3.1938 1.1279
-0.1634 3.2004 1.0798
-2.0142 6.7061 2.2906
-3.4115 5.7975 2.1382
-4.8137 4.9504 2.1382
-6.4042 4.0181 2.2906
-7.2885 2.4284 2.2906
-7.7255 0.6436 2.2906
-7.6698 -1.2008 2.2906
-7.1239 -2.9596 2.2906
-5.7300 -4.1987 2.1382
-4.4835 -5.3285 2.1382
-3.0169 -6.0869 2.1382
-1.5462 -6.9058 2.2906
0.1391 -6.8698 2.2906
1.7251 -6.4467 2.2906
3.1327 -5.6881 2.2906
4.3034 -4.6556 2.2906
5.1963 -3.4146 2.2906
5.7856 -2.0303 2.2906
6.0571 -0.5667 2.2906
6.0061 0.9145 2.2906
5.6358 2.3523 2.2906
4.9571 3.6865 2.2906
3.9901 4.8564 2.2906
2.7654 5.8013 2.2906
0.6559 3.1934 1.1320
-0.1247 3.2001 1.0807
-1.9306 6.7200 2.2906
-3.3371 5.8299 2.1382
-4.7483 5.0015 2.1382
-6.3496 4.0903 2.2906
-7.2543 2.5136 2.2906
-7.7151 0.7354 2.2906
-7.6844 -1.1094 2.2906
-7.1622 -2.8759 2.2906
-5.7845 -4.1335 2.1382
-4.5520 -5.2805 2.1382
-3.0937 -6.0584 2.1382
-1.6314 -6.8967 2.2906
0.0565 -6.8812 2.2906
1.6494 -6.4763 2.2906
3.0676 -5.7330 2.2906
4.2511 -4.7127 2.2906
5.1587 -3.4805 2.2906
5.7636 -2.1019 2.2906
6.0512 -0.6408 2.2906
6.0163 0.8409 2.2906
5.6617 2.2824 2.2906
4.9981 3.6232 2.2906
4.0449 4.8028 2.2906
2.8322 5.7603 2.2906
0.6962 3.1931 1.1364
-0.0861 3.1998 1.0817
-0.8795 3.2060 1.0908
-3.2624 5.8613 2.1382
-4.6824 5.0518 2.1382
-6.2941 4.1619 2.2906
-7.2190 2.5982 2.2906
-7.7035 0.8271 2.2906
-7.6978 -1.0178 2.2906
-7.1994 -2.7916 2.2906
-6.2544 -4.3574 2.2906
-4.6199 -5.2315 2.1382
-3.1702 -6.0288 2.1382
-1.7166 -6.8866 2.2906
-0.0265 -6.8916 2.2906
1.5733 -6.5050 2.2906
3.0018 -5.7773 2.2906
4.1982 -4.7693 2.2906
5.1203 -3.5462 2.2906
5.7408 -2.1734 2.2906
6.0445 -0.7148 2.2906
6.0257 0.7673 2.2906
5.6869 2.2122 2.2906
5.0384 3.5595 2.2906
4.0990 4.7486 2.2906
2.8983 5.7186 2.2906
0.7366 3.1927 1.1409
-0.0475 3.1995 1.0829
-0.8381 3.2057 1.0888
-3.1874 5.8918 2.1382
-4.6159 5.1011 2.1382
-6.2378 4.2325 2.2906
-7.1827 2.6823 2.2906
-7.6907 0.9186 2.2906
-7.7100 -0.9261 2.2906
-7.2355 -2.7068 2.2906
-6.3111 -4.2859 2.2906
-4.6873 -5.1816 2.1382
-3.2464 -5.9983 2.1382
-1.8017 -6.8754 2.2906
-0.1096 -6.9010 2.2906
1.4968 -6.5329 2.2906
2.9355 -5.8209 2.2906
4.1447 -4.8254 2.2906
5.0812 -3.6114 2.2906
5.7172 -2.2446 2.2906
6.0369 -0.7888 2.2906
6.0343 0.6936 2.2906
5.7113 2.1418 2.2906
5.0779 3.4954 2.2906
4.1525 4.6938 2.2906
2.9640 5.6763 2.2906
0.7774 3.1923 1.1456
-0.0089 3.1992 1.0843
-0.7969 3.2054 1.0869
-3.1121 5.9212 2.1382
-4.5488 5.1495 2.1382
-6.1805 4.3024 2.2906
-7.1452 2.7659 2.2906
-7.6767 1.0099 2.2906
-7.7209 -0.8341 2.2906
-7.2705 -2.6215 2.2906
-6.3668 -4.2137 2.2906
-4.7540 -5.1307 2.1382
-3.3224 -5.9668 2.1382
-1.8868 -6.8631 2.2906
-0.1929 -6.9094 2.2906
1.4199 -6.5600 2.2906
2.8685 -5.8637 2.2906
4.0904 -4.8809 2.2906
5.0413 -3.6763 2.2906
5.6928 -2.3155 2.2906
6.0286 -0.8627 2.2906
6.0421 0.6198 2.2906
5.7350 2.0711 2.2906
5.1167 3.4309 2.2906
4.2053 4.6385 2.2906
3.0291 5.6332 2.2906
0.8183 3.1920 1.1505
0.0297 3.1988 1.0858
-0.7560 3.2051 1.0853
-3.0366 5.9497 2.1382
-4.4812 5.1971 2.1382
-6.1224 4.3714 2.2906
-7.1066 2.8489 2.2906
-7.6614 1.1010 2.2906
-7.7306 -0.7421 2.2906
-7.3043 -2.5357 2.2906
-6.4216 -4.1406 2.2906
-4.8202 -5.0790 2.1382
-3.3979 -5.9342 2.1382
-1.9719 -6.8498 2.2906
-0.2764 -6.9168 2.2906
1.3426 -6.5861 2.2906
2.8011 -5.9059 2.2906
4.0354 -4.9358 2.2906
5.0007 -3.7408 2.2906
5.6677 -2.3863 2.2906
6.0194 -0.9366 2.2906
6.0491 0.5459 2.2906
5.7578 2.0002 2.2906
5.1548 3.3660 2.2906
4.2574 4.5827 2.2906
3.0936 5.5895 2.2906
0.8595 3.1916 1.1556
0.0683 3.1985 1.0875
-0.7154 3.2048 1.0838
-2.9608 5.9772 2.1382
-4.4131 5.2437 2.1382
-6.0635 4.4397 2.2906
-3.7546 1.5574 1.2170
-7.6449 1.1918 2.2906
-7.7390 -0.6499 2.2906
-7.3369 -2.4494 2.2906
-6.4754 -4.0667 2.2906
-4.8857 -5.0264 2.1382
-3.4732 -5.9007 2.1382
-2.0568 -6.8354 2.2906
-0.3602 -6.9232 2.2906
1.2648 -6.6114 2.2906
2.7330 -5.9473 2.2906
3.9798 -4.9902 2.2906
4.9594 -3.8049 2.2906
5.6417 -2.4568 2.2906
6.0095 -1.0104 2.2906
6.0552 0.4719 2.2906
5.7799 1.9291 2.2906
5.1921 3.3008 2.2906
4.3089 4.5263 2.2906
3.1575 5.5451 2.2906
0.9010 3.1912 1.1609
0.1069 3.1982 1.0893
-0.6750 3.2045 1.0824
-2.8847 6.0037 2.1382
-4.3444 5.2894 2.1382
-6.0037 4.5070 2.2906
-3.7387 1.6033 1.2188
-7.6272 1.2823 2.2906
-7.7462 -0.5576 2.2906
-7.3685 -2.3627 2.2906
-6.5283 -3.9922 2.2906
-4.9506 -4.9728 2.1382
-3.5481 -5.8662 2.1382
-2.1417 -6.8199 2.2906
-0.4441 -6.9286 2.2906
1.1867 -6.6358 2.2906
2.6644 -5.9880 2.2906
3.9235 -5.0440 2.2906
4.9172 -3.8685 2.2906
5.6150 -2.5270 2.2906
5.9987 -1.0841 2.2906
6.0606 0.3979 2.2906
5.8012 1.8578 2.2906
5.2287 3.2351 2.2906
4.3597 4.4694 2.2906
3.2209 5.5000 2.2906
0.9427 3.1908 1.1664
0.1456 3.1979 1.0913
-0.6347 3.2042 1.0813
-2.8085 6.0293 2.1382
-4.2753 5.3341 2.1382
-5.5477 4.2693 2.1382
-6.9844 3.0945 2.2906
-7.6083 1.3726 2.2906
-7.7521 -0.4652 2.2906
-7.3988 -2.2755 2.2906
-6.5803 -3.9168 2.2906
-5.0148 -4.9184 2.1382
-3.6227 -5.8307 2.1382
-2.2266 -6.8033 2.2906
-0.5282 -6.9331 2.2906
1.1082 -6.6593 2.2906
2.5952 -6.0279 2.2906
3.8665 -5.0973 2.2906
4.8744 -3.9318 2.2906
5.5874 -2.5970 2.2906
5.9871 -1.1576 2.2906
6.0652 0.3239 2.2906
5.8217 1.7862 2.2906
5.2645 3.1692 2.2906
4.4098 4.4121 2.2906
3.2837 5.4542 2.2906
0.9848 3.1905 1.1720
0.1842 3.1975 1.0935
-0.5947 3.2039 1.0803
-2.7320 6.0539 2.1382
-4.2057 5.3780 2.1382
-5.4904 4.3307 2.1382
-6.9416 3.1752 2.2906
-7.5881 1.4626 2.2906
-7.7568 -0.3728 2.2906
-7.4280 -2.1879 2.2906
-6.6312 -3.8407 2.2906
-5.0783 -4.8631 2.1382
-3.6968 -5.7942 2.1382
-2.3113 -6.7857 2.2906
-0.6125 -6.9365 2.2906
1.0292 -6.6820 2.2906
2.5256 -6.0671 2.2906
3.8089 -5.1499 2.2906
4.8308 -3.9946 2.2906
5.5591 -2.6668 2.2906
5.9748 -1.2311 2.2906
6.0690 0.2498 2.2906
5.8414 1.7145 2.2906
5.2996 3.1029 2.2906
4.4593 4.3542 2.2906
3.3459 5.4078 2.2906
1.0271 3.1901 1.1779
0.2230 3.1972 1.0958
-0.5548 3.2036 1.0794
-2.6553 6.0775 2.1382
-4.1356 5.4208 2.1382
-5.4323 4.3910 2.1382
-6.8977 3.2552 2.2906
-7.5668 1.5523 2.2906
-7.7602 -0.2803 2.2906
-7.4560 -2.0999 2.2906
-6.6812 -3.7639 2.2906
-5.1412 -4.8069 2.1382
-3.7706 -5.7567 2.1382
-2.3951 -6.7648 2.2899
-0.6969 -6.9388 2.2906
0.9500 -6.7037 2.2906
2.4553 -6.1056 2.2906
3.7506 -5.2020 2.2906
4.7865 -4.0570 2.2906
5.5300 -2.7363 2.2906
5.9616 -1.3045 2.2906
6.0719 0.1756 2.2906
5.8603 1.6426 2.2906
5.3339 3.0363 2.2906
4.5080 4.2958 2.2906
3.4075 5.3608 2.2906
1.0698 3.1897 1.1840
0.2618 3.1969 1.0982
-0.5151 3.2032 1.0788
-2.5784 6.1001 2.1382
-4.0650 5.4628 2.1382
-5.3735 4.4509 2.1382
-6.8528 3.3346 2.2906
-7.5442 1.6416 2.2906
-7.7624 -0.1877 2.2906
-7.4828 -2.0114 2.2906
-6.7302 -3.6864 2.2906
-5.2034 -4.7499 2.1382
-3.8440 -5.7182 2.1382
-2.4006 -6.5305 2.2170
-0.7814 -6.9402 2.2906
0.8703 -6.7245 2.2906
2.3846 -6.1432 2.2906
3.6917 -5.2534 2.2906
4.7414 -4.1190 2.2906
5.5001 -2.8055 2.2906
5.9476 -1.3777 2.2906
6.0741 0.1014 2.2906
5.8785 1.5705 2.2906
5.3675 2.9692 2.2906
4.5561 4.2370 2.2906
3.4686 5.3131 2.2906
2.1414 6.1371 2.2906
0.3007 3.1965 1.1009
-0.4756 3.2029 1.0783
-2.5014 6.1218 2.1382
-3.9940 5.5038 2.1382
-5.3140 4.5098 2.1382
-6.8069 3.4135 2.2906
-7.5205 1.7307 2.2906
-7.7633 -0.0952 2.2906
-7.5084 -1.9227 2.2906
-6.7781 -3.6083 2.2906
-5.2649 -4.6920 2.1382
-3.9169 -5.6788 2.1382
-2.4058 -6.3098 2.1488
-0.8660 -6.9405 2.2906
0.7904 -6.7444 2.2906
2.3133 -6.1801 2.2906
3.6321 -5.3043 2.2906
4.6956 -4.1805 2.2906
5.4695 -2.8744 2.2906
5.9328 -1.4508 2.2906
6.0754 0.0272 2.2906
5.8958 1.4982 2.2906
5.4004 2.9019 2.2906
4.6035 4.1776 2.2906
3.5290 5.2648 2.2906
2.2127 6.1028 2.2906
0.3396 3.1962 1.1036
-0.4362 3.2026 1.0779
-2.4242 6.1425 2.1382
-3.9226 5.5438 2.1382
-5.2538 4.5678 2.1382
-6.7600 3.4914 2.2906
-7.4956 1.8193 2.2906
-7.7629 -0.0026 2.2906
-7.5328 -1.8335 2.2906
-6.8250 -3.5294 2.2906
-5.3257 -4.6332 2.1382
-3.9894 -5.6384 2.1382
-2.4725 -6.2584 2.1382
-0.9508 -6.9398 2.2906
0.7100 -6.7634 2.2906
2.2415 -6.2163 2.2906
3.5719 -5.3545 2.2906
4.6491 -4.2416 2.2906
5.4380 -2.9430 2.2906
5.9172 -1.5238 2.2906
6.0760 -0.0470 2.2906
5.9124 1.4258 2.2906
5.4325 2.8342 2.2906
4.6501 4.1178 2.2906
3.5888 5.2158 2.2906
2.2835 6.0678 2.2906
0.3787 3.1959 1.1066
-0.3969 3.2023 1.0777
-2.3468 6.1622 2.1382
-3.8507 5.5830 2.1382
-5.1929 4.6251 2.1382
-6.7121 3.5688 2.2906
-7.4695 1.9076 2.2906
-7.7613 0.0899 2.2906
-7.5560 -1.7440 2.2906
-6.8709 -3.4499 2.2906
-5.3857 -4.5736 2.1382
-4.0615 -5.5970 2.1382
-2.5509 -6.2369 2.1382
-1.0357 -6.9381 2.2906
0.6294 -6.7814 2.2906
2.1692 -6.2516 2.2906
3.5110 -5.4041 2.2906
4.6019 -4.3022 2.2906
5.4058 -3.0113 2.2906
5.9008 -1.5967 2.2906
6.0757 -0.1213 2.2906
5.9282 1.3532 2.2906
5.4638 2.7663 2.2906
4.6961 4.0575 2.2906
3.6480 5.1663 2.2906
2.3539 6.0319 2.2906
0.4178 3.1955 1.1097
-0.3578 3.2020 1.0777
-2.2693 6.1809 2.1382
-3.7784 5.6211 2.1382
-5.1313 4.6814 2.1382
-6.6631 3.6454 2.2906
-7.4422 1.9954 2.2906
-7.7585 0.1824 2.2906
-7.5780 -1.6542 2.2906
-6.9157 -3.3697 2.2906
-5.4450 -4.5132 2.1382
-4.1330 -5.5547 2.1382
-2.6290 -6.2145 2.1382
-1.1206 -6.9353 2.2906
0.5484 -6.7985 2.2906
2.0964 -6.2861 2.2906
3.4495 -5.4531 2.2906
4.5539 -4.3623 2.2906
5.3728 -3.0794 2.2906
5.8836 -1.6693 2.2906
6.0746 -0.1956 2.2906
5.9431 1.2804 2.2906
5.4944 2.6980 2.2906
4.7414 3.9968 2.2906
3.7066 5.1161 2.2906
2.4237 5.9954 2.2906
0.4572 3.1952 1.1130
-0.3188 3.2017 1.0778
-2.1917 6.1990 2.1382
-3.7058 5.6583 2.1382
-5.0691 4.7370 2.1382
-6.6133 3.7214 2.2906
-7.4138 2.0830 2.2906
-7.7544 0.2748 2.2906
-7.5988 -1.5640 2.2906
-6.9595 -3.2889 2.2906
-5.5036 -4.4519 2.1382
-4.2041 -5.5114 2.1382
-2.7071 -6.1909 2.1382
-1.2056 -6.9315 2.2906
0.4671 -6.8147 2.2906
2.0231 -6.3199 2.2906
3.3874 -5.5014 2.2906
4.5052 -4.4219 2.2906
5.3390 -3.1471 2.2906
5.8656 -1.7419 2.2906
6.0727 -0.2698 2.2906
5.9573 1.2075 2.2906
5.5242 2.6294 2.2906
4.7859 3.9356 2.2906
3.7646 5.0654 2.2906
2.4931 5.9580 2.2906
0.4966 3.1948 1.1165
-0.2798 3.2014 1.0780
-2.1139 6.2154 2.1382
-3.6328 5.6946 2.1382
-5.0062 4.7916 2.1382
-6.5624 3.7967 2.2906
-7.3842 2.1700 2.2906
-7.7490 0.3671 2.2906
-7.6184 -1.4736 2.2906
-7.0022 -3.2075 2.2906
-5.5614 -4.3898 2.1382
-4.2747 -5.4671 2.1382
-2.7849 -6.1664 2.1382
-1.2907 -6.9267 2.2906
0.3855 -6.8299 2.2906
1.9493 -6.3528 2.2906
3.3246 -5.5491 2.2906
4.4558 -4.4811 2.2906
5.3045 -3.2144 2.2906
5.8468 -1.8142 2.2906
6.0700 -0.3441 2.2906
5.9707 1.1345 2.2906
5.5532 2.5606 2.2906
4.8298 3.8740 2.2906
3.8219 5.0140 2.2906
2.5619 5.9199 2.2906
0.5361 3.1945 1.1201
-0.2410 3.2011 1.0785
-2.0498 6.2733 2.1526
-3.5594 5.7298 2.1382
-4.9427 4.8454 2.1382
-6.5106 3.8712 2.2906
-7.3534 2.2566 2.2906
-7.7424 0.4593 2.2906
-7.6367 -1.3829 2.2906
-7.0438 -3.1255 2.2906
-5.6184 -4.3269 2.1382
-4.3449 -5.4218 2.1382
-2.8624 -6.1410 2.1382
-1.3758 -6.9207 2.2906
0.3037 -6.8442 2.2906
1.8751 -6.3849 2.2906
3.2612 -5.5961 2.2906
4.4057 -4.5397 2.2906
5.2692 -3.2815 2.2906
5.8272 -1.8865 2.2906
6.0665 -0.4182 2.2906
5.9833 1.0613 2.2906
5.5815 2.4914 2.2906
4.8730 3.8119 2.2906
3.8786 4.9621 2.2906
2.6303 5.8811 2.2906
0.5759 3.1941 1.1239
-0.2021 3.2007 1.0791
-2.0328 6.4837 2.2196
-3.4856 5.7641 2.1382
-4.8785 4.8983 2.1382
-6.4579 3.9450 2.2906
-7.3215 2.3426 2.2906
-7.7346 0.5515 2.2906
-7.6539 -1.2920 2.2906
-7.0844 -3.0428 2.2906
-5.6745 -4.2633 2.1382
-4.4144 -5.3757 2.1382
-2.9397 -6.1144 2.1382
-1.4610 -6.9138 2.2906
0.2216 -6.8575 2.2906
1.8003 -6.4162 2.2906
3.1973 -5.6424 2.2906
4.3549 -4.5979 2.2906
5.2332 -3.3481 2.2906
5.8068 -1.9584 2.2906
6.0622 -0.4924 2.2906
5.9951 0.9879 2.2906
5.6090 2.4221 2.2906
4.9154 3.7495 2.2906
3.9347 4.9095 2.2906
2.6981 5.8416 2.2906
0.6157 3.1938 1.1279
-0.1634 3.2004 1.0798
-2.0142 6.7061 2.2906
-3.4115 5.7975 2.1382
-4.8138 4.9503 2.1382
-6.4042 4.0180 2.2906
-7.2885 2.4283 2.2906
-7.7255 0.6435 2.2906
-7.6697 -1.2009 2.2906
-7.1238 -2.9597 2.2906
-5.7299 -4.1988 2.1382
-4.4835 -5.3285 2.1382
-3.0167 -6.0869 2.1382
-1.5461 -6.9058 2.2906
0.1392 -6.8698 2.2906
1.7251 -6.4466 2.2906
3.1328 -5.6880 2.2906
4.3034 -4.6555 2.2906
5.1963 -3.4145 2.2906
5.7856 -2.0303 2.2906
6.0571 -0.5665 2.2906
6.0061 0.9146 2.2906
5.6357 2.3524 2.2906
4.9571 3.6865 2.2906
3.9900 4.8565 2.2906
2.7653 5.8013 2.2906
0.6558 3.1934 1.1320
-0.1247 3.2001 1.0807
-1.9307 6.7200 2.2906
-3.3372 5.8299 2.1382
-4.7484 5.0015 2.1382
-6.3496 4.0903 2.2906
-7.2544 2.5134 2.2906
-7.7151 0.7353 2.2906
-7.6844 -1.1095 2.2906
-7.1622 -2.8759 2.2906
-5.7845 -4.1336 2.1382
-4.5519 -5.2805 2.1382
-3.0936 -6.0584 2.1382
-1.6313 -6.8967 2.2906
0.0566 -6.8812 2.2906
1.6495 -6.4762 2.2906
3.0676 -5.7330 2.2906
4.2512 -4.7127 2.2906
5.1587 -3.4805 2.2906
5.7636 -2.1018 2.2906
6.0512 -0.6407 2.2906
6.0163 0.8410 2.2906
5.6617 2.2825 2.2906
4.9981 3.6233 2.2906
4.0448 4.8028 2.2906
2.8321 5.7603 2.2906
0.6961 3.1931 1.1364
-0.0861 3.1998 1.0817
-0.8795 3.2060 1.0908
-3.2624 5.8613 2.1382
-4.6825 5.0517 2.1382
-6.2942 4.1617 2.2906
-7.2191 2.5981 2.2906
-7.7035 0.8271 2.2906
-7.6978 -1.0180 2.2906
-7.1994 -2.7917 2.2906
-6.2543 -4.3575 2.2906
-4.6199 -5.2315 2.1382
-3.1701 -6.0289 2.1382
-1.7164 -6.8866 2.2906
-0.0264 -6.8916 2.2906
1.5734 -6.5050 2.2906
3.0019 -5.7772 2.2906
4.1983 -4.7693 2.2906
5.1204 -3.5461 2.2906
5.7408 -2.1733 2.2906
6.0445 -0.7147 2.2906
6.0257 0.7674 2.2906
5.6869 2.2123 2.2906
5.0383 3.5595 2.2906
4.0989 4.7489 2.2906
2.8982 5.7187 2.2906
0.7366 3.1927 1.1409
-0.0475 3.1995 1.0829
-0.8381 3.2057 1.0888
-3.1875 5.8917 2.1382
-4.6160 5.1011 2.1382
-6.2378 4.2325 2.2906
-7.1827 2.6822 2.2906
-7.6907 0.9185 2.2906
-7.7100 -0.9262 2.2906
-7.2355 -2.7069 2.2906
-6.3110 -4.2861 2.2906
-4.6872 -5.1816 2.1382
-3.2464 -5.9983 2.1382
-1.8016 -6.8754 2.2906
-0.1094 -6.9009 2.2906
1.4969 -6.5329 2.2906
2.9355 -5.8208 2.2906
4.1447 -4.8253 2.2906
5.0813 -3.6113 2.2906
5.7172 -2.2445 2.2906
6.0369 -0.7887 2.2906
6.0343 0.6936 2.2906
5.7113 2.1419 2.2906
5.0778 3.4954 2.2906
4.1524 4.6938 2.2906
2.9639 5.6763 2.2906
0.7773 3.1923 1.1456
-0.0089 3.1992 1.0843
-0.7970 3.2054 1.0869
-3.1122 5.9212 2.1382
-4.5489 5.1495 2.1382
-6.1806 4.3023 2.2906
-7.1452 2.7658 2.2906
-7.6767 1.0098 2.2906
-7.7209 -0.8343 2.2906
-7.2704 -2.6216 2.2906
-6.3667 -4.2137 2.2906
-4.7540 -5.1308 2.1382
-3.3222 -5.9668 2.1382
-1.8867 -6.8631 2.2906
-0.1928 -6.9094 2.2906
1.4200 -6.5599 2.2906
2.8687 -5.8637 2.2906
4.0905 -4.8808 2.2906
5.0414 -3.6762 2.2906
5.6929 -2.3155 2.2906
6.0286 -0.8626 2.2906
6.0421 0.6199 2.2906
5.7349 2.0712 2.2906
5.1167 3.4309 2.2906
4.2052 4.6386 2.2906
3.0290 5.6333 2.2906
0.8183 3.1920 1.1505
0.0297 3.1988 1.0858
-0.7561 3.2051 1.0853
-3.0367 5.9497 2.1382
-4.4813 5.1970 2.1382
-6.1225 4.3714 2.2906
-7.1067 2.8488 2.2906
-7.6614 1.1008 2.2906
-7.7306 -0.7422 2.2906
-7.3043 -2.5357 2.2906
-6.4215 -4.1407 2.2906
-4.8201 -5.0791 2.1382
-3.3979 -5.9343 2.1382
-1.9718 -6.8498 2.2906
-0.2764 -6.9168 2.2906
1.3427 -6.5861 2.2906
2.8011 -5.9058 2.2906
4.0355 -4.9358 2.2906
5.0007 -3.7407 2.2906
5.6677 -2.3862 2.2906
6.0194 -0.9365 2.2906
6.0491 0.5460 2.2906
5.7578 2.0003 2.2906
5.1547 3.3661 2.2906
4.2574 4.5827 2.2906
3.0935 5.5895 2.2906
0.8595 3.1916 1.1556
0.0683 3.1985 1.0875
-0.7154 3.2048 1.0838
-2.9608 5.9772 2.1382
-4.4131 5.2437 2.1382
-6.0636 4.4396 2.2906
-3.7546 1.5574 1.2170
-7.6449 1.1917 2.2906
-7.7390 -0.6499 2.2906
-7.3369 -2.4495 2.2906
-6.4754 -4.0668 2.2906
-4.8856 -5.0264 2.1382
-3.4732 -5.9007 2.1382
-2.0567 -6.8354 2.2906
-0.3601 -6.9232 2.2906
1.2649 -6.6114 2.2906
2.7330 -5.9473 2.2906
3.9799 -4.9901 2.2906
4.9594 -3.8048 2.2906
5.6417 -2.4567 2.2906
6.0095 -1.0103 2.2906
6.0552 0.4721 2.2906
5.7799 1.9292 2.2906
5.1920 3.3008 2.2906
4.3089 4.5263 2.2906
3.1574 5.5451 2.2906
0.9009 3.1912 1.1609
0.1069 3.1982 1.0893
-0.6750 3.2045 1.0824
-2.8848 6.0037 2.1382
-4.3445 5.2893 2.1382
-6.0038 4.5070 2.2906
-3.7387 1.6033 1.2188
-7.6272 1.2822 2.2906
-7.7462 -0.5577 2.2906
-7.3684 -2.3627 2.2906
-6.5283 -3.9922 2.2906
-4.9505 -4.9729 2.1382
-3.5480 -5.8662 2.1382
-2.1417 -6.8199 2.2906
-0.4441 -6.9286 2.2906
1.1868 -6.6358 2.2906
2.6645 -5.9879 2.2906
3.9235 -5.0440 2.2906
4.9173 -3.8685 2.2906
5.6150 -2.5269 2.2906
5.9987 -1.0840 2.2906
6.0606 0.3980 2.2906
5.8012 1.8578 2.2906
5.2286 3.2352 2.2906
4.3596 4.4695 2.2906
3.2209 5.5000 2.2906
0.9427 3.1908 1.1664
0.1455 3.1979 1.0913
-0.6348 3.2042 1.0813
-2.8085 6.0293 2.1382
-4.2753 5.3341 2.1382
-5.5478 4.2692 2.1382
-6.9845 3.0944 2.2906
-7.6083 1.3726 2.2906
-7.7521 -0.4653 2.2906
-7.3988 -2.2756 2.2906
-6.5802 -3.9169 2.2906
-5.0147 -4.9184 2.1382
-3.6226 -5.8307 2.1382
-2.2264 -6.8034 2.2906
-0.5281 -6.9330 2.2906
1.1082 -6.6593 2.2906
2.5953 -6.0279 2.2906
3.8666 -5.0972 2.2906
4.8745 -3.9317 2.2906
5.5875 -2.5970 2.2906
5.9871 -1.1576 2.2906
6.0652 0.3240 2.2906
5.8217 1.7863 2.2906
5.2645 3.1692 2.2906
4.4098 4.4121 2.2906
3.2836 5.4543 2.2906
0.9847 3.1905 1.1720
0.1842 3.1975 1.0935
-0.5947 3.2039 1.0803
-2.7321 6.0539 2.1382
-4.2058 5.3779 2.1382
-5.4904 4.3306 2.1382
-6.9416 3.1751 2.2906
-7.5882 1.4625 2.2906
-7.7568 -0.3729 2.2906
-7.4279 -2.1879 2.2906
-6.6312 -3.8408 2.2906
-5.0783 -4.8632 2.1382
-3.6967 -5.7942 2.1382
-2.3112 -6.7857 2.2906
-0.6124 -6.9365 2.2906
1.0294 -6.6819 2.2906
2.5257 -6.0671 2.2906
3.8090 -5.1499 2.2906
4.8308 -3.9946 2.2906
5.5592 -2.6667 2.2906
5.9748 -1.2310 2.2906
6.0690 0.2498 2.2906
5.8414 1.7146 2.2906
5.2995 3.1029 2.2906
4.4592 4.3543 2.2906
3.3459 5.4079 2.2906
1.0271 3.1901 1.1779
0.2229 3.1972 1.0958
-0.5549 3.2036 1.0794
-2.6553 6.0775 2.1382
-4.1356 5.4208 2.1382
-5.4324 4.3910 2.1382
-6.8978 3.2551 2.2906
-7.5668 1.5522 2.2906
-7.7602 -0.2803 2.2906
-7.4559 -2.1000 2.2906
-6.6811 -3.7640 2.2906
-5.1412 -4.8069 2.1382
-3.7706 -5.7567 2.1382
-2.3951 -6.7653 2.2900
-0.6967 -6.9388 2.2906
0.9500 -6.7037 2.2906
2.4554 -6.1056 2.2906
3.7507 -5.2019 2.2906
4.7865 -4.0569 2.2906
5.5300 -2.7362 2.2906
5.9616 -1.3044 2.2906
6.0719 0.1757 2.2906
5.8603 1.6427 2.2906
5.3339 3.0368 2.2906
4.5080 4.2958 2.2906
3.4074 5.3609 2.2906
1.0697 3.1897 1.1840
0.2618 3.1969 1.0982
-0.5151 3.2032 1.0788
-2.5785 6.1001 2.1382
-4.0651 5.4627 2.1382
-5.3736 4.4508 2.1382
-6.8529 3.3345 2.2906
-7.5443 1.6415 2.2906
-7.7624 -0.1879 2.2906
-7.4827 -2.0115 2.2906
-6.7301 -3.6865 2.2906
-5.2033 -4.7499 2.1382
-3.8439 -5.7183 2.1382
-2.4006 -6.5306 2.2171
-0.7813 -6.9402 2.2906
0.8705 -6.7245 2.2906
2.3847 -6.1432 2.2906
3.6917 -5.2534 2.2906
4.7414 -4.1189 2.2906
5.5002 -2.8054 2.2906
5.9476 -1.3776 2.2906
6.0741 0.1015 2.2906
5.8785 1.5705 2.2906
5.3675 2.9693 2.2906
4.5560 4.2370 2.2906
3.4685 5.3131 2.2906
2.1413 6.1372 2.2906
0.3006 3.1965 1.1009
-0.4756 3.2029 1.0783
-2.5014 6.1218 2.1382
-3.9940 5.5038 2.1382
-5.3141 4.5097 2.1382
-6.8070 3.4131 2.2906
-7.5205 1.7306 2.2906
-7.7633 -0.0952 2.2906
-7.5083 -1.9228 2.2906
-6.7780 -3.6084 2.2906
-5.2649 -4.6920 2.1382
-3.9169 -5.6788 2.1382
-2.4057 -6.3101 2.1488
-0.8659 -6.9405 2.2906
0.7904 -6.7444 2.2906
2.3133 -6.1801 2.2906
3.6322 -5.3042 2.2906
4.6957 -4.1804 2.2906
5.4695 -2.8743 2.2906
5.9328 -1.4508 2.2906
6.0754 0.0273 2.2906
5.8958 1.4983 2.2906
5.4003 2.9019 2.2906
4.6034 4.1777 2.2906
3.5289 5.2649 2.2906
2.2126 6.1029 2.2906
0.3396 3.1962 1.1036
-0.4362 3.2026 1.0779
-2.4243 6.1424 2.1382
-3.9227 5.5438 2.1382
-5.2539 4.5678 2.1382
-6.7600 3.4913 2.2906
-7.4956 1.8192 2.2906
-7.7629 -0.0028 2.2906
-7.5328 -1.8336 2.2906
-6.8250 -3.5295 2.2906
-5.3256 -4.6333 2.1382
-3.9893 -5.6385 2.1382
-2.4724 -6.2584 2.1382
-0.9507 -6.9398 2.2906
0.7102 -6.7633 2.2906
2.2416 -6.2162 2.2906
3.5719 -5.3545 2.2906
4.6491 -4.2415 2.2906
5.4381 -2.9429 2.2906
5.9172 -1.5237 2.2906
6.0760 -0.0470 2.2906
5.9124 1.4258 2.2906
5.4324 2.8348 2.2906
4.6501 4.1179 2.2906
3.5887 5.2159 2.2906
2.2835 6.0678 2.2906
0.3786 3.1959 1.1066
-0.3970 3.2023 1.0777
-2.3469 6.1621 2.1382
-3.8508 5.5829 2.1382
-5.1930 4.6250 2.1382
-6.7121 3.5687 2.2906
-7.4695 1.9075 2.2906
-7.7613 0.0898 2.2906
-7.5560 -1.7441 2.2906
-6.8708 -3.4500 2.2906
-5.3857 -4.5736 2.1382
-4.0614 -5.5970 2.1382
-2.5507 -6.2370 2.1382
-1.0356 -6.9381 2.2906
0.6295 -6.7814 2.2906
2.1692 -6.2516 2.2906
3.5111 -5.4040 2.2906
4.6019 -4.3021 2.2906
5.4058 -3.0113 2.2906
5.9008 -1.5966 2.2906
6.0757 -0.1212 2.2906
5.9282 1.3533 2.2906
5.4638 2.7663 2.2906
4.6961 4.0576 2.2906
3.6479 5.1664 2.2906
2.3538 6.0320 2.2906
0.4178 3.1955 1.1097
-0.3578 3.2020 1.0777
-2.2694 6.1809 2.1382
-3.7785 5.6211 2.1382
-5.1314 4.6814 2.1382
-6.6632 3.6454 2.2906
-7.4423 1.9953 2.2906
-7.7585 0.1822 2.2906
-7.5780 -1.6543 2.2906
-6.9157 -3.3698 2.2906
-5.4450 -4.5132 2.1382
-4.1329 -5.5547 2.1382
-2.6290 -6.2145 2.1382
-1.1205 -6.9353 2.2906
0.5484 -6.7985 2.2906
2.0965 -6.2861 2.2906
3.4496 -5.4530 2.2906
4.5539 -4.3622 2.2906
5.3728 -3.0793 2.2906
5.8836 -1.6692 2.2906
6.0746 -0.1955 2.2906
5.9431 1.2805 2.2906
5.4944 2.6980 2.2906
4.7413 3.9969 2.2906
3.7065 5.1162 2.2906
2.4237 5.9954 2.2906
0.4541 3.1945 1.1945
-0.3217 3.2010 1.1588
-2.0615 5.8138 2.1608
-3.4390 5.2418 2.1382
-4.6941 4.3807 2.1382
-6.1140 3.4365 2.2906
-6.8463 1.9213 2.2906
-7.1568 0.2529 2.2906
-7.0134 -1.4427 2.2906
-6.4275 -3.0349 2.2906
-5.0891 -4.1121 2.1382
-3.8945 -5.0981 2.1382
-2.5140 -5.7366 2.1382
-1.1253 -6.4348 2.2906
0.4285 -6.3383 2.2906
1.8790 -5.8887 2.2906
3.1554 -5.1343 2.2906
4.2044 -4.1326 2.2906
4.9889 -2.9444 2.2906
5.4855 -1.6311 2.2906
5.6816 -0.2532 2.2906
5.5735 1.1303 2.2906
5.1660 2.4610 2.2906
4.4717 3.6811 2.2906
3.5124 4.7330 2.2906
2.3210 5.5596 2.2906
0.4935 3.1941 1.1981
-0.2827 3.2007 1.1590
-2.0459 5.9979 2.2229
-3.3717 5.2759 2.1382
-4.6363 4.4316 2.1382
-6.0675 3.5062 2.2906
-6.8193 2.0016 2.2906
-7.1520 0.3381 2.2906
-7.0314 -1.3593 2.2906
-6.4667 -2.9596 2.2906
-5.1422 -4.0545 2.1382
-3.9595 -5.0567 2.1382
-2.5859 -5.7133 2.1382
-1.2041 -6.4297 2.2906
0.3526 -6.3519 2.2906
1.8101 -5.9188 2.2906
3.0966 -5.1784 2.2906
4.1580 -4.1876 2.2906
4.9564 -3.0073 2.2906
5.4678 -1.6988 2.2906
5.6790 -0.3227 2.2906
5.5861 1.0619 2.2906
5.1933 2.3966 2.2906
4.5129 3.6236 2.2906
3.5662 4.6853 2.2906
2.3855 5.5245 2.2906
0.5331 3.1938 1.2019
-0.2439 3.2004 1.1593
-2.0294 6.1920 2.2889
-3.3040 5.3091 2.1382
-4.5779 4.4817 2.1382
-6.0200 3.5753 2.2906
-6.7912 2.0816 2.2906
-7.1460 0.4232 2.2906
-7.0482 -1.2756 2.2906
-6.5048 -2.8838 2.2906
-5.1945 -3.9962 2.1382
-4.0240 -5.0145 2.1382
-2.6575 -5.6892 2.1382
-1.2830 -6.4236 2.2906
0.2764 -6.3645 2.2906
0.9132 -3.1203 1.2016
3.0373 -5.2219 2.2906
4.1109 -4.2422 2.2906
4.9231 -3.0699 2.2906
5.4493 -1.7663 2.2906
5.6756 -0.3922 2.2906
5.5979 0.9934 2.2906
5.2199 2.3320 2.2906
4.5535 3.5657 2.2906
3.6194 4.6370 2.2906
2.4494 5.4887 2.2906
0.5728 3.1934 1.2059
-0.2051 3.2001 1.1598
-1.9537 6.2121 2.2906
-3.2359 5.3413 2.1382
-4.5190 4.5310 2.1382
-5.5744 3.4012 2.1382
-6.7621 2.1612 2.2906
-7.1388 0.5081 2.2906
-7.0639 -1.1918 2.2906
-6.5420 -2.8075 2.2906
-5.2461 -3.9372 2.1382
-4.0881 -4.9714 2.1382
-2.7289 -5.6641 2.1382
-1.3619 -6.4165 2.2906
0.2000 -6.3763 2.2906
1.6710 -5.9768 2.2906
2.9773 -5.2647 2.2906
4.0632 -4.2963 2.2906
4.8892 -3.1321 2.2906
5.4300 -1.8337 2.2906
5.6715 -0.4616 2.2906
5.6090 0.9247 2.2906
5.2458 2.2670 2.2906
4.5933 3.5074 2.2906
3.6720 4.5882 2.2906
2.5129 5.4522 2.2906
0.6127 3.1931 1.2101
-0.1664 3.1997 1.1605
-1.8763 6.2265 2.2906
-3.1676 5.3727 2.1382
-4.4594 4.5795 2.1382
-5.5285 3.4644 2.1382
-6.7319 2.2403 2.2906
-7.1306 0.5930 2.2906
-7.0785 -1.1077 2.2906
-6.5781 -2.7307 2.2906
-5.2969 -3.8774 2.1382
-4.1516 -4.9274 2.1382
-2.8000 -5.6381 2.1382
-1.4408 -6.4085 2.2906
0.1234 -6.3872 2.2906
1.6009 -6.0047 2.2906
2.9169 -5.3069 2.2906
4.0148 -4.3498 2.2906
4.8545 -3.1940 2.2906
5.4100 -1.9008 2.2906
5.6667 -0.5311 2.2906
5.6193 0.8560 2.2906
5.2710 2.2019 2.2906
4.6326 3.4487 2.2906
3.7240 4.5388 2.2906
2.5759 5.4150 2.2906
0.6527 3.1927 1.2144
-0.1277 3.1994 1.1614
-1.7988 6.2400 2.2906
-3.0989 5.4033 2.1382
-4.3993 4.6272 2.1382
-5.4818 3.5270 2.1382
-6.7007 2.3188 2.2906
-7.1212 0.6777 2.2906
-7.0920 -1.0235 2.2906
-6.6132 -2.6533 2.2906
-5.3469 -3.8170 2.1382
-4.2146 -4.8826 2.1382
-2.8709 -5.6112 2.1382
-1.5198 -6.3994 2.2906
0.0465 -6.3971 2.2906
1.5303 -6.0317 2.2906
2.8559 -5.3484 2.2906
3.9657 -4.4029 2.2906
4.8191 -3.2555 2.2906
5.3892 -1.9678 2.2906
5.6611 -0.6004 2.2906
5.6289 0.7871 2.2906
5.2954 2.1364 2.2906
4.6711 3.3896 2.2906
3.7755 4.4889 2.2906
2.6384 5.3771 2.2906
0.6930 3.1924 1.2190
-0.0890 3.1991 1.1624
-0.8824 3.2053 1.1743
-3.0299 5.4329 2.1382
-4.3386 4.6741 2.1382
-5.4343 3.5886 2.1382
-6.6685 2.3973 2.2906
-7.1107 0.7622 2.2906
-7.1043 -0.9390 2.2906
-6.6474 -2.5755 2.2906
-5.3963 -3.7558 2.1382
-4.2771 -4.8369 2.1382
-2.9415 -5.5833 2.1382
-1.5986 -6.3894 2.2906
-0.0305 -6.4062 2.2906
1.4593 -6.0580 2.2906
2.7943 -5.3893 2.2906
3.9161 -4.4555 2.2906
4.7830 -3.3168 2.2906
5.3677 -2.0346 2.2906
5.6547 -0.6698 2.2906
5.6377 0.7182 2.2906
5.3191 2.0708 2.2906
4.7090 3.3302 2.2906
3.8263 4.4385 2.2906
2.7003 5.3386 2.2906
0.7335 3.1920 1.2237
-0.0504 3.1988 1.1636
-0.8410 3.2050 1.1720
-2.9607 5.4616 2.1382
-4.2775 4.7202 2.1382
-5.3860 3.6501 2.1382
-6.6352 2.4749 2.2906
-7.0990 0.8466 2.2906
-7.1155 -0.8544 2.2906
-6.6804 -2.4972 2.2906
-5.4448 -3.6940 2.1382
-4.3390 -4.7905 2.1382
-3.0119 -5.5546 2.1382
-1.6775 -6.3784 2.2906
-0.1078 -6.4143 2.2906
1.3879 -6.0834 2.2906
2.7322 -5.4295 2.2906
3.8657 -4.5076 2.2906
4.7462 -3.3776 2.2906
5.3455 -2.1012 2.2906
5.6475 -0.7390 2.2906
5.6458 0.6491 2.2906
5.3421 2.0049 2.2906
4.7461 3.2703 2.2906
3.8765 4.3876 2.2906
2.7618 5.2994 2.2906
0.7742 3.1916 1.2287
-0.0119 3.1985 1.1649
-0.7999 3.2047 1.1699
-2.8911 5.4894 2.1382
-4.2158 4.7654 2.1382
-5.3371 3.7106 2.1382
-6.6009 2.5522 2.2906
-7.0862 0.9308 2.2906
-7.1255 -0.7696 2.2906
-6.7125 -2.4184 2.2906
-5.4925 -3.6315 2.1382
-4.4004 -4.7431 2.1382
-3.0819 -5.5249 2.1382
-1.7562 -6.3665 2.2906
-0.1852 -6.4215 2.2906
1.3162 -6.1080 2.2906
2.6696 -5.4691 2.2906
3.8148 -4.5591 2.2906
4.7086 -3.4381 2.2906
5.3225 -2.1675 2.2906
5.6396 -0.8083 2.2906
5.6531 0.5800 2.2906
5.3643 1.9388 2.2906
4.7826 3.2101 2.2906
3.9261 4.3361 2.2906
2.8228 5.2596 2.2906
0.8151 3.1913 1.2338
0.0267 3.1981 1.1665
-0.7590 3.2044 1.1680
-2.8213 5.5163 2.1382
-4.1535 4.8098 2.1382
-5.2873 3.7704 2.1382
-6.5657 2.6289 2.2906
-7.0723 1.0148 2.2906
-7.1344 -0.6847 2.2906
-6.7435 -2.3392 2.2906
-5.5394 -3.5683 2.1382
-4.4612 -4.6949 2.1382
-3.1516 -5.4943 2.1382
-1.8350 -6.3535 2.2906
-0.2628 -6.4278 2.2906
1.2441 -6.1319 2.2906
2.6064 -5.5079 2.2906
3.7632 -4.6101 2.2906
4.6704 -3.4982 2.2906
5.2987 -2.2336 2.2906
5.6310 -0.8774 2.2906
5.6597 0.5108 2.2906
5.3858 1.8724 2.2906
4.8184 3.1495 2.2906
3.9750 4.2842 2.2906
2.8832 5.2191 2.2906
0.8563 3.1909 1.2392
0.0653 3.1978 1.1682
-0.7183 3.2041 1.1663
-2.7513 5.5424 2.1382
-4.0908 4.8533 2.1382
-5.2368 3.8295 2.1382
-3.7551 1.5558 1.3174
-7.0573 1.0986 2.2906
-7.1422 -0.5998 2.2906
-6.7734 -2.2596 2.2906
-5.5855 -3.5045 2.1382
-4.5214 -4.6459 2.1382
-3.2210 -5.4628 2.1382
-1.9136 -6.3395 2.2906
-0.3406 -6.4332 2.2906
1.1716 -6.1549 2.2906
2.5428 -5.5461 2.2906
3.7110 -4.6606 2.2906
4.6315 -3.5580 2.2906
5.2743 -2.2995 2.2906
5.6215 -0.9465 2.2906
5.6654 0.4416 2.2906
5.4066 1.8061 2.2906
4.8535 3.0885 2.2906
4.0234 4.2317 2.2906
2.9432 5.1779 2.2906
0.8977 3.1905 1.2447
0.1039 3.1975 1.1700
-0.6779 3.2038 1.1648
-2.6810 5.5675 2.1382
-4.0276 4.8961 2.1382
-5.1856 3.8880 2.1382
-3.7375 1.6009 1.3187
-7.0411 1.1822 2.2906
-7.1488 -0.5146 2.2906
-6.8023 -2.1795 2.2906
-5.6308 -3.4398 2.1382
-4.5810 -4.5961 2.1382
-3.2901 -5.4304 2.1382
-1.9922 -6.3246 2.2906
-0.4186 -6.4376 2.2906
1.0987 -6.1770 2.2906
2.4786 -5.5836 2.2906
3.6582 -4.7106 2.2906
4.5919 -3.6173 2.2906
5.2490 -2.3652 2.2906
5.6113 -1.0154 2.2906
5.6705 0.3723 2.2906
5.4266 1.7391 2.2906
4.8879 3.0272 2.2906
4.0711 4.1787 2.2906
3.0026 5.1362 2.2906
0.9395 3.1901 1.2505
0.1426 3.1972 1.1721
-0.6376 3.2035 1.1634
-2.6105 5.5917 2.1382
-3.9639 4.9379 2.1382
-5.1337 3.9457 2.1382
-6.4539 2.8561 2.2906
-7.0239 1.2655 2.2906
-7.1543 -0.4295 2.2906
-6.8301 -2.0991 2.2906
-5.6753 -3.3750 2.1382
-4.6401 -4.5455 2.1382
-3.3588 -5.3970 2.1382
-2.0706 -6.3087 2.2906
-0.4967 -6.4411 2.2906
1.0255 -6.1984 2.2906
2.4139 -5.6204 2.2906
3.6047 -4.7599 2.2906
4.5515 -3.6762 2.2906
5.2231 -2.4306 2.2906
5.6004 -1.0843 2.2906
5.6747 0.3029 2.2906
5.4459 1.6722 2.2906
4.9216 2.9656 2.2906
4.1182 4.1253 2.2906
3.0614 5.0938 2.2906
0.9815 3.1897 1.2565
0.1812 3.1968 1.1743
-0.5976 3.2032 1.1622
-2.5398 5.6151 2.1382
-3.8998 4.9789 2.1382
-5.0811 4.0027 2.1382
-6.4147 2.9307 2.2906
-7.0055 1.3485 2.2906
-7.1586 -0.3442 2.2906
-6.8568 -2.0182 2.2906
-5.7189 -3.3093 2.1382
-4.6985 -4.4941 2.1382
-3.4272 -5.3628 2.1382
-2.1490 -6.2917 2.2906
-0.5749 -6.4436 2.2906
0.9520 -6.2189 2.2906
2.3487 -5.6565 2.2906
3.5507 -4.8088 2.2906
4.5105 -3.7348 2.2906
5.1964 -2.4958 2.2906
5.5887 -1.1531 2.2906
5.6783 0.2335 2.2906
5.4645 1.6050 2.2906
4.9547 2.9036 2.2906
4.1646 4.0715 2.2906
3.1197 5.0508 2.2906
1.0238 3.1893 1.2627
0.2200 3.1965 1.1766
-0.5577 3.2028 1.1612
-2.4689 5.6375 2.1382
-3.8352 5.0191 2.1382
-5.0278 4.0589 2.1382
-6.3746 3.0047 2.2906
-6.9860 1.4313 2.2906
-7.1618 -0.2589 2.2906
-6.8825 -1.9370 2.2906
-5.7617 -3.2430 2.1382
-4.7563 -4.4419 2.1382
-3.4952 -5.3277 2.1382
-2.2272 -6.2738 2.2906
-0.6533 -6.4453 2.2906
0.8781 -6.2385 2.2906
2.2830 -5.6919 2.2906
3.4960 -4.8570 2.2906
4.4688 -3.7929 2.2906
5.1689 -2.5606 2.2906
5.5762 -1.2218 2.2906
5.6810 0.1640 2.2906
5.4823 1.5377 2.2906
4.9870 2.8413 2.2906
4.2104 4.0170 2.2906
3.1775 5.0072 2.2906
1.0665 3.1889 1.2692
0.2588 3.1962 1.1792
-0.5181 3.2025 1.1604
-2.3978 5.6590 2.1382
-3.7702 5.0584 2.1382
-4.9739 4.1145 2.1382
-6.3335 3.0782 2.2906
-6.9655 1.5138 2.2906
-7.1638 -0.1736 2.2906
-6.9070 -1.8554 2.2906
-6.2172 -3.4024 2.2906
-4.8134 -4.3888 2.1382
-3.5628 -5.2916 2.1382
-2.3053 -6.2549 2.2906
-0.7317 -6.4459 2.2906
0.8039 -6.2573 2.2906
2.2169 -5.7265 2.2906
3.4407 -4.9047 2.2906
4.4265 -3.8506 2.2906
5.1408 -2.6254 2.2906
5.5630 -1.2903 2.2906
5.6830 0.0945 2.2906
5.4993 1.4702 2.2906
5.0186 2.7787 2.2906
4.2556 3.9621 2.2906
3.2347 4.9630 2.2906
1.9919 5.7246 2.2906
0.2976 3.1959 1.1819
-0.4785 3.2022 1.1597
-2.3266 5.6796 2.1382
-3.7048 5.0968 2.1382
-4.9192 4.1692 2.1382
-6.2914 3.1511 2.2906
-6.9438 1.5959 2.2906
-7.1647 -0.0883 2.2906
-6.9305 -1.7735 2.2906
-6.2612 -3.3301 2.2906
-4.8699 -4.3351 2.1382
-3.6299 -5.2547 2.1382
-2.3802 -6.2272 2.2878
-0.8102 -6.4456 2.2906
0.7294 -6.2752 2.2906
2.1503 -5.7604 2.2906
3.3848 -4.9518 2.2906
4.3834 -3.9079 2.2906
5.1119 -2.6897 2.2906
5.5490 -1.3587 2.2906
5.6842 0.0250 2.2906
5.5157 1.4026 2.2906
5.0495 2.7158 2.2906
4.3001 3.9068 2.2906
3.2914 4.9182 2.2906
2.0586 5.6931 2.2906
0.3366 3.1955 1.1848
-0.4391 3.2019 1.1592
-2.2552 5.6994 2.1382
-3.6390 5.1344 2.1382
-4.8639 4.2232 2.1382
-6.2485 3.2234 2.2906
-6.9211 1.6778 2.2906
-7.1644 -0.0030 2.2906
-6.9529 -1.6913 2.2906
-6.3042 -3.2572 2.2906
-4.9257 -4.2805 2.1382
-3.6967 -5.2169 2.1382
-2.3857 -6.0241 2.2206
-0.8889 -6.4443 2.2906
0.6547 -6.2923 2.2906
2.0832 -5.7936 2.2906
3.3284 -4.9983 2.2906
4.3397 -3.9647 2.2906
5.0822 -2.7538 2.2906
5.5343 -1.4270 2.2906
5.6847 -0.0445 2.2906
5.5312 1.3347 2.2906
5.0797 2.6525 2.2906
4.3440 3.8511 2.2906
3.3475 4.8727 2.2906
2.1249 5.6608 2.2906
0.3756 3.1952 1.1878
-0.3999 3.2016 1.1589
-2.1836 5.7182 2.1382
-3.5727 5.1710 2.1382
-4.8080 4.2765 2.1382
-6.2046 3.2950 2.2906
-6.8972 1.7592 2.2906
-7.1630 0.0823 2.2906
-6.9742 -1.6087 2.2906
-6.3463 -3.1837 2.2906
-4.9808 -4.2251 2.1382
-3.7631 -5.1782 2.1382
-2.3908 -5.8319 2.1573
-0.9676 -6.4421 2.2906
0.5796 -6.3085 2.2906
2.0156 -5.8260 2.2906
3.2713 -5.0443 2.2906
4.2953 -4.0211 2.2906
5.0519 -2.8176 2.2906
5.5188 -1.4952 2.2906
5.6844 -0.1140 2.2906
5.5461 1.2668 2.2906
5.1091 2.5890 2.2906
4.3872 3.7949 2.2906
3.4030 4.8268 2.2906
2.1907 5.6278 2.2906
0.4148 3.1948 1.1911
-0.3607 3.2013 1.1588
-2.1119 5.7361 2.1382
-3.5061 5.2069 2.1382
-4.7514 4.3289 2.1382
-6.1598 3.3660 2.2906
-6.8724 1.8404 2.2906
-7.1605 0.1676 2.2906
-6.9944 -1.5259 2.2906
-6.3873 -3.1096 2.2906
-5.0353 -4.1690 2.1382
-3.8290 -5.1386 2.1382
-2.4419 -5.7589 2.1382
-1.0464 -6.4389 2.2906
0.5042 -6.3238 2.2906
1.9476 -5.8577 2.2906
3.2137 -5.0896 2.2906
4.2502 -4.0771 2.2906
5.0208 -2.8812 2.2906
5.5025 -1.5632 2.2906
5.6834 -0.1836 2.2906
5.5602 1.1986 2.2906
5.1379 2.5251 2.2906
4.4297 3.7382 2.2906
3.4580 4.7802 2.2906
2.2561 5.5941 2.2906
0.4541 3.1945 1.1945
-0.3217 3.2010 1.1588
-2.0615 5.8138 2.1608
-3.4391 5.2418 2.1382
-4.6942 4.3806 2.1382
-6.1141 3.4364 2.2906
-6.8464 1.9212 2.2906
-7.1568 0.2528 2.2906
-7.0134 -1.4427 2.2906
-6.4275 -3.0349 2.2906
-5.0891 -4.1122 2.1382
-3.8944 -5.0981 2.1382
-2.5140 -5.7366 2.1382
-1.1252 -6.4348 2.2906
0.4285 -6.3383 2.2906
1.8791 -5.8886 2.2906
3.1554 -5.1343 2.2906
4.2044 -4.1326 2.2906
4.9890 -2.9444 2.2906
5.4855 -1.6310 2.2906
5.6816 -0.2531 2.2906
5.5735 1.1304 2.2906
5.1660 2.4611 2.2906
4.4716 3.6812 2.2906
3.5124 4.7330 2.2906
2.3210 5.5596 2.2906
0.4935 3.1941 1.1981
-0.2828 3.2007 1.1590
-2.0459 5.9977 2.2229
-3.3717 5.2759 2.1382
-4.6364 4.4315 2.1382
-6.0675 3.5061 2.2906
-6.8193 2.0016 2.2906
-7.1520 0.3380 2.2906
-7.0314 -1.3593 2.2906
-6.4666 -2.9597 2.2906
-5.1421 -4.0546 2.1382
-3.9594 -5.0567 2.1382
-2.5858 -5.7133 2.1382
-1.2041 -6.4297 2.2906
0.3526 -6.3518 2.2906
1.8102 -5.9188 2.2906
3.0967 -5.1784 2.2906
4.1580 -4.1876 2.2906
4.9564 -3.0072 2.2906
5.4678 -1.6987 2.2906
5.6790 -0.3226 2.2906
5.5861 1.0620 2.2906
5.1933 2.3967 2.2906
4.5128 3.6237 2.2906
3.5662 4.6853 2.2906
2.3854 5.5245 2.2906
0.5330 3.1938 1.2019
-0.2439 3.2004 1.1593
-2.0294 6.1918 2.2888
-3.3040 5.3090 2.1382
-4.5780 4.4817 2.1382
-6.0201 3.5752 2.2906
-6.7912 2.0815 2.2906
-7.1460 0.4231 2.2906
-7.0482 -1.2756 2.2906
-6.5048 -2.8839 2.2906
-5.1944 -3.9963 2.1382
-4.0240 -5.0145 2.1382
-2.6574 -5.6892 2.1382
-1.2829 -6.4236 2.2906
0.2765 -6.3645 2.2906
0.9132 -3.1202 1.2016
3.0373 -5.2219 2.2906
4.1109 -4.2421 2.2906
4.9232 -3.0698 2.2906
5.4493 -1.7663 2.2906
5.6756 -0.3921 2.2906
5.5979 0.9934 2.2906
5.2199 2.3320 2.2906
4.5534 3.5658 2.2906
3.6193 4.6371 2.2906
2.4493 5.4887 2.2906
0.5728 3.1934 1.2059
-0.2051 3.2001 1.1598
-1.9538 6.2121 2.2906
-3.2360 5.3413 2.1382
-4.5190 4.5310 2.1382
-5.5744 3.4012 2.1382
-6.7621 2.1610 2.2906
-7.1389 0.5080 2.2906
-7.0639 -1.1918 2.2906
-6.5419 -2.8076 2.2906
-5.2460 -3.9373 2.1382
-4.0880 -4.9714 2.1382
-2.7288 -5.6641 2.1382
-1.3619 -6.4165 2.2906
0.2001 -6.3763 2.2906
1.6711 -5.9768 2.2906
2.9774 -5.2647 2.2906
4.0632 -4.2962 2.2906
4.8892 -3.1320 2.2906
5.4300 -1.8336 2.2906
5.6715 -0.4616 2.2906
5.6090 0.9248 2.2906
5.2458 2.2671 2.2906
4.5933 3.5075 2.2906
3.6720 4.5882 2.2906
2.5128 5.4522 2.2906
0.6126 3.1931 1.2101
-0.1664 3.1997 1.1605
-1.8764 6.2265 2.2906
-3.1676 5.3727 2.1382
-4.4595 4.5794 2.1382
-5.5285 3.4643 2.1382
-6.7319 2.2402 2.2906
-7.1306 0.5929 2.2906
-7.0785 -1.1078 2.2906
-6.5781 -2.7308 2.2906
-5.2968 -3.8775 2.1382
-4.1515 -4.9274 2.1382
-2.7999 -5.6382 2.1382
-1.4407 -6.4085 2.2906
0.1234 -6.3872 2.2906
1.6009 -6.0047 2.2906
2.9170 -5.3068 2.2906
4.0148 -4.3498 2.2906
4.8545 -3.1939 2.2906
5.4100 -1.9008 2.2906
5.6667 -0.5309 2.2906
5.6193 0.8561 2.2906
5.2709 2.2019 2.2906
4.6325 3.4488 2.2906
3.7240 4.5389 2.2906
2.5758 5.4150 2.2906
0.6527 3.1927 1.2144
-0.1277 3.1994 1.1614
-1.7989 6.2399 2.2906
-3.0990 5.4032 2.1382
-4.3994 4.6272 2.1382
-5.4818 3.5269 2.1382
-6.7007 2.3188 2.2906
-7.1212 0.6776 2.2906
-7.0919 -1.0235 2.2906
-6.6132 -2.6534 2.2906
-5.3469 -3.8171 2.1382
-4.2145 -4.8827 2.1382
-2.8708 -5.6112 2.1382
-1.5197 -6.3994 2.2906
0.0467 -6.3971 2.2906
1.5304 -6.0317 2.2906
2.8559 -5.3484 2.2906
3.9658 -4.4029 2.2906
4.8191 -3.2555 2.2906
5.3893 -1.9677 2.2906
5.6611 -0.6004 2.2906
5.6289 0.7872 2.2906
5.2954 2.1365 2.2906
4.6710 3.3897 2.2906
3.7754 4.4890 2.2906
2.6383 5.3771 2.2906
0.6929 3.1924 1.2190
-0.0891 3.1991 1.1624
-0.8825 3.2053 1.1743
-3.0300 5.4328 2.1382
-4.3388 4.6740 2.1382
-5.4344 3.5886 2.1382
-6.6685 2.3971 2.2906
-7.1107 0.7622 2.2906
-7.1043 -0.9391 2.2906
-6.6473 -2.5756 2.2906
-5.3962 -3.7559 2.1382
-4.2770 -4.8370 2.1382
-2.9414 -5.5834 2.1382
-1.5985 -6.3894 2.2906
-0.0305 -6.4062 2.2906
1.4594 -6.0580 2.2906
2.7944 -5.3893 2.2906
3.9161 -4.4554 2.2906
4.7830 -3.3167 2.2906
5.3677 -2.0345 2.2906
5.6547 -0.6697 2.2906
5.6377 0.7183 2.2906
5.3191 2.0709 2.2906
4.7089 3.3302 2.2906
3.8262 4.4386 2.2906
2.7003 5.3386 2.2906
0.7334 3.1920 1.2237
-0.0505 3.1988 1.1636
-0.8411 3.2050 1.1720
-2.9608 5.4615 2.1382
-4.2775 4.7201 2.1382
-5.3861 3.6500 2.1382
-6.6353 2.4748 2.2906
-7.0990 0.8465 2.2906
-7.1154 -0.8545 2.2906
-6.6804 -2.4973 2.2906
-5.4447 -3.6941 2.1382
-4.3389 -4.7905 2.1382
-3.0118 -5.5546 2.1382
-1.6774 -6.3784 2.2906
-0.1077 -6.4143 2.2906
1.3880 -6.0834 2.2906
2.7323 -5.4295 2.2906
3.8658 -4.5075 2.2906
4.7462 -3.3775 2.2906
5.3455 -2.1011 2.2906
5.6475 -0.7390 2.2906
5.6458 0.6492 2.2906
5.3420 2.0050 2.2906
4.7461 3.2704 2.2906
3.8764 4.3876 2.2906
2.7618 5.2994 2.2906
0.7741 3.1916 1.2287
-0.0119 3.1985 1.1649
-0.7999 3.2047 1.1699
-2.8912 5.4894 2.1382
-4.2159 4.7653 2.1382
-5.3371 3.7105 2.1382
-6.6010 2.5521 2.2906
-7.0862 0.9308 2.2906
-7.1255 -0.7698 2.2906
-6.7124 -2.4186 2.2906
-5.4924 -3.6316 2.1382
-4.4003 -4.7431 2.1382
-3.0818 -5.5250 2.1382
-1.7561 -6.3665 2.2906
-0.1852 -6.4215 2.2906
1.3162 -6.1080 2.2906
2.6697 -5.4690 2.2906
3.8149 -4.5590 2.2906
4.7087 -3.4380 2.2906
5.3225 -2.1675 2.2906
5.6396 -0.8081 2.2906
5.6531 0.5801 2.2906
5.3643 1.9388 2.2906
4.7826 3.2101 2.2906
3.9260 4.3362 2.2906
2.8227 5.2596 2.2906
0.8151 3.1913 1.2338
0.0267 3.1981 1.1665
-0.7591 3.2044 1.1680
-2.8214 5.5163 2.1382
-4.1536 4.8097 2.1382
-5.2874 3.7704 2.1382
-6.5657 2.6288 2.2906
-7.0723 1.0147 2.2906
-7.1344 -0.6848 2.2906
-6.7434 -2.3393 2.2906
-5.5393 -3.5685 2.1382
-4.4611 -4.6950 2.1382
-3.1515 -5.4943 2.1382
-1.8349 -6.3535 2.2906
-0.2628 -6.4278 2.2906
1.2442 -6.1318 2.2906
2.6065 -5.5079 2.2906
3.7632 -4.6101 2.2906
4.6704 -3.4982 2.2906
5.2988 -2.2335 2.2906
5.6310 -0.8773 2.2906
5.6596 0.5109 2.2906
5.3858 1.8725 2.2906
4.8184 3.1496 2.2906
3.9750 4.2842 2.2906
2.8832 5.2191 2.2906
0.8563 3.1909 1.2392
0.0653 3.1978 1.1682
-0.7184 3.2041 1.1663
-2.7514 5.5424 2.1382
-4.0909 4.8533 2.1382
-5.2369 3.8295 2.1382
-3.7551 1.5557 1.3173
-7.0573 1.0986 2.2906
-7.1422 -0.5998 2.2906
-6.7733 -2.2597 2.2906
-5.5855 -3.5046 2.1382
-4.5214 -4.6460 2.1382
-3.2210 -5.4628 2.1382
-1.9135 -6.3396 2.2906
-0.3406 -6.4332 2.2906
1.1716 -6.1548 2.2906
2.5428 -5.5461 2.2906
3.7111 -4.6605 2.2906
4.6315 -3.5579 2.2906
5.2743 -2.2995 2.2906
5.6215 -0.9464 2.2906
5.6654 0.4417 2.2906
5.4066 1.8064 2.2906
4.8535 3.0886 2.2906
4.0233 4.2317 2.2906
2.9431 5.1780 2.2906
0.8977 3.1905 1.2447
0.1039 3.1975 1.1700
-0.6779 3.2038 1.1648
-2.6811 5.5675 2.1382
-4.0277 4.8960 2.1382
-5.1857 3.8880 2.1382
-3.7375 1.6009 1.3187
-7.0412 1.1821 2.2906
-7.1488 -0.5147 2.2906
-6.8022 -2.1796 2.2906
-5.6308 -3.4398 2.1382
-4.5810 -4.5962 2.1382
-3.2900 -5.4304 2.1382
-1.9921 -6.3246 2.2906
-0.4185 -6.4376 2.2906
1.0988 -6.1770 2.2906
2.4787 -5.5836 2.2906
3.6582 -4.7105 2.2906
4.5919 -3.6173 2.2906
5.2491 -2.3651 2.2906
5.6114 -1.0154 2.2906
5.6705 0.3723 2.2906
5.4266 1.7392 2.2906
4.8879 3.0273 2.2906
4.0710 4.1788 2.2906
3.0025 5.1362 2.2906
0.9394 3.1901 1.2505
0.1425 3.1972 1.1720
-0.6377 3.2035 1.1634
-2.6106 5.5917 2.1382
-3.9640 4.9379 2.1382
-5.1338 3.9456 2.1382
-6.4540 2.8560 2.2906
-7.0239 1.2654 2.2906
-7.1543 -0.4295 2.2906
-6.8300 -2.0992 2.2906
-5.6752 -3.3751 2.1382
-4.6400 -4.5456 2.1382
-3.3588 -5.3971 2.1382
-2.0705 -6.3087 2.2906
-0.4966 -6.4411 2.2906
1.0256 -6.1983 2.2906
2.4139 -5.6204 2.2906
3.6048 -4.7599 2.2906
4.5516 -3.6762 2.2906
5.2231 -2.4306 2.2906
5.6004 -1.0843 2.2906
5.6747 0.3030 2.2906
5.4459 1.6723 2.2906
4.9216 2.9656 2.2906
4.1181 4.1254 2.2906
3.0613 5.0939 2.2906
0.9814 3.1897 1.2565
0.1812 3.1968 1.1743
-0.5976 3.2032 1.1622
-2.5399 5.6150 2.1382
-3.8999 4.9789 2.1382
-5.0812 4.0026 2.1382
-6.4147 2.9306 2.2906
-7.0055 1.3484 2.2906
-7.1586 -0.3443 2.2906
-6.8568 -2.0183 2.2906
-5.7189 -3.3093 2.1382
-4.6984 -4.4942 2.1382
-3.4271 -5.3629 2.1382
-2.1489 -6.2918 2.2906
-0.5749 -6.4436 2.2906
0.9521 -6.2188 2.2906
2.3488 -5.6564 2.2906
3.5507 -4.8087 2.2906
4.5106 -3.7347 2.2906
5.1964 -2.4957 2.2906
5.5887 -1.1530 2.2906
5.6783 0.2335 2.2906
5.4645 1.6051 2.2906
4.9546 2.9037 2.2906
4.1645 4.0714 2.2906
3.1197 5.0508 2.2906
1.0238 3.1893 1.2627
0.2199 3.1965 1.1766
-0.5578 3.2028 1.1612
-2.4690 5.6375 2.1382
-3.8353 5.0191 2.1382
-5.0279 4.0589 2.1382
-6.3746 3.0046 2.2906
-6.9861 1.4312 2.2906
-7.1618 -0.2590 2.2906
-6.8824 -1.9371 2.2906
-5.7616 -3.2431 2.1382
-4.7562 -4.4419 2.1382
-3.4951 -5.3277 2.1382
-2.2271 -6.2739 2.2906
-0.6531 -6.4453 2.2906
0.8782 -6.2385 2.2906
2.2831 -5.6918 2.2906
3.4961 -4.8570 2.2906
4.4689 -3.7928 2.2906
5.1690 -2.5606 2.2906
5.5762 -1.2217 2.2906
5.6810 0.1641 2.2906
