ply
format ascii 1.0
element vertex 1955
property float32 x
property float32 y
property float32 z
end_header
-33.1364 26.5099 -3.4210
-23.2831 4.5296 -1.9118
-23.3931 -1.1506 -1.8901
-23.4260 -7.0018 -1.9771
-23.7450 -13.9680 -2.2337
-23.8205 -23.2386 -2.7070
15.1696 -19.9483 -2.0777
13.2124 -10.6693 -1.4099
13.3218 -6.2387 -1.2219
26.4423 -5.2675 -2.2389
24.7095 7.2670 -2.1320
14.0525 8.1839 -1.3426
25.6216 24.7792 -2.9334
15.6288 24.8845 -2.4099
-20.4737 27.1725 -2.7468
-32.5157 26.4985 -3.3816
-23.1989 4.7319 -1.9083
-23.3889 -0.9379 -1.8889
-23.4215 -6.7697 -1.9713
-24.2291 -13.9586 -2.2670
-23.8123 -22.8129 -2.6821
15.2038 -20.3741 -2.1074
13.2086 -10.8655 -1.4199
13.3280 -6.3896 -1.2277
26.4485 -5.5186 -2.2436
24.6894 7.0185 -2.1249
14.0498 8.0126 -1.3355
26.0816 24.7703 -2.9606
15.5321 24.2398 -2.3613
-20.4520 27.6601 -2.7775
-31.9091 26.4873 -3.3434
-23.2747 4.9667 -1.9181
-23.3045 -0.7238 -1.8813
-23.4170 -6.5398 -1.9657
-24.7261 -13.9490 -2.3013
-23.7224 -22.3193 -2.6488
15.2391 -20.8110 -2.1382
13.2048 -11.0639 -1.4301
13.3344 -6.5414 -1.2337
26.4550 -5.7698 -2.2485
28.6588 7.8678 -2.4605
14.0513 7.8461 -1.3290
26.5483 24.7613 -2.9884
15.4375 23.6196 -2.3147
-20.4420 28.1774 -2.8109
-30.3877 25.6934 -3.2084
-23.2704 5.1869 -1.9214
-23.3807 -0.5140 -1.8869
-23.4126 -6.3103 -1.9602
-25.2406 -13.9390 -2.3371
-23.7963 -21.9855 -2.6344
15.2759 -21.2631 -2.1701
13.2009 -11.2660 -1.4406
13.2898 -6.6698 -1.2351
26.4619 -6.0232 -2.2537
29.2451 7.7442 -2.5049
14.0368 7.6719 -1.3211
27.0238 24.7521 -3.0170
15.3518 23.0316 -2.2709
-20.4318 28.7053 -2.8452
-29.8242 25.6825 -3.1734
-23.2661 5.4069 -1.9250
-23.3766 -0.3027 -1.8862
-23.4082 -6.0825 -1.4077
-25.7700 -13.9288 -1.7112
-23.7885 -21.5830 -1.8845
14.3382 -20.3439 -1.4994
13.1969 -11.4707 -1.0556
13.2869 -6.8197 -0.9025
17.2911 -4.1010 -1.0735
29.3053 7.4762 -1.8198
18.0310 9.6433 -1.2260
26.9002 24.1917 -2.1600
15.3008 22.5075 -1.6171
-2.5069 19.6511 -1.1599
-20.4213 29.2503 -2.0736
-29.2692 25.6717 -2.2581
-33.5347 17.4038 -2.1893
-23.2618 5.6290 -1.3872
-23.3725 -0.0906 -1.3567
-23.4845 -5.8760 -1.4089
-26.3170 -13.9182 -1.7388
-23.7808 -21.1869 -1.8683
14.3610 -20.7729 -1.5213
13.1929 -11.6784 -1.0636
13.2840 -6.9708 -0.9065
16.7187 -4.1254 -1.0403
29.9707 7.3578 -1.8571
18.2368 9.5422 -1.2343
26.8520 23.7124 -2.1392
15.5964 22.5018 -1.6271
-20.4105 29.8059 -2.1000
-28.7287 25.6613 -2.2344
-23.2575 5.8512 -1.3900
-23.3684 0.1209 -1.3563
-23.4801 -5.6496 -1.4053
-26.8821 -13.9072 -1.7675
-23.7733 -20.7974 -1.8525
14.3847 -21.2151 -1.5439
13.1888 -11.8895 -1.0719
13.2811 -7.1233 -0.9106
16.6816 -4.2768 -1.0404
29.9475 7.0654 -1.8518
18.4529 9.4435 -1.2433
26.8041 23.2417 -2.1189
15.8957 22.4960 -1.6373
-20.3995 30.3758 -2.1273
-28.1995 25.6510 -2.2113
-23.1733 6.0535 -1.3881
-23.3644 0.3323 -1.3561
-23.4758 -5.4243 -1.4019
-27.4663 -13.8959 -1.7973
-23.7659 -20.4142 -1.8372
14.4093 -21.6709 -1.5674
13.1427 -12.0652 -1.0769
13.2781 -7.2771 -0.9149
16.6454 -4.4284 -1.0406
34.7335 7.8634 -2.1435
18.6608 9.3378 -1.2517
26.7620 22.7842 -2.0995
16.1986 22.4902 -1.6478
-20.3882 30.9606 -2.1555
-27.6811 25.6410 -2.1889
-34.5616 19.1450 -2.2895
-23.2489 6.2985 -1.3959
-23.3603 0.5437 -1.3560
-23.4714 -5.2001 -1.3986
-28.0710 -13.8842 -1.8283
-23.7586 -20.0372 -1.8222
13.2444 -12.3813 -1.0943
13.2751 -7.4325 -0.9193
16.6056 -4.5791 -1.0407
33.8093 7.3331 -2.0825
18.7723 9.1821 -1.2537
26.7394 22.3509 -2.0821
16.5055 22.4842 -1.6586
-20.3765 31.5610 -2.1846
-27.1730 25.6312 -2.1671
-33.8859 19.1734 -2.2562
-23.2445 6.5236 -1.3991
-23.3562 0.7551 -1.3560
-23.4671 -4.9768 -1.3955
-28.6970 -13.8721 -1.8605
-23.6697 -19.5985 -1.8014
-6.9153 -44.1749 -2.6602
13.2401 -12.6036 -1.1032
13.2721 -7.5893 -0.9238
16.5630 -4.7290 -1.0407
34.6743 7.1929 -2.1319
18.7444 8.9592 -1.2466
27.1481 22.2782 -2.0985
16.8162 22.4782 -1.6696
13.8586 32.6897 -2.1011
-2.3016 28.1287 -1.6539
-20.3646 32.1778 -2.2147
-26.6752 25.6215 -2.1460
-28.1787 16.2825 -1.8860
-23.2401 6.7498 -1.4024
-23.3521 0.9666 -1.3561
-23.3822 -4.7381 -1.3876
-29.3459 -13.8596 -1.8941
-23.7443 -19.3009 -1.7934
-7.3232 -44.1617 -2.6628
13.2357 -12.8298 -1.1124
13.2690 -7.7478 -0.9284
16.5191 -4.8786 -1.0407
34.6280 6.8570 -2.1254
18.6694 8.7168 -1.2365
27.6427 22.2687 -2.1215
17.1211 22.4592 -1.6799
13.8423 31.8464 -2.0553
-20.3523 32.8115 -2.2458
-2.8286 2.7665 -0.2296
-28.2618 16.6734 -1.9016
-23.2357 6.9772 -1.4059
-23.3480 1.1781 -1.3564
-23.4585 -4.5331 -1.3895
-30.0186 -13.8465 -1.9291
-23.7374 -18.9411 -1.7796
-27.8576 -36.1917 -2.6891
-7.7321 -44.1482 -2.6656
13.1488 -12.9785 -1.1149
13.2659 -7.9079 -0.9331
16.4738 -5.0278 -1.0407
40.6813 7.6738 -2.4929
18.6380 8.4975 -1.2294
28.0828 22.2071 -2.1400
19.3411 24.9008 -1.8759
13.8267 31.0390 -2.0116
-20.3397 33.4635 -2.2780
-2.7958 2.7844 -0.2290
-27.8504 16.7723 -1.8841
-23.2313 7.2056 -1.4095
-23.3439 1.3897 -1.3567
-23.4543 -4.3124 -1.3868
-30.7171 -13.8330 -1.9656
-23.7305 -18.5866 -1.7661
-23.8798 -30.4497 -2.2780
-8.1419 -44.1345 -2.6686
13.1629 -13.2297 -1.1261
13.1973 -8.0297 -0.9333
16.4272 -5.1765 -1.0407
38.6535 6.9296 -2.3649
18.6070 8.2808 -1.2225
12.5171 9.7153 -0.9473
19.6993 24.8938 -1.8891
13.8117 30.2658 -1.9698
-20.3267 34.1344 -2.3113
-2.7806 2.8198 -0.2298
-27.6581 16.9993 -1.8815
-23.1470 7.4097 -1.4084
-23.3398 1.6016 -1.3572
-23.4500 -4.0926 -1.3841
-31.4429 -13.8190 -2.0037
-23.6602 -18.1886 -1.7482
-23.9510 -29.9780 -2.2584
-8.5529 -44.1206 -2.6719
13.1583 -13.4666 -1.1360
13.1533 -8.1670 -0.9354
13.7785 -4.4793 -0.8754
39.9787 6.7943 -2.4424
18.5764 8.0666 -1.2159
12.6601 9.6441 -0.9516
20.0627 24.8868 -1.9026
13.7974 29.5240 -1.9300
-2.0460 44.9897 -2.6410
-20.3134 34.8246 -2.3457
-24.7765 25.5848 -2.0670
-27.0352 16.9554 -1.8495
-23.2224 7.6662 -1.4171
-23.3357 1.8135 -1.3578
-23.4458 -3.8737 -1.3816
-32.1972 -13.8044 -2.0434
-23.7171 -17.8932 -1.7401
-23.9401 -29.4145 -2.2318
-8.9649 -44.1064 -2.6753
13.1536 -13.7079 -1.1462
13.3207 -8.4388 -0.9526
13.5374 -4.5368 -0.8627
40.5825 6.5198 -2.4758
19.2985 8.1734 -1.2584
12.3146 9.2059 -0.9195
20.4312 24.8797 -1.9164
13.7836 28.8123 -1.8919
-20.2996 35.5358 -2.3815
-24.3235 25.5760 -2.0486
-27.2457 17.4328 -1.8747
-23.2179 7.8984 -1.4211
-23.2514 2.0188 -1.3538
-23.4415 -3.6554 -1.3792
-32.9828 -13.7892 -2.0850
-23.7105 -17.5538 -1.7276
-23.9294 -28.8638 -2.2059
13.1489 -13.9534 -1.1566
13.3174 -8.6066 -0.9579
13.5348 -4.6726 -0.8652
45.3399 6.8637 -2.7624
19.2892 7.9643 -1.2532
12.9502 9.4996 -0.9607
20.8050 24.8724 -1.9307
13.7703 28.1273 -1.8554
-20.2854 36.2692 -2.4185
-23.8784 25.5674 -2.0307
-28.4723 18.5829 -1.9706
-23.2134 8.1319 -1.4252
-23.3275 2.2383 -1.3592
-23.4373 -3.4377 -1.3769
-33.8013 -13.7733 -2.1284
-23.7040 -17.2191 -1.7154
-23.9190 -28.3256 -2.1809
13.1440 -14.2037 -1.1674
13.3141 -8.7763 -0.9633
13.5321 -4.8092 -0.8678
45.2346 6.4295 -2.7526
19.2946 7.7629 -1.2491
13.0914 9.4222 -0.9649
21.1840 24.8651 -1.9452
13.7576 27.4695 -1.8204
-20.2708 37.0256 -2.4569
-23.4411 25.5589 -2.0132
-23.6745 15.7589 -1.6484
-23.2088 8.3669 -1.4295
-23.3233 2.4511 -1.3602
-23.4331 -3.2208 -1.3748
-34.6550 -13.7568 -2.1740
-23.6371 -16.8461 -1.6992
-23.9088 -27.7997 -2.1565
13.1391 -14.4587 -1.1784
13.3108 -8.9480 -0.9689
16.1746 -5.9137 -1.0407
19.3001 7.5630 -1.2452
13.2142 9.3304 -0.9679
21.5689 24.8577 -1.9602
13.7453 26.8356 -1.7870
-20.2557 37.8063 -2.4967
-23.0112 25.5506 -1.9962
-23.6657 16.0640 -1.6579
-23.2043 8.6033 -1.4340
-23.3192 2.6642 -1.3612
-23.4289 -3.0046 -1.3727
-35.5454 -13.7396 -2.2216
-23.6913 -16.5635 -1.6920
-23.8988 -27.2846 -2.1329
13.1341 -14.7187 -1.1898
13.2667 -9.0937 -0.9716
16.1202 -6.0598 -1.0406
38.2303 -4.5412 -2.3245
19.2950 7.3603 -1.2406
13.3366 9.2370 -0.9708
21.9598 24.8501 -1.9755
13.7335 26.2248 -1.7548
-20.2401 38.6126 -2.5381
-22.5886 25.5424 -1.9797
-23.6426 16.3625 -1.6666
-23.1199 8.8106 -1.4336
-23.3151 2.8775 -1.3623
-23.4248 -2.7889 -1.3708
-36.4770 -13.7215 -2.2717
-23.6851 -16.2420 -1.6807
-23.8891 -26.7806 -2.1099
-2.9586 -5.5860 -0.3735
14.1253 -16.1205 -1.2926
13.1338 -9.1783 -0.9678
16.0645 -6.2052 -1.0406
37.4878 -4.7975 -2.2820
23.7950 8.8310 -1.5250
12.6821 8.6149 -0.9176
22.3566 24.8424 -1.9913
13.7221 25.6358 -1.7240
-2.6547 11.2137 -0.6735
-20.2239 39.4451 -2.5810
-22.1733 25.5344 -1.9636
-23.5775 16.6350 -1.6727
-23.3109 3.0915 -1.3636
-23.4206 -2.5736 -1.3690
-23.6790 -15.9247 -1.6697
-23.8394 -26.2429 -2.0841
-3.0140 -5.5680 -0.3740
14.1403 -16.4355 -1.3074
13.2364 -9.4295 -0.9816
16.0075 -6.3503 -1.0406
37.4767 -5.1412 -2.2842
24.0661 8.6846 -1.5375
13.7277 9.1447 -0.9874
25.4500 27.7701 -2.2447
13.7111 25.0673 -1.6943
-20.2073 40.3069 -2.6256
-21.7948 25.5621 -1.9507
-23.4535 16.8674 -1.6747
-23.2267 3.2944 -1.3603
-23.4164 -2.3589 -1.3673
-23.5915 -15.5577 -1.6533
-23.8702 -25.8036 -2.0659
14.1559 -16.7580 -1.3227
13.2330 -9.6088 -0.9877
16.2191 -6.6047 -1.0582
37.4772 -5.4873 -2.2872
24.0317 8.4272 -1.5305
13.7308 8.9684 -0.9819
25.4401 27.2598 -2.2224
13.9721 25.0047 -1.6989
-20.2716 41.3654 -2.6829
-21.4470 25.6203 -1.9404
-23.1343 16.9576 -1.6629
-23.3026 3.5206 -1.3665
-23.4123 -2.1446 -1.3658
-23.6669 -15.3019 -1.6485
-23.8610 -25.3304 -2.0448
14.1720 -17.0884 -1.3385
13.2295 -9.7903 -0.9940
15.7880 -6.5964 -1.0340
28.0176 -4.3617 -1.7123
23.1624 7.8876 -1.4707
13.2363 8.4757 -0.9412
25.4305 26.7602 -2.2007
14.2673 24.9990 -1.7075
-21.1705 25.7601 -1.9366
-22.8342 17.0574 -1.6524
-23.2985 3.7359 -1.3681
-23.4082 -1.9308 -1.3643
-23.6610 -14.9965 -1.6383
-23.8520 -24.8660 -2.0243
14.1886 -17.4271 -1.3548
13.2259 -9.9742 -1.0004
15.3762 -6.5884 -1.0109
26.2312 -4.3271 -1.6056
23.9600 7.9182 -1.5170
13.7649 8.6395 -0.9733
25.4210 26.2700 -2.1796
14.5017 24.8839 -1.7089
-20.9365 25.9507 -1.9367
-23.8152 18.1284 -1.7353
-23.2943 3.9516 -1.3698
-23.4040 -1.7176 -1.3630
-23.4381 -7.6257 -1.4358
-23.6552 -14.6944 -1.6284
-23.8432 -24.4108 -2.0044
14.2059 -17.7745 -1.3717
13.2223 -10.1603 -1.0070
14.9827 -6.5808 -0.9889
25.3747 -4.4219 -1.5556
23.9246 7.6670 -1.5104
13.8103 8.4948 -0.9712
25.4117 25.7892 -2.1591
14.4361 24.2638 -1.6755
-20.7431 26.1920 -1.9408
-21.8985 16.9843 -1.6068
-23.2901 4.1681 -1.3717
-23.3999 -1.5045 -1.3618
-23.4335 -7.3904 -1.4311
-23.6494 -14.3958 -1.6187
-23.7526 -23.8818 -1.9782
14.2238 -18.1306 -1.3890
13.2186 -10.3492 -1.0138
14.5776 -6.5609 -0.9660
25.3743 -4.6588 -1.5581
24.6562 7.6561 -1.5524
13.8555 8.3506 -0.9692
25.4025 25.3174 -2.1392
14.3733 23.6680 -1.6436
-20.5971 26.4968 -1.9497
-32.5690 25.7356 -2.4069
-23.2859 4.3852 -1.3737
-23.3958 -1.2917 -1.3607
-23.5098 -7.1812 -1.4316
-23.5624 -14.0522 -1.6037
-23.7442 -23.4451 -1.9594
14.2423 -18.4969 -1.4070
13.2149 -10.5407 -1.0207
14.2438 -6.5665 -0.9478
25.3720 -4.8964 -1.5607
24.6362 7.4059 -1.5470
13.8651 8.1861 -0.9648
25.3936 24.8540 -2.1197
14.3093 23.0886 -1.6126
-20.5169 26.8924 -1.9653
-31.9552 25.7237 -2.3788
-35.7197 16.6630 -2.2838
-23.2817 4.6029 -1.3758
-23.3917 -1.0793 -1.3597
-23.5053 -6.9479 -1.4273
-23.9051 -13.9649 -1.6181
-23.7642 -23.0438 -1.9434
14.2615 -18.8728 -1.4256
13.2112 -10.7345 -1.0278
13.8977 -6.5598 -0.9287
25.3727 -5.1347 -1.5636
24.6164 7.1581 -1.5418
13.8689 8.0203 -0.9601
25.7758 24.7762 -2.1332
14.2554 22.5442 -1.5838
-20.4585 27.3252 -1.9835
-31.3555 25.7121 -2.3515
-23.2775 4.8214 -1.3780
-23.3876 -0.8671 -1.3589
-23.5008 -6.7159 -1.4231
-24.3932 -13.9554 -1.6423
-23.8096 -22.6733 -1.9299
14.2814 -19.2584 -1.4448
13.2074 -10.9313 -1.0352
13.5646 -6.5534 -0.9103
25.3742 -5.3745 -1.5667
29.3797 8.2556 -1.8357
13.8728 7.8559 -0.9555
26.2378 24.7673 -2.1532
14.5286 22.5225 -1.5918
-20.4487 27.8336 -2.0070
-30.7696 25.7008 -2.3250
-34.5218 16.8715 -2.2264
-23.2732 5.0406 -1.3803
-23.3031 -0.6528 -1.3534
-23.4963 -6.4852 -1.4190
-24.8962 -13.9457 -1.6674
-23.7558 -22.2156 -1.9088
14.3020 -19.6556 -1.4647
13.2035 -11.1310 -1.0427
13.2918 -6.5706 -0.8960
25.3746 -5.6151 -1.5699
28.8024 7.8128 -1.7953
13.8767 7.6930 -0.9511
26.7083 24.7582 -2.1737
14.8154 22.5169 -1.6011
-20.4386 28.3541 -2.0314
-30.1966 25.6897 -2.2993
-34.2774 17.1381 -2.2206
-23.2690 5.2606 -1.3828
-23.3794 -0.4433 -1.3575
-23.4919 -6.2558 -1.4151
-25.4150 -13.9356 -1.6933
-23.7937 -21.8515 -1.8956
14.3234 -20.0642 -1.4853
13.1996 -11.3337 -1.0503
13.2889 -6.7195 -0.8998
25.3752 -5.8566 -1.5732
29.3326 7.6722 -1.8242
17.8952 9.7101 -1.2206
26.9288 24.5132 -2.1739
15.1054 22.5113 -1.6106
-20.4283 28.8874 -2.0564
-29.6362 25.6788 -2.2744
-34.0276 17.3998 -2.2145
-23.2647 5.4814 -1.3854
-23.3753 -0.2316 -1.3570
-23.4067 -6.0072 -1.4065
-25.9494 -13.9253 -1.7202
-23.7859 -21.4509 -1.8791
14.3457 -20.4850 -1.5066
13.1956 -11.5394 -1.0582
13.2860 -6.8698 -0.9038
17.0423 -4.0962 -1.0589
29.2917 7.3789 -1.8176
18.0992 9.6098 -1.2288
26.8847 24.0317 -2.1530
15.3988 22.5056 -1.6204
-20.4177 29.4339 -2.0823
-29.0878 25.6682 -2.2502
-33.2796 17.3991 -2.1760
-23.2604 5.7026 -1.3881
-23.3712 -0.0204 -1.3566
-23.4831 -5.8008 -1.4077
-26.5024 -13.9146 -1.7482
-23.7783 -21.0569 -1.8630
14.3688 -20.9183 -1.5287
13.1916 -11.7482 -1.0663
13.2830 -7.0213 -0.9079
16.7060 -4.1756 -1.0403
29.9630 7.2603 -1.8553
17.2155 8.9418 -1.1634
26.8359 23.5546 -2.1323
15.6957 22.4999 -1.6305
-20.4069 29.9943 -2.1090
-28.5520 25.6578 -2.2267
-23.2561 5.9252 -1.3909
-23.3671 0.1910 -1.3563
-23.4787 -5.5748 -1.4042
-27.0739 -13.9035 -1.7773
-23.7708 -20.6695 -1.8474
14.3927 -21.3651 -1.5516
13.1875 -11.9603 -1.0746
13.2801 -7.1743 -0.9120
16.6706 -4.3275 -1.0405
29.9398 6.9684 -1.8501
18.5473 9.4214 -1.2478
26.7884 23.0871 -2.1122
15.9962 22.4941 -1.6408
-20.3958 30.5680 -2.1366
-28.0263 25.6477 -2.2038
-23.2518 6.1487 -1.3939
-23.3630 0.4025 -1.3561
-23.4743 -5.3498 -1.4008
-27.6649 -13.8921 -1.8075
-23.7634 -20.2883 -1.8322
14.4177 -21.8258 -1.5754
13.0776 -12.0783 -1.0745
13.2771 -7.3287 -0.9163
16.6325 -4.4787 -1.0407
35.3965 7.9014 -2.1830
18.3076 9.0921 -1.2262
26.7524 22.6373 -2.0935
16.3005 22.4882 -1.6514
-20.3843 31.1580 -2.1650
-27.5113 25.6377 -2.1816
-34.0701 19.0067 -2.2607
-23.2474 6.3732 -1.3970
-23.2786 0.6118 -1.3513
-23.4700 -5.1258 -1.3975
-28.2766 -13.8803 -1.8389
-23.7562 -19.9132 -1.8173
-6.9655 -46.3259 -2.7875
13.2429 -12.4549 -1.0972
13.2741 -7.4846 -0.9207
16.5915 -4.6291 -1.0407
33.4585 7.1515 -2.0596
18.7629 9.1075 -1.2513
26.7608 22.2327 -2.0787
16.6080 22.4822 -1.6622
-20.3726 31.7638 -2.1945
-27.0066 25.6279 -2.1601
-33.8063 19.2627 -2.2547
-23.2431 6.5987 -1.4002
-23.3548 0.8254 -1.3560
-23.4657 -4.9028 -1.3944
-28.9101 -13.8680 -1.8716
-23.7321 -19.5302 -1.8016
-7.0509 -44.1705 -2.6611
13.2386 -12.6786 -1.1063
13.2710 -7.6420 -0.9253
16.5485 -4.7789 -1.0407
34.6589 7.0813 -2.1297
18.6067 8.8249 -1.2357
27.3110 22.2751 -2.1061
16.9201 22.4762 -1.6733
13.8531 32.4059 -2.0857
-20.3606 32.3863 -2.2249
-2.8728 2.7760 -0.2318
-28.1241 16.3639 -1.8856
-23.2387 6.8253 -1.4036
-23.3507 1.0369 -1.3562
-23.3807 -4.6646 -1.3867
-29.5668 -13.8553 -1.9056
-23.7420 -19.1805 -1.7888
-7.4592 -44.1572 -2.6637
13.2342 -12.9061 -1.1155
13.2680 -7.8010 -0.9299
16.5042 -4.9281 -1.0407
35.2713 6.8745 -2.1637
18.4589 8.5510 -1.2209
27.8093 22.2655 -2.1292
17.1962 22.4178 -1.6808
13.8371 31.5745 -2.0405
-20.3482 33.0262 -2.2564
-2.8165 2.7713 -0.2293
-28.0044 16.6353 -1.8876
-23.2343 7.0530 -1.4071
-23.3466 1.2485 -1.3565
-23.4571 -4.4595 -1.3886
-30.2481 -13.8421 -1.9411
-23.7351 -18.8225 -1.7750
-27.8531 -35.9612 -2.6780
-7.8685 -44.1437 -2.6666
13.0685 -12.9769 -1.1113
13.2649 -7.9613 -0.9347
16.4585 -5.0772 -1.0407
40.5571 7.5243 -2.4839
18.4972 8.3662 -1.2185
31.3877 24.6676 -2.3864
19.4595 24.8985 -1.8802
13.8216 30.7786 -1.9975
-2.2153 36.5486 -2.1466
-20.3354 33.6843 -2.2889
-2.7907 2.7961 -0.2292
-27.7190 16.8070 -1.8786
-23.2298 7.2819 -1.4107
-23.3425 1.4602 -1.3569
-23.4528 -4.2392 -1.3859
-30.9556 -13.8284 -1.9781
-23.7282 -18.4698 -1.7617
-23.9325 -30.3284 -2.2742
-8.2788 -44.1299 -2.6697
13.1614 -13.3078 -1.1293
13.1554 -8.0585 -0.9321
16.4114 -5.2258 -1.0407
40.0418 7.0544 -2.4486
18.5968 8.2094 -1.2203
12.5644 9.6917 -0.9487
19.8196 24.8915 -1.8935
13.8069 30.0158 -1.9564
-20.3223 34.3617 -2.3226
-2.7917 2.8482 -0.2314
-27.5911 17.0729 -1.8804
-23.2254 7.5120 -1.4145
-23.3384 1.6721 -1.3574
-23.4486 -4.0196 -1.3833
-31.6908 -13.8142 -2.0167
-23.7215 -18.1222 -1.7486
-23.9473 -29.7887 -2.2495
-8.6894 -44.1159 -2.6730
13.1568 -13.5462 -1.1393
13.3228 -8.3277 -0.9492
13.6303 -4.4765 -0.8669
39.9474 6.6656 -2.4393
19.2933 8.3090 -1.2612
12.7079 9.6202 -0.9531
20.1846 24.8845 -1.9071
13.7927 29.2840 -1.9171
-20.3088 35.0591 -2.3575
-24.6247 25.5818 -2.0608
-27.5207 17.3757 -1.8863
-23.2209 7.7434 -1.4184
-23.3343 1.8842 -1.3580
-23.4443 -3.8008 -1.3808
-32.4556 -13.7994 -2.0570
-23.7149 -17.7802 -1.7359
-23.9365 -29.2306 -2.2231
-9.1020 -44.1016 -2.6765
13.1521 -13.7889 -1.1496
13.3196 -8.4944 -0.9544
13.5365 -4.5818 -0.8635
44.4620 7.0059 -2.7113
19.2923 8.1023 -1.2565
12.8528 9.5481 -0.9576
20.5549 24.8773 -1.9211
13.7791 28.5812 -1.8795
-20.2949 35.7778 -2.3937
-24.1743 25.5731 -2.0426
-27.5077 17.7176 -1.8964
-23.2164 7.9761 -1.4225
-23.3302 2.0966 -1.3587
-23.4401 -3.5832 -1.3784
-33.2504 -13.7840 -2.0991
-23.7083 -17.4423 -1.7235
-23.9259 -28.6841 -2.1975
13.1473 -14.0361 -1.1602
13.3163 -8.6628 -0.9597
13.5339 -4.7179 -0.8661
45.3048 6.7190 -2.7591
19.2910 7.8972 -1.2518
12.9991 9.4755 -0.9622
20.9305 24.8700 -1.9355
13.7660 27.9056 -1.8436
-20.2806 36.5187 -2.4311
-23.7318 25.5646 -2.0248
-28.6553 18.8259 -1.9872
-23.2119 8.2097 -1.4266
-23.3261 2.3088 -1.3595
-23.3554 -3.3542 -1.3715
-34.0802 -13.7679 -2.1433
-23.7019 -17.1092 -1.7115
-23.9156 -28.1498 -2.1727
13.1424 -14.2879 -1.1710
13.3130 -8.8332 -0.9651
13.5313 -4.8548 -0.8687
45.9114 6.3848 -2.7927
19.2965 7.6962 -1.2478
13.1322 9.3917 -0.9659
21.3116 24.8626 -1.9502
13.7535 27.2555 -1.8091
-20.2658 37.2816 -2.4699
-23.2978 25.5562 -2.0075
-23.6716 15.8596 -1.6515
-23.2073 8.4451 -1.4310
-23.3220 2.5217 -1.3605
-23.4317 -3.1490 -1.3741
-34.9461 -13.7512 -2.1895
-23.6955 -16.7805 -1.6997
-23.8692 -27.5853 -2.1453
13.1374 -14.5446 -1.1822
13.3097 -9.0055 -0.9707
16.1567 -5.9623 -1.0407
19.3019 7.4967 -1.2439
13.2554 9.2996 -0.9689
21.6985 24.8552 -1.9653
13.7413 26.6295 -1.7761
-20.2505 38.0706 -2.5102
-22.8704 25.5479 -1.9907
-23.6628 16.1659 -1.6611
-23.2027 8.6820 -1.4355
-23.3178 2.7350 -1.3616
-23.4276 -2.9328 -1.3721
-35.8504 -13.7337 -2.2380
-23.6893 -16.4562 -1.6882
-23.8956 -27.1159 -2.1252
14.1155 -15.9146 -1.2830
13.1790 -9.0920 -0.9671
16.1018 -6.1082 -1.0406
37.5005 -4.5693 -2.2809
19.2895 7.2916 -1.2389
13.3794 9.2070 -0.9720
22.0914 24.8475 -1.9808
13.7297 26.0273 -1.7445
-20.2348 38.8857 -2.5521
-22.4501 25.5398 -1.9743
-23.6210 16.4529 -1.6686
-23.1184 8.8898 -1.4352
-23.3137 2.9486 -1.3627
-23.4234 -2.7173 -1.3702
-36.7961 -13.7154 -2.2889
-23.6831 -16.1361 -1.6770
-23.8859 -26.6154 -2.1024
-2.9743 -5.5750 -0.3733
14.1302 -16.2247 -1.2975
13.2387 -9.3112 -0.9776
16.0457 -6.2536 -1.0406
37.4804 -4.9115 -2.2825
23.8385 8.7654 -1.5261
13.5039 9.1141 -0.9752
22.4896 24.8398 -1.9966
13.7184 25.4452 -1.7140
-2.6261 11.2433 -0.6748
-20.2185 39.7283 -2.5956
-22.0367 25.5318 -1.9584
-23.5558 16.7260 -1.6747
-23.3096 3.1627 -1.3640
-23.4192 -2.5022 -1.3685
-23.6769 -15.8201 -1.6661
-23.8764 -26.1253 -2.0803
-3.0415 -5.5788 -0.3753
14.1454 -16.5421 -1.3125
13.2353 -9.4890 -0.9836
15.9882 -6.3985 -1.0406
37.4760 -5.2564 -2.2851
23.9838 8.5737 -1.5306
13.7287 9.0861 -0.9856
25.4467 27.5998 -2.2373
13.7766 25.0085 -1.6932
-20.2016 40.6000 -2.6409
-21.6787 25.5815 -1.9472
-23.3440 16.8955 -1.6705
-23.2253 3.3655 -1.3608
-23.4151 -2.2876 -1.3668
-23.6626 -15.5026 -1.6549
-23.8671 -25.6451 -2.0588
14.1612 -16.8672 -1.3280
13.2318 -9.6687 -0.9898
16.0740 -6.6019 -1.0501
37.4784 -5.6024 -2.2884
23.7091 8.2343 -1.5085
13.2545 8.6007 -0.9460
25.4369 27.0930 -2.2152
14.0699 25.0028 -1.7017
-21.3426 25.6528 -1.9380
-23.0347 16.9908 -1.6594
-23.3013 3.5917 -1.3670
-23.3304 -2.0660 -1.3606
-23.6649 -15.1993 -1.6451
-23.8580 -25.1754 -2.0380
14.1774 -17.1997 -1.3439
13.2283 -9.8510 -0.9961
15.6494 -6.5937 -1.0262
27.3997 -4.3497 -1.6754
23.9839 8.0872 -1.5214
13.2273 8.4139 -0.9388
25.4273 26.5962 -2.1937
14.3661 24.9971 -1.7105
-21.0848 25.8137 -1.9359
-22.7352 17.0903 -1.6490
-23.2971 3.8076 -1.3687
-23.4068 -1.8598 -1.3639
-23.6590 -14.8954 -1.6350
-23.8491 -24.7133 -2.0176
14.1943 -17.5420 -1.3604
13.2247 -10.0360 -1.0026
15.2430 -6.5858 -1.0034
25.3752 -4.2646 -1.5540
23.9481 7.8340 -1.5148
13.7801 8.5911 -0.9726
25.4178 26.1082 -2.1727
14.4795 24.6738 -1.6976
-20.8700 26.0271 -1.9378
-23.8169 18.2425 -1.7394
-23.2929 4.0233 -1.3704
-23.4027 -1.6469 -1.3626
-23.4365 -7.5476 -1.4342
-23.6532 -14.5950 -1.6252
-23.7584 -24.1784 -1.9910
14.2118 -17.8917 -1.3774
13.2211 -10.2228 -1.0093
14.8555 -6.5783 -0.9818
25.3745 -4.5005 -1.5564
24.6753 7.8258 -1.5564
13.8254 8.4468 -0.9705
25.4086 25.6314 -2.1524
14.4149 24.0631 -1.6648
-20.6921 26.2901 -1.9435
-21.8514 17.0535 -1.6072
-23.2887 4.2404 -1.3723
-23.3985 -1.4336 -1.3614
-23.5128 -7.3375 -1.4346
-23.6475 -14.2971 -1.6155
-23.7498 -23.7353 -1.9718
14.2299 -18.2519 -1.3950
13.2174 -10.4128 -1.0161
14.4831 -6.5711 -0.9611
25.3722 -4.7378 -1.5589
24.6496 7.5733 -1.5506
13.8624 8.2984 -0.9680
25.3996 25.1635 -2.1327
14.3519 23.4742 -1.6332
-20.5599 26.6133 -1.9538
-32.3639 25.7316 -2.3975
-23.2845 4.4573 -1.3743
-23.3944 -1.2213 -1.3604
-23.5083 -7.1037 -1.4301
-23.5868 -13.9710 -1.6025
-23.7414 -23.3021 -1.9532
14.2486 -18.6204 -1.4131
13.2137 -10.6048 -1.0231
14.1273 -6.5643 -0.9413
25.3720 -4.9754 -1.5617
24.6296 7.3234 -1.5453
13.8663 8.1309 -0.9632
25.4725 24.7821 -2.1202
14.2918 22.9066 -1.6030
-20.4953 27.0328 -1.9711
-31.7538 25.7198 -2.3696
-23.2003 4.6596 -1.3717
-23.3903 -1.0085 -1.3594
-23.5038 -6.8704 -1.4258
-24.0662 -13.9617 -1.6261
-23.8150 -22.9541 -1.9418
14.2680 -18.9989 -1.4319
13.2099 -10.7994 -1.0303
13.7858 -6.5576 -0.9225
25.3739 -5.2142 -1.5647
24.6099 7.0762 -1.5402
13.8702 7.9656 -0.9586
25.9280 24.7733 -2.1398
14.3054 22.4738 -1.5820
-20.4553 27.4924 -1.9912
-31.1598 25.7083 -2.3426
-34.6793 16.6893 -2.2300
-23.2761 4.8940 -1.3787
-23.3862 -0.7968 -1.3586
-23.4993 -6.6393 -1.4217
-24.5582 -13.9522 -1.6505
-23.8069 -22.5350 -1.9241
14.2882 -19.3895 -1.4514
13.2061 -10.9975 -1.0376
13.4564 -6.5513 -0.9044
25.3743 -5.4546 -1.5677
29.3063 8.1396 -1.8296
13.8741 7.8014 -0.9540
26.3937 24.7643 -2.1600
14.6238 22.5206 -1.5948
-20.4453 28.0057 -2.0151
-30.5771 25.6970 -2.3163
-34.4402 16.9605 -2.2244
-23.2718 5.1138 -1.3811
-23.3821 -0.5845 -1.3579
-23.4948 -6.4086 -1.4177
-25.0674 -13.9424 -1.6759
-23.7989 -22.1217 -1.9068
14.3090 -19.7897 -1.4714
13.2022 -11.1978 -1.0452
13.2908 -6.6198 -0.8972
25.3748 -5.6950 -1.5709
28.5499 7.6524 -1.7782
13.8779 7.6394 -0.9497
26.8662 24.7551 -2.1806
14.9111 22.5151 -1.6042
-20.4352 28.5294 -2.0396
-30.0095 25.6861 -2.2910
-34.1967 17.2261 -2.2187
-23.2676 5.3336 -1.3836
-23.3780 -0.3731 -1.3573
-23.4904 -6.1800 -1.4138
-25.5906 -13.9322 -1.7021
-23.7911 -21.7172 -1.8900
14.3308 -20.2031 -1.4923
13.1983 -11.4019 -1.0530
13.2879 -6.7695 -0.9011
17.5485 -4.1060 -1.0887
29.3190 7.5742 -1.8220
17.9629 9.6768 -1.2233
26.9145 24.3521 -2.1669
15.2028 22.5094 -1.6139
-20.4248 29.0680 -2.0650
-29.4521 25.6753 -2.2662
-33.7907 17.4075 -2.2025
-23.2633 5.5551 -1.3863
-23.3739 -0.1611 -1.3568
-23.4860 -5.9525 -1.4101
-26.1307 -13.9218 -1.7294
-23.7834 -21.3195 -1.8737
14.3532 -20.6272 -1.5138
13.1943 -11.6082 -1.0609
13.2850 -6.9198 -0.9051
16.8009 -4.0915 -1.0446
29.2781 7.2822 -1.8155
18.1674 9.5763 -1.2315
26.8684 23.8725 -2.1461
15.4968 22.5037 -1.6237
-20.4141 29.6180 -2.0911
-28.9086 25.6647 -2.2423
-23.2590 5.7767 -1.3890
-23.3698 0.0500 -1.3564
-23.4816 -5.7253 -1.4065
-26.6908 -13.9109 -1.7578
-23.7149 -20.8735 -1.8530
14.3767 -21.0657 -1.5363
13.1902 -11.8186 -1.0691
13.2821 -7.0722 -0.9092
16.6930 -4.2260 -1.0403
29.9552 7.1628 -1.8535
18.3757 9.4742 -1.2399
26.8199 23.3977 -2.1256
15.7954 22.4980 -1.6339
-20.4032 30.1821 -2.1180
-28.3765 25.6544 -2.2190
-23.1747 5.9785 -1.3871
-23.3657 0.2611 -1.3562
-23.4772 -5.5001 -1.4030
-27.2675 -13.8998 -1.7871
-23.7683 -20.5424 -1.8423
14.4009 -21.5162 -1.5594
13.1861 -12.0314 -1.0774
13.2791 -7.2253 -0.9135
16.6582 -4.3776 -1.0406
29.9322 6.8720 -1.8484
18.6036 9.3799 -1.2497
26.7750 22.9359 -2.1059
16.0966 22.4921 -1.6443
-20.3920 30.7629 -2.1459
-27.8535 25.6443 -2.1964
-34.8982 19.1935 -2.3079
-23.2503 6.2234 -1.3949
-23.3616 0.4729 -1.3560
-23.4729 -5.2750 -1.3997
-27.8664 -13.8882 -1.8178
-23.7610 -20.1626 -1.8272
14.4262 -21.9827 -1.5835
13.0762 -12.1503 -1.0774
13.2761 -7.3805 -0.9178
16.6194 -4.5290 -1.0407
34.0667 7.4967 -2.0997
18.3418 9.0402 -1.2267
26.7482 22.4957 -2.0880
16.4027 22.4862 -1.6549
-20.3805 31.3570 -2.1747
-27.3429 25.6344 -2.1744
-33.9668 19.0828 -2.2577
-23.2460 6.4478 -1.3980
-23.2773 0.6816 -1.3513
-23.4686 -5.0518 -1.3965
-28.4841 -13.8762 -1.8496
-23.7538 -19.7902 -1.8125
-6.9292 -45.1621 -2.7186
13.2415 -12.5287 -1.1002
13.2731 -7.5366 -0.9222
16.5775 -4.6788 -1.0407
34.6899 7.3060 -2.1342
18.7537 9.0336 -1.2490
26.9846 22.2814 -2.0910
16.7116 22.4802 -1.6658
13.8643 32.9811 -2.1170
-2.3857 28.1079 -1.6530
-20.3686 31.9695 -2.2045
-26.8406 25.6247 -2.1530
-33.7264 19.3522 -2.2533
-23.2416 6.6741 -1.4013
-23.3534 0.8958 -1.3561
-23.4642 -4.8287 -1.3934
-29.1264 -13.8638 -1.8827
-23.7467 -19.4223 -1.7981
-7.1869 -44.1661 -2.6619
13.2371 -12.7540 -1.1093
13.2700 -7.6948 -0.9268
16.5339 -4.8288 -1.0407
34.6436 6.9700 -2.1276
18.7274 8.8134 -1.2420
27.4749 22.2719 -2.1137
17.0244 22.4742 -1.6770
13.8477 32.1262 -2.0705
-20.3565 32.5964 -2.2352
-2.8416 2.7624 -0.2299
-28.3597 16.6151 -1.9048
-23.2372 6.9006 -1.4047
-23.3494 1.1070 -1.3563
-23.4600 -4.6073 -1.3905
-29.7899 -13.8510 -1.9172
-23.7397 -19.0612 -1.7842
-7.5947 -44.1528 -2.6646
13.2304 -12.9800 -1.1185
13.2669 -7.8540 -0.9315
16.4891 -4.9778 -1.0407
35.2624 6.7624 -2.1620
18.0691 8.3043 -1.1935
27.9778 22.2622 -2.1371
19.2222 24.9031 -1.8716
13.8318 31.3054 -2.0260
-20.3440 33.2435 -2.2671
-2.8043 2.7760 -0.2290
-28.0688 16.7884 -1.8954
-23.2328 7.1292 -1.4083
-23.3453 1.3190 -1.3566
-23.4557 -4.3860 -1.3877
-30.4810 -13.8376 -1.9532
-23.7328 -18.7043 -1.7705
-27.8487 -35.7323 -2.6671
-8.0051 -44.1391 -2.6676
13.0589 -13.0454 -1.1138
13.2638 -8.0149 -0.9363
16.4431 -5.1265 -1.0407
39.0543 7.1244 -2.3907
18.6174 8.3534 -1.2248
31.5775 24.6640 -2.3953
19.5783 24.8962 -1.8846
13.8167 30.5222 -1.9836
-20.3311 33.9067 -2.2999
-2.7856 2.8078 -0.2295
-27.6888 16.9025 -1.8800
-23.1485 7.3327 -1.4071
-23.3412 1.5304 -1.3570
-23.4514 -4.1663 -1.3850
-31.1962 -13.8238 -1.9907
-23.6444 -18.2909 -1.7513
-23.9547 -30.1699 -2.2675
-8.4150 -44.1253 -2.6708
13.1598 -13.3868 -1.1326
13.1544 -8.1125 -0.9337
16.3955 -5.2752 -1.0407
40.0103 6.9245 -2.4455
18.5866 8.1379 -1.2181
12.6121 9.6680 -0.9502
19.9407 24.8892 -1.8980
13.8021 29.7685 -1.9431
-20.3179 34.5919 -2.3341
-24.9296 25.5877 -2.0733
-27.3626 17.0458 -1.8683
-23.2239 7.5890 -1.4158
-23.3371 1.7428 -1.3575
-23.4472 -3.9466 -1.3824
-31.9424 -13.8093 -2.0300
-23.7193 -18.0074 -1.7443
-23.9437 -29.6009 -2.2406
-8.8260 -44.1112 -2.6741
13.1552 -13.6262 -1.1427
13.3217 -8.3828 -0.9509
13.5383 -4.4913 -0.8619
40.5927 6.6481 -2.4776
19.3048 8.2454 -1.2604
12.1094 9.1101 -0.9062
20.3068 24.8821 -1.9117
13.7882 29.0479 -1.9045
-20.3043 35.2949 -2.3693
-24.4745 25.5789 -2.0547
-27.2839 17.3409 -1.8737
-23.2194 7.8203 -1.4197
-23.2528 1.9479 -1.3535
-23.4430 -3.7285 -1.3800
-32.7159 -13.7943 -2.0708
-23.7127 -17.6670 -1.7318
-23.8507 -28.9472 -2.2069
13.1505 -13.8708 -1.1531
13.3185 -8.5503 -0.9561
13.5357 -4.6271 -0.8644
44.0481 6.8045 -2.6848
19.2873 8.0319 -1.2546
12.9013 9.5240 -0.9591
20.6795 24.8749 -1.9259
13.7747 28.3531 -1.8674
-20.2902 36.0222 -2.4060
-24.0259 25.5702 -2.0366
-28.2925 18.3441 -1.9543
-23.2149 8.0539 -1.4238
-23.3288 2.1666 -1.3590
-23.4387 -3.5110 -1.3777
-33.5216 -13.7787 -2.1136
-23.7062 -17.3314 -1.7195
-23.9225 -28.5057 -2.1892
13.1457 -14.1191 -1.1637
13.3152 -8.7191 -0.9615
13.5330 -4.7632 -0.8669
45.2699 6.5751 -2.7559
19.2928 7.8304 -1.2505
13.0479 9.4513 -0.9638
21.0562 24.8676 -1.9403
13.7618 27.6874 -1.8320
-20.2757 36.7694 -2.4439
-23.5868 25.5618 -2.0190
-28.8403 19.0715 -2.0040
-23.2104 8.2880 -1.4281
-23.3247 2.3797 -1.3598
-23.4345 -3.2934 -1.3755
-34.3648 -13.7624 -2.1585
-23.6183 -16.9407 -1.7016
-23.9122 -27.9743 -2.1646
13.1408 -14.3729 -1.1747
13.3119 -8.8904 -0.9670
16.1926 -5.8648 -1.0407
49.2734 6.7009 -2.9960
19.2983 7.6296 -1.2465
13.1732 9.3611 -0.9669
21.4400 24.8602 -1.9552
13.7494 27.0443 -1.7980
-20.2608 37.5403 -2.4831
-23.1553 25.5534 -2.0019
-23.6687 15.9608 -1.6547
-23.2058 8.5235 -1.4325
-23.3206 2.5923 -1.3608
-23.4303 -3.0773 -1.3734
-35.2414 -13.7455 -2.2053
-23.6934 -16.6725 -1.6959
-23.9022 -27.4565 -2.1408
13.1358 -14.6307 -1.1859
13.3086 -9.0631 -0.9726
16.1387 -6.0107 -1.0407
19.3006 7.4296 -1.2424
13.2964 9.2690 -0.9699
21.8281 24.8526 -1.9704
13.7374 26.4271 -1.7654
-20.2453 38.3394 -2.5240
-22.7295 25.5452 -1.9852
-23.6598 16.2688 -1.6644
-23.1215 8.7312 -1.4321
-23.3165 2.8061 -1.3619
-23.4262 -2.8609 -1.3714
-36.1609 -13.7277 -2.2547
-23.6872 -16.3490 -1.6844
-23.8923 -26.9479 -2.1175
-2.9494 -5.6095 -0.3745
14.1204 -16.0172 -1.2878
13.1349 -9.1202 -0.9659
16.0832 -6.1567 -1.0406
37.4952 -4.6835 -2.2815
23.7394 8.8919 -1.5231
13.4209 9.1761 -0.9730
22.2236 24.8450 -1.9860
13.7259 25.8320 -1.7342
-2.6902 11.2109 -0.6738
-20.2294 39.1618 -2.5664
-22.3123 25.5371 -1.9690
-23.5995 16.5432 -1.6706
-23.1169 8.9689 -1.4367
-23.3123 3.0195 -1.3632
-23.4220 -2.6459 -1.3696
-23.6810 -16.0309 -1.6734
-23.8827 -26.4518 -2.0950
-2.9918 -5.5674 -0.3734
14.1352 -16.3291 -1.3024
13.2376 -9.3699 -0.9796
16.0267 -6.3017 -1.0406
37.4774 -5.0255 -2.2832
24.1957 8.8145 -1.5474
13.5457 9.0830 -0.9762
25.4534 27.9435 -2.2524
13.7148 25.2557 -1.7041
-20.2129 40.0156 -2.6105
-21.9119 25.5426 -1.9542
-23.4830 16.7811 -1.6732
-23.3082 3.2341 -1.3645
-23.4178 -2.4306 -1.3679
-23.6749 -15.7156 -1.6625
-23.8733 -25.9641 -2.0731
14.1506 -16.6496 -1.3176
13.2341 -9.5488 -0.9857
16.3674 -6.6076 -1.0666
37.4761 -5.3704 -2.2861
24.3278 8.6144 -1.5510
13.7298 9.0276 -0.9837
25.4434 27.4307 -2.2299
13.8735 25.0066 -1.6960
-20.2243 40.9532 -2.6600
-21.5635 25.6008 -1.9438
-23.2360 16.9238 -1.6665
-23.3040 3.4483 -1.3660
-23.4137 -2.2166 -1.3663
-23.6689 -15.4055 -1.6520
-23.8641 -25.4881 -2.0518
14.1665 -16.9767 -1.3332
13.2306 -9.7292 -0.9919
15.9303 -6.5991 -1.0420
28.2727 -4.3135 -1.7271
23.4334 8.0594 -1.4894
13.2453 8.5381 -0.9436
25.4337 26.9263 -2.2079
14.1683 25.0009 -1.7046
-21.2569 25.7063 -1.9373
-22.9340 17.0242 -1.6559
-23.2999 3.6639 -1.3675
-23.3291 -1.9954 -1.3601
-23.6630 -15.0980 -1.6417
-23.7730 -24.9338 -2.0241
14.1829 -17.3120 -1.3493
13.2271 -9.9119 -0.9982
15.5129 -6.5911 -1.0185
26.8079 -4.3382 -1.6400
23.8908 7.9761 -1.5140
13.7496 8.6884 -0.9740
25.4241 26.4337 -2.1867
14.4649 24.9952 -1.7134
-21.0080 25.8777 -1.9360
-22.6370 17.1230 -1.6456
-23.2957 3.8792 -1.3692
-23.4054 -1.7891 -1.3635
-23.6571 -14.7952 -1.6317
-23.8461 -24.5624 -2.0110
14.2000 -17.6571 -1.3660
13.2235 -10.0978 -1.0048
15.1124 -6.5833 -0.9961
25.3749 -4.3428 -1.5548
23.9364 7.7507 -1.5126
13.7952 8.5431 -0.9719
25.4148 25.9488 -2.1659
14.4577 24.4683 -1.6865
-20.8024 26.1047 -1.9390
-21.8109 16.8112 -1.5966
-23.2915 4.0959 -1.3710
-23.4013 -1.5755 -1.3622
-23.4350 -7.4687 -1.4327
-23.6513 -14.4950 -1.6219
-23.7555 -24.0309 -1.9846
14.2177 -18.0098 -1.3831
13.2199 -10.2854 -1.0115
14.7306 -6.5759 -0.9748
25.3744 -4.5791 -1.5573
24.6629 7.7405 -1.5542
13.8403 8.3990 -0.9698
25.4056 25.4750 -2.1458
14.3941 23.8656 -1.6542
-20.6449 26.3927 -1.9466
-21.6992 17.0397 -1.5997
-23.2873 4.3123 -1.3730
-23.3972 -1.3630 -1.3611
-23.5113 -7.2597 -1.4331
-23.5643 -14.1504 -1.6069
-23.7470 -23.5905 -1.9656
14.2360 -18.3732 -1.4009
13.2162 -10.4763 -1.0184
14.3633 -6.5688 -0.9544
25.3721 -4.8166 -1.5598
24.6429 7.4895 -1.5488
13.8637 8.2422 -0.9663
25.3965 25.0083 -2.1262
14.3289 23.2776 -1.6227
-20.5384 26.7529 -1.9595
-32.1582 25.7276 -2.3880
-35.6762 16.5118 -2.2778
-23.2831 4.5295 -1.3750
-23.3931 -1.1509 -1.3601
-23.5068 -7.0264 -1.4287
-23.7438 -13.9680 -1.6102
-23.7387 -23.1600 -1.9472
14.2549 -18.7449 -1.4193
13.2124 -10.6691 -1.0254
14.0124 -6.5620 -0.9350
25.3719 -5.0545 -1.5626
24.6231 7.2411 -1.5436
13.8676 8.0758 -0.9616
25.6229 24.7792 -2.1267
14.2745 22.7268 -1.5935
-20.4736 27.1732 -1.9769
-31.5550 25.7160 -2.3605
-23.1989 4.7318 -1.3725
-23.3889 -0.9382 -1.3591
-23.5023 -6.7935 -1.4244
-24.2279 -13.9586 -1.6341
-23.8123 -22.8141 -1.9358
14.2746 -19.1284 -1.4383
13.2086 -10.8654 -1.0327
13.6741 -6.5555 -0.9163
25.3741 -5.2946 -1.5657
29.4537 8.3723 -1.8418
13.8715 7.9105 -0.9570
26.0829 24.7703 -2.1465
14.4338 22.5243 -1.5887
-20.4520 27.6609 -1.9990
-30.9656 25.7046 -2.3338
-34.6026 16.7804 -2.2283
-23.2747 4.9666 -1.3795
-23.3045 -0.7240 -1.3537
-23.4978 -6.5628 -1.4203
-24.7249 -13.9490 -1.6588
-23.7224 -22.3205 -1.9117
14.2950 -19.5212 -1.4580
13.2048 -11.0637 -1.0401
13.3503 -6.5492 -0.8986
25.3744 -5.5343 -1.5688
29.2337 8.0251 -1.8236
13.8754 7.7475 -0.9526
26.5496 24.7613 -2.1668
14.7189 22.5188 -1.5979
-20.4420 28.1783 -2.0231
-30.3872 25.6934 -2.3078
-34.3592 17.0489 -2.2225
-23.2704 5.1867 -1.3819
-23.3807 -0.5143 -1.3577
-23.4934 -6.3325 -1.4164
-25.2393 -13.9390 -1.6845
-23.7963 -21.9866 -1.9012
14.3162 -19.9267 -1.4783
13.2009 -11.2658 -1.0478
13.2898 -6.6697 -0.8985
25.3750 -5.7760 -1.5721
28.2992 7.4932 -1.7612
13.8791 7.5853 -0.9482
26.9434 24.6772 -2.1810
15.0072 22.5132 -1.6074
-20.4318 28.7062 -2.0479
-29.8237 25.6825 -2.2827
-34.1161 17.3140 -2.2168
-23.2661 5.4068 -1.3845
-23.3766 -0.3030 -1.3571
-23.4082 -6.0829 -0.8618
-25.7687 -13.9288 -1.0499
-23.7067 -21.5099 -1.1555
-4.5488 -41.1825 -1.5320
13.4925 -19.1433 -0.8823
13.1969 -11.4705 -0.6608
13.2869 -6.8197 -0.5653
26.7606 -6.3471 -1.0406
29.8103 7.6045 -1.1566
18.3098 9.7919 -0.7762
25.4560 22.8917 -1.2712
15.8780 23.3554 -1.0406
-2.5063 19.6501 -0.7127
-21.1662 30.3183 -1.3147
-30.1620 26.4552 -1.4215
-32.1351 16.6776 -1.2807
-23.1819 5.6096 -0.8441
-23.2922 -0.0905 -0.8263
-23.4038 -5.8562 -0.8595
-26.3157 -13.9182 -1.0668
-23.6991 -21.1152 -1.1455
-4.9824 -41.6508 -1.5506
13.5005 -19.5275 -0.8942
13.1929 -11.6782 -0.6658
13.2840 -6.9708 -0.5678
26.7007 -6.5886 -1.0405
29.8198 7.3202 -1.1545
17.9186 9.3752 -0.7562
25.4302 22.4557 -1.2600
16.0843 23.2043 -1.0406
-21.1553 30.8946 -1.3316
-28.7282 25.6613 -1.3649
-32.4057 17.1919 -1.2977
-23.1776 5.8310 -0.8457
-23.2881 0.1202 -0.8260
-23.3994 -5.6306 -0.8573
-26.8807 -13.9073 -1.0843
-23.6916 -20.7270 -1.1357
-5.4699 -42.4642 -1.5822
13.5087 -19.9226 -0.9065
13.1888 -11.8893 -0.6710
13.2811 -7.1232 -0.5704
26.5405 -6.8045 -1.0367
29.8293 7.0370 -1.1526
17.7202 9.0680 -0.7445
25.7260 22.3058 -1.2650
16.2891 23.0515 -1.0406
-21.1442 31.4858 -1.3490
-28.6839 26.0922 -1.3742
-32.1722 17.4430 -1.2946
-23.1733 6.0534 -0.8475
-23.2840 0.3309 -0.8259
-23.3951 -5.4061 -0.8551
-27.4649 -13.8960 -1.1025
-23.6842 -20.3451 -1.1262
13.5174 -20.3289 -0.9192
13.1429 -12.0652 -0.6741
13.2781 -7.2771 -0.5731
17.1659 -4.5669 -0.6721
34.3035 7.7655 -1.3230
18.2842 9.1489 -0.7649
26.1907 22.2968 -1.2782
16.4925 22.8969 -1.0406
-21.1328 32.0924 -1.3670
-28.5266 26.4246 -1.3782
-31.9946 17.7231 -1.2939
-23.1690 6.2768 -0.8494
-23.2800 0.5416 -0.8258
-23.3908 -5.1826 -0.8531
-28.0695 -13.8843 -1.1214
-23.6769 -19.9694 -1.1169
-6.9886 -47.4590 -1.7717
13.5264 -20.7471 -0.9324
13.2444 -12.3810 -0.6850
13.2751 -7.4325 -0.5758
17.1627 -4.7328 -0.6737
35.1914 7.6323 -1.3547
18.4505 9.0242 -0.7686
26.6651 22.2876 -1.2918
16.6925 22.7378 -1.0406
-21.1210 32.7152 -1.3855
-28.0024 26.4140 -1.3645
-33.3195 18.8530 -1.3544
-23.1646 6.5011 -0.8513
-23.2759 0.7522 -0.8257
-23.3865 -4.9601 -0.8511
-28.6955 -13.8721 -1.1411
-23.6698 -19.5995 -1.1078
-7.0658 -45.1444 -1.6871
13.5357 -21.1780 -0.9460
13.2401 -12.6034 -0.6905
13.2721 -7.5893 -0.5786
17.1595 -4.8994 -0.6753
35.1874 7.2987 -1.3522
18.6184 8.8985 -0.7723
27.1495 22.2782 -1.3058
16.8873 22.5720 -1.0402
13.8586 32.6870 -1.2996
-2.3007 28.1264 -1.0167
-21.1090 33.3552 -1.4047
-27.4889 26.4035 -1.3512
-28.5401 16.4914 -1.1662
-23.1603 6.7266 -0.8533
-23.2718 0.9630 -0.8258
-23.3822 -4.7385 -0.8492
-29.3443 -13.8596 -1.1615
-23.6627 -19.2355 -1.0990
-7.4828 -45.1320 -1.6886
13.5454 -21.6218 -0.9602
13.2357 -12.8296 -0.6963
13.2690 -7.7477 -0.5815
24.7710 -7.3158 -0.9775
35.1611 6.9619 -1.3489
18.8556 8.8032 -0.7790
27.6440 22.2687 -1.3202
17.0920 22.4198 -1.0406
13.8423 31.8438 -1.2714
-21.0359 33.9148 -1.4205
-2.8284 2.7664 -0.1403
-28.0746 16.5631 -1.1533
-23.1559 6.9531 -0.8554
-23.2677 1.1739 -0.8259
-23.3779 -4.5179 -0.8473
-30.0170 -13.8466 -1.1829
-23.6558 -18.8769 -1.0904
-27.8576 -36.1938 -1.6583
-7.9009 -45.1195 -1.6902
13.1490 -12.9785 -0.6978
13.2659 -7.9078 -0.5844
22.0075 -6.7168 -0.8708
39.8140 7.5096 -1.5250
18.8835 8.6089 -0.7771
28.1497 22.2589 -1.3350
17.4103 22.4137 -1.0479
13.7142 30.7842 -1.2343
-20.6082 33.9065 -1.4125
-2.7957 2.7843 -0.1399
-27.9588 16.8377 -1.1548
-23.1515 7.1807 -0.8575
-23.2637 1.3847 -0.8261
-23.3736 -4.2980 -0.8456
-30.7155 -13.8331 -1.2052
-23.6489 -18.5237 -1.0820
-23.8798 -30.4514 -1.4046
-8.3200 -45.1068 -1.6920
13.1629 -13.2294 -0.7048
13.1974 -8.0297 -0.5846
21.2696 -6.7025 -0.8440
40.5065 7.2612 -1.5492
18.9411 8.4289 -0.7765
28.6665 22.2489 -1.3503
17.7327 22.4074 -1.0554
13.8117 30.2635 -1.2188
-21.0694 35.3828 -1.4663
-2.7803 2.8195 -0.1404
-27.6725 17.0083 -1.1493
-23.1470 7.4097 -0.8598
-23.2596 1.5959 -0.8263
-23.3694 -4.0789 -0.8439
-31.4412 -13.8190 -1.2284
-23.6422 -18.1757 -1.0738
-23.9510 -29.9797 -1.3923
-8.7403 -45.0940 -1.6939
13.1583 -13.4663 -0.7109
13.1533 -8.1669 -0.5859
13.7784 -4.4793 -0.5483
40.4766 6.8783 -1.5459
18.9985 8.2494 -0.7759
29.1948 22.2386 -1.3660
20.1199 24.9564 -1.1843
13.7973 29.5217 -1.1943
-2.0447 44.9861 -1.6243
-21.0552 36.0978 -1.4883
-25.5302 26.3637 -1.3016
-25.8490 16.2117 -1.0797
-23.1426 7.6398 -0.8621
-23.2555 1.8071 -0.8266
-23.3652 -3.8607 -0.8423
-32.1955 -13.8044 -1.2526
-23.6356 -17.8326 -1.0659
-23.9401 -29.4162 -1.3758
-9.1617 -45.0809 -1.6960
13.1536 -13.7076 -0.7173
13.3207 -8.4388 -0.5966
13.5361 -4.5364 -0.5403
44.1361 7.0900 -1.6834
19.0554 8.0699 -0.7754
12.6017 9.4201 -0.5858
20.4895 24.9493 -1.1931
13.7836 28.8102 -1.1708
-21.0405 36.8343 -1.5110
-25.0631 26.3542 -1.2900
-24.6743 15.7877 -1.0366
-23.1381 7.8711 -0.8646
-23.2514 2.0186 -0.8270
-23.3610 -3.6432 -0.8408
-32.9810 -13.7892 -1.2780
-23.6290 -17.4944 -1.0581
-23.9294 -28.8655 -1.3597
13.1489 -13.9531 -0.7238
13.3174 -8.6065 -0.5999
13.5335 -4.6721 -0.5419
45.8031 6.9331 -1.7448
19.0616 7.8698 -0.7729
12.4150 9.1066 -0.5734
20.8644 24.9420 -1.2021
13.7703 28.1252 -1.1484
-21.0254 37.5938 -1.5346
-24.6040 26.3449 -1.2788
-23.9584 15.6370 -1.0125
-23.1336 8.1039 -0.8671
-23.2473 2.2304 -0.8275
-23.3568 -3.4263 -0.8394
-33.7995 -13.7734 -1.3045
-23.6226 -17.1608 -1.0505
-23.9190 -28.3272 -1.3441
13.1440 -14.2034 -0.7305
13.3141 -8.7762 -0.6033
13.5308 -4.8087 -0.5435
48.0345 -4.8266 -1.8246
45.7697 6.5049 -1.7415
19.0676 7.6711 -0.7704
12.8880 9.2753 -0.5915
21.1180 24.7864 -1.2040
13.8010 27.5542 -1.1304
-21.0099 38.3771 -1.5590
-24.1529 26.3357 -1.2678
-23.7606 15.8164 -1.0102
-23.1291 8.3381 -0.8697
-23.2432 2.4425 -0.8280
-23.3526 -3.2100 -0.8380
-34.6530 -13.7569 -1.3323
-23.6162 -16.8321 -1.0431
-23.9088 -27.8012 -1.3289
13.1391 -14.4584 -0.7374
13.3108 -8.9479 -0.6068
18.1677 -6.6425 -0.7322
48.0205 -5.2646 -1.8260
23.4980 9.2075 -0.9462
13.0335 9.2022 -0.5945
21.5701 24.8576 -1.2173
13.6335 26.6155 -1.0973
-20.9938 39.1856 -1.5844
-23.3973 25.9799 -1.2406
-24.7281 16.7854 -1.0578
-23.1245 8.5737 -0.8724
-23.2391 2.6549 -0.8286
-23.3484 -2.9946 -0.8367
-35.5434 -13.7396 -1.3614
-23.6099 -16.5075 -1.0360
-23.8989 -27.2861 -1.3142
13.1341 -14.7183 -0.7444
13.2668 -9.0938 -0.6085
17.6432 -6.6323 -0.7134
38.4093 -4.5628 -1.4621
23.7395 9.0552 -0.9528
13.1804 9.1284 -0.5975
21.9609 24.8501 -1.2270
13.7335 26.2230 -1.0865
-20.9772 40.0206 -1.6107
-23.2738 26.3179 -1.2468
-23.1199 8.8106 -0.8752
-23.2350 2.8675 -0.8293
-23.3443 -2.7796 -0.8355
-36.4750 -13.7216 -1.3920
-23.6037 -16.1871 -1.0289
-23.8891 -26.7821 -1.2999
-2.9583 -5.5858 -0.2308
13.4227 -15.3184 -0.7685
13.1338 -9.1782 -0.6061
17.1452 -6.6227 -0.6957
36.0463 -4.6133 -1.3738
23.9591 8.8914 -0.9586
13.3289 9.0538 -0.6007
22.3578 24.8424 -1.2369
13.7221 25.6340 -1.0675
-2.6543 11.2133 -0.4133
-20.9861 40.9335 -1.6401
-22.8455 26.3091 -1.2367
-23.2308 3.0806 -0.8300
-23.3401 -2.5651 -0.8343
-23.5976 -15.8708 -1.0221
-23.8382 -26.2429 -1.2838
-3.0134 -5.5673 -0.2311
13.4274 -15.6064 -0.7767
13.2364 -9.4294 -0.6147
16.6710 -6.6135 -0.6789
36.0424 -4.9447 -1.3754
23.8067 8.5905 -0.9495
13.2033 8.7949 -0.5915
25.4500 27.7686 -1.3944
13.7111 25.0656 -1.0493
-22.4238 26.3006 -1.2269
-23.2131 16.6948 -1.0122
-23.2267 3.2943 -0.8308
-23.3360 -2.3511 -0.8333
-23.5915 -15.5585 -1.0154
-23.8702 -25.8050 -1.2725
13.4322 -15.9009 -0.7852
13.2330 -9.6086 -0.6185
16.2191 -6.6047 -0.6629
36.0386 -5.2770 -1.3772
23.8259 8.3545 -0.9474
13.4721 8.7990 -0.6001
25.4401 27.2584 -1.3807
13.8189 24.7290 -1.0407
-22.0118 26.2957 -1.2175
-25.0028 18.3275 -1.0975
-23.2226 3.5083 -0.8317
-23.3318 -2.1376 -0.8323
-23.5856 -15.2501 -1.0089
-23.8610 -25.3317 -1.2594
13.4372 -16.2021 -0.7939
13.2295 -9.7902 -0.6224
15.7902 -6.5973 -0.6478
27.6270 -4.3010 -1.0573
24.3438 8.2894 -0.9652
13.5174 8.6553 -0.5988
25.4304 26.7588 -1.3674
14.0330 24.5869 -1.0404
-21.6432 26.3360 -1.2104
-24.9037 18.6037 -1.1006
-23.2184 3.7229 -0.8326
-23.3277 -1.9245 -0.8313
-23.5797 -14.9457 -1.0026
-23.7701 -24.7819 -1.2423
13.4425 -16.5102 -0.8029
13.2259 -9.9741 -0.6265
15.3886 -6.5938 -0.6337
27.1323 -4.4759 -1.0399
24.4152 8.0681 -0.9653
13.5626 8.5121 -0.5975
25.4209 26.2685 -1.3544
14.2510 24.4521 -1.0404
-21.4233 26.5547 -1.2117
-24.8685 18.9305 -1.1066
-23.2142 3.9379 -0.8337
-23.3236 -1.7120 -0.8305
-23.4381 -7.6262 -0.8794
-23.5739 -14.6446 -0.9964
-23.7613 -24.3281 -1.2300
-2.1323 -42.8895 -1.5909
13.4479 -16.8257 -0.8122
13.2223 -10.1602 -0.6306
14.9954 -6.5864 -0.6200
27.1061 -4.7238 -1.0406
24.4318 7.8291 -0.9633
13.6076 8.3697 -0.5963
25.4116 25.7878 -1.3418
14.4676 24.3152 -1.0404
-21.2831 26.8746 -1.2176
-22.8537 17.7254 -1.0241
-34.4603 15.3223 -1.3340
-23.2101 4.1536 -0.8348
-23.3195 -1.4996 -0.8297
-23.4335 -7.3909 -0.8765
-23.5681 -14.3471 -0.9904
-23.7527 -23.8830 -1.2179
-2.4980 -42.4877 -1.5763
13.4535 -17.1484 -0.8218
13.2186 -10.3490 -0.6348
14.5776 -6.5609 -0.6051
27.0607 -4.9686 -1.0406
24.4396 7.5884 -0.9610
13.6525 8.2279 -0.5951
25.4025 25.3161 -1.3295
13.9244 22.9274 -0.9867
-21.2256 27.3062 -1.2286
-22.5758 17.8393 -1.0190
-34.3885 15.6646 -1.3366
-23.2059 4.3700 -0.8360
-23.3154 -1.2876 -0.8290
-23.4290 -7.1570 -0.8737
-23.5624 -14.0529 -0.9845
-23.7442 -23.4463 -1.2062
-2.8573 -42.0930 -1.5621
13.4594 -17.4797 -0.8316
13.2149 -10.5406 -0.6391
14.2439 -6.5665 -0.5937
25.0258 -4.8297 -0.9640
24.4474 7.3486 -0.9589
13.6902 8.0825 -0.5937
25.3935 24.8527 -1.3176
14.8973 24.0358 -1.0405
-21.2135 27.8064 -1.2426
-22.2601 17.9195 -1.0121
-34.3380 16.0184 -1.3402
-23.2017 4.5870 -0.8372
-23.3113 -1.0759 -0.8284
-23.4245 -6.9245 -0.8710
-23.9039 -13.9649 -0.9932
-23.7359 -23.0176 -1.1948
-3.2104 -41.7051 -1.5483
13.4658 -17.8193 -0.8418
13.2112 -10.7343 -0.6436
13.8977 -6.5598 -0.5817
25.0213 -5.0637 -0.9657
29.7150 8.6401 -1.1626
13.6947 7.9192 -0.5909
25.5565 24.5642 -1.3148
15.1096 23.8937 -1.0405
-21.2038 28.3215 -1.2572
-22.9145 18.7906 -1.0496
-34.5003 16.4759 -1.3524
-23.1975 4.8047 -0.8385
-23.3072 -0.8644 -0.8278
-23.4200 -6.6933 -0.8684
-24.3919 -13.9554 -1.0079
-23.7278 -22.5966 -1.1837
-3.5575 -41.3237 -1.5348
13.4727 -18.1673 -0.8524
13.2074 -10.9311 -0.6481
13.5646 -6.5534 -0.5702
26.9106 -5.7001 -1.0406
28.6145 8.0400 -1.1168
38.9405 22.0500 -1.6719
25.5282 24.0962 -1.3025
15.3210 23.7493 -1.0405
-21.0741 28.6857 -1.2651
-22.6951 18.9568 -1.0475
-34.6286 16.9237 -1.3634
-23.1932 5.0231 -0.8399
-23.3031 -0.6531 -0.8273
-23.4156 -6.4634 -0.8659
-24.8949 -13.9457 -1.0232
-23.7198 -22.1831 -1.1729
-3.8982 -40.9494 -1.5217
13.4799 -18.5251 -0.8633
13.2035 -11.1308 -0.6528
13.2918 -6.5706 -0.5612
26.8561 -5.9430 -1.0406
29.1306 7.9013 -1.1344
39.7335 22.0265 -1.6977
25.5006 23.6374 -1.2904
15.5310 23.6032 -1.0405
-20.7359 28.7675 -1.2606
-22.4767 19.1223 -1.0454
-32.4676 16.2333 -1.2840
-23.1890 5.2424 -0.8414
-23.2990 -0.4420 -0.8269
-23.4111 -6.2347 -0.8634
-25.4137 -13.9357 -1.0391
-23.7119 -21.7776 -1.1624
-4.2649 -40.8760 -1.5199
13.4873 -18.8924 -0.8745
13.1996 -11.3335 -0.6576
13.2889 -6.7195 -0.5636
26.7996 -6.1855 -1.0406
29.8039 7.7950 -1.1580
25.4736 23.1874 -1.2788
15.7396 23.4552 -1.0406
-21.1733 29.9418 -1.3038
-30.5397 26.4621 -1.4317
-32.2680 16.5002 -1.2820
-23.1847 5.4624 -0.8430
-23.2949 -0.2311 -0.8265
-23.4067 -6.0076 -0.8610
-25.9481 -13.9253 -1.0555
-23.7042 -21.3782 -1.1522
-4.6915 -41.3367 -1.5381
13.4951 -19.2698 -0.8862
13.1956 -11.5392 -0.6625
13.2860 -6.8697 -0.5661
26.7410 -6.4274 -1.0406
29.8134 7.5098 -1.1559
18.3555 9.7454 -0.7770
25.4474 22.7457 -1.2674
15.9469 23.3053 -1.0406
-21.1626 30.5087 -1.3203
-29.9752 26.4518 -1.4165
-32.0688 16.7661 -1.2801
-23.1805 5.6829 -0.8446
-23.2909 -0.0206 -0.8262
-23.4024 -5.7813 -0.8587
-26.5011 -13.9146 -1.0725
-23.6966 -20.9856 -1.1422
-5.1294 -41.8137 -1.5571
13.5032 -19.6576 -0.8982
13.1916 -11.7480 -0.6675
13.2830 -7.0213 -0.5687
27.2803 -6.8188 -1.0639
29.8229 7.2258 -1.1539
17.9858 9.3414 -0.7579
25.4218 22.3123 -1.2564
16.1527 23.1536 -1.0406
-21.1517 31.0900 -1.3373
-28.6899 25.7822 -1.3668
-32.3414 17.2824 -1.2972
-23.1762 5.9047 -0.8463
-23.2868 0.1901 -0.8260
-23.3980 -5.5560 -0.8565
-27.0725 -13.9036 -1.0902
-23.6891 -20.5995 -1.1325
-5.6434 -42.7957 -1.5950
13.5116 -20.0564 -0.9107
13.1875 -11.9601 -0.6727
13.2801 -7.1743 -0.5713
26.1858 -6.7976 -1.0237
34.1238 7.9416 -1.3177
18.1741 9.2314 -0.7625
25.8797 22.3028 -1.2693
16.3571 23.0002 -1.0406
-21.1404 31.6852 -1.3549
-28.6809 26.2472 -1.3778
-32.0791 17.5173 -1.2930
-23.1719 6.1274 -0.8481
-23.2827 0.4008 -0.8258
-23.3937 -5.3318 -0.8544
-27.6634 -13.8921 -1.1087
-23.6818 -20.2196 -1.1230
13.5203 -20.4667 -0.9235
13.0776 -12.0781 -0.6726
13.2771 -7.3287 -0.5740
17.1648 -4.6221 -0.6726
34.4704 7.6941 -1.3286
18.3394 9.1075 -0.7661
26.3477 22.2937 -1.2827
16.5595 22.8443 -1.0406
-21.1289 32.2972 -1.3731
-28.3514 26.4211 -1.3736
-32.2603 17.9972 -1.3069
-23.1675 6.3512 -0.8500
-23.2786 0.6115 -0.8258
-23.3893 -5.1086 -0.8524
-28.2751 -13.8803 -1.1278
-23.6745 -19.8458 -1.1138
-6.9508 -46.2361 -1.7266
13.5294 -20.8891 -0.9369
13.2429 -12.4547 -0.6868
13.2741 -7.4845 -0.5767
17.1616 -4.7882 -0.6742
35.1853 7.5200 -1.3537
18.5063 8.9824 -0.7698
26.8245 22.2845 -1.2964
16.7574 22.6833 -1.0405
-21.1171 32.9257 -1.3918
-27.8307 26.4105 -1.3600
-23.1632 6.5759 -0.8519
-23.2745 0.8223 -0.8257
-23.3850 -4.8864 -0.8504
-28.9086 -13.8680 -1.1478
-23.6674 -19.4779 -1.1048
-7.2044 -45.1403 -1.6876
13.5389 -21.3243 -0.9507
13.2386 -12.6784 -0.6924
13.2710 -7.6419 -0.5796
24.7741 -7.1544 -0.9758
35.1787 7.1869 -1.3511
18.2613 8.6606 -0.7565
27.3123 22.2751 -1.3105
16.9538 22.5197 -1.0403
13.8531 32.4033 -1.2901
-21.1049 33.5715 -1.4113
-2.8723 2.7756 -0.1416
-28.4427 16.5494 -1.1642
-23.1588 6.8017 -0.8540
-23.2705 1.0331 -0.8258
-23.3807 -4.6650 -0.8485
-29.5653 -13.8553 -1.1685
-23.6604 -19.1156 -1.0961
-7.6219 -45.1279 -1.6891
13.5492 -21.7736 -0.9651
13.2342 -12.9058 -0.6982
13.2680 -7.8009 -0.5825
24.7694 -7.3962 -0.9783
35.1524 6.8507 -1.3479
18.8578 8.7353 -0.7781
27.8106 22.2654 -1.3251
17.1972 22.4178 -1.0430
13.7245 31.3153 -1.2520
-20.8932 33.9120 -1.4178
-2.8163 2.7711 -0.1401
-28.1516 16.7229 -1.1585
-23.1544 7.0287 -0.8561
-23.2664 1.2440 -0.8259
-23.3765 -4.4446 -0.8467
-30.2466 -13.8421 -1.1902
-23.6535 -18.7587 -1.0876
-27.8531 -35.9633 -1.6514
-8.0404 -45.1153 -1.6908
13.0688 -12.9769 -0.6956
13.2649 -7.9612 -0.5854
21.7577 -6.7119 -0.8617
39.7967 7.3826 -1.5236
18.9026 8.5491 -0.7769
28.3199 22.2556 -1.3400
17.5169 22.4116 -1.0504
13.7109 30.5298 -1.2259
-2.2142 36.5456 -1.3199
-20.4671 33.9038 -1.4099
-2.7906 2.7960 -0.1401
-27.8633 16.8946 -1.1530
