ply
format ascii 1.0
element vertex 2176
property float32 x
property float32 y
property float32 z
end_header
1.9859 5.0946 2.2728
0.4357 3.3699 1.3813
-0.3855 3.3769 1.3468
-2.0494 5.5277 2.2728
-3.1723 4.6818 2.1204
-4.3060 3.8970 2.1204
-5.2287 2.8330 2.1204
-6.2832 1.6582 2.2728
-6.5856 0.1312 2.2728
-6.4754 -1.4342 2.2728
-5.5543 -2.7227 2.1204
-4.7209 -3.9256 2.1204
-3.6104 -4.8597 2.1204
-2.3826 -5.6286 2.1834
-0.9979 -6.1311 2.2728
0.2445 -3.1115 1.1730
1.8445 -5.5849 2.2728
3.0420 -4.8476 2.2728
4.0134 -3.8766 2.2728
4.7239 -2.7355 2.2728
5.1540 -1.4872 2.2728
5.2964 -0.1928 2.2728
5.1533 1.0905 2.2728
4.7353 2.3083 2.2728
4.0600 3.4092 2.2728
3.1523 4.3437 2.2728
2.0457 5.0649 2.2728
0.4741 3.3685 1.4746
-0.3474 3.3756 1.4357
-1.8597 5.1915 2.2728
-2.9150 4.4061 2.1204
-3.9772 3.6805 2.1204
-4.8437 2.6951 2.1204
-5.4428 1.5029 2.1204
-6.1292 0.1931 2.2728
-5.6382 -1.1792 2.1204
-5.2026 -2.4732 2.1204
-4.4442 -3.6042 2.1204
-3.4247 -4.4913 2.1204
-2.3645 -5.3939 2.2522
-0.5209 -2.9597 1.1755
0.1914 -2.9217 1.1747
0.8591 -2.7204 1.1753
2.7968 -4.5895 2.2728
3.7247 -3.6931 2.2728
4.4101 -2.6307 2.2728
4.8324 -1.4619 2.2728
4.9830 -0.2445 2.2728
4.8632 0.9662 2.2728
4.4820 2.1178 2.2728
3.8563 3.1607 2.2728
3.0099 4.0474 2.2728
1.9749 4.7331 2.2728
0.5158 3.3682 1.4787
-0.3061 3.3753 1.4357
-1.7946 5.2066 2.2728
-2.8581 4.4350 2.1204
-3.9281 3.7233 2.1204
-4.8062 2.7498 2.1204
-5.4202 1.5663 2.1204
-6.1233 0.2658 2.2728
-5.6508 -1.1120 2.1204
-5.2325 -2.4116 2.1204
-4.4889 -3.5529 2.1204
-3.4807 -4.4537 2.1204
-2.3695 -5.2346 2.1950
-0.5570 -2.9570 1.1756
0.1565 -2.9276 1.1747
0.8274 -2.7340 1.1752
2.7446 -4.6288 2.2728
3.6839 -3.7424 2.2728
4.3820 -2.6869 2.2728
4.8177 -1.5220 2.2728
4.9820 -0.3057 2.2728
4.8755 0.9066 2.2728
4.5071 2.0624 2.2728
3.8930 3.1119 2.2728
3.0570 4.0074 2.2728
2.0306 4.7043 2.2728
0.5577 3.3678 1.4831
-0.2650 3.3749 1.4359
-1.7294 5.2209 2.2728
-2.8010 4.4631 2.1204
-3.8785 3.7654 2.1204
-4.7680 2.8040 2.1204
-5.3967 1.6294 2.1204
-6.1165 0.3384 2.2728
-5.6625 -1.0445 2.1204
-5.2615 -2.3496 2.1204
-4.5330 -3.5009 2.1204
-3.5362 -4.4153 2.1204
-2.3742 -5.0828 2.1409
-0.5931 -2.9539 1.1757
0.1216 -2.9331 1.1747
0.7954 -2.7473 1.1752
2.6919 -4.6677 2.2728
3.6424 -3.7912 2.2728
4.3532 -2.7427 2.2728
4.8023 -1.5819 2.2728
4.9802 -0.3668 2.2728
4.8871 0.8469 2.2728
4.5315 2.0068 2.2728
3.9292 3.0627 2.2728
3.1036 3.9670 2.2728
2.0858 4.6748 2.2728
0.5998 3.3674 1.4877
-0.2239 3.3746 1.4363
-1.6642 5.2345 2.2728
-2.7436 4.4905 2.1204
-3.8284 3.8069 2.1204
-4.7291 2.8577 2.1204
-5.3725 1.6921 2.1204
-6.1087 0.4108 2.2728
-5.6733 -0.9770 2.1204
-5.2897 -2.2872 2.1204
-4.5764 -3.4484 2.1204
-3.5912 -4.3763 2.1204
-2.4138 -5.0108 2.1204
-0.6292 -2.9503 1.1757
0.0865 -2.9382 1.1747
0.7632 -2.7602 1.1751
2.6387 -4.7059 2.2728
3.6003 -3.8396 2.2728
4.3237 -2.7983 2.2728
4.7863 -1.6417 2.2728
4.9778 -0.4280 2.2728
4.8981 0.7871 2.2728
4.5553 1.9508 2.2728
3.9649 3.0131 2.2728
3.1497 3.9261 2.2728
2.1407 4.6447 2.2728
0.6420 3.3670 1.4925
-0.1829 3.3743 1.4369
-1.5988 5.2472 2.2728
-2.6859 4.5172 2.1204
-3.7779 3.8477 2.1204
-4.6897 2.9108 2.1204
-5.3474 1.7545 2.1204
-6.1000 0.4832 2.2728
-5.6831 -0.9093 2.1204
-5.3171 -2.2245 2.1204
-4.6191 -3.3953 2.1204
-3.6457 -4.3365 2.1204
-2.4759 -4.9867 2.1204
-0.6652 -2.9463 1.1758
0.0513 -2.9429 1.1747
0.7309 -2.7728 1.1750
2.5850 -4.7436 2.2728
3.5577 -3.8876 2.2728
4.2936 -2.8536 2.2728
4.7696 -1.7014 2.2728
4.9747 -0.4892 2.2728
4.9084 0.7271 2.2728
4.5785 1.8947 2.2728
4.0000 2.9631 2.2728
3.1954 3.8847 2.2728
2.1952 4.6141 2.2728
0.6844 3.3666 1.4976
-0.1420 3.3739 1.4377
-1.5334 5.2591 2.2728
-2.6280 4.5431 2.1204
-3.7270 3.8878 2.1204
-4.6495 2.9633 2.1204
-5.3216 1.8165 2.1204
-6.0903 0.5554 2.2728
-5.6921 -0.8415 2.1204
-5.3436 -2.1613 2.1204
-4.6611 -3.3416 2.1204
-3.6998 -4.2959 2.1204
-2.5376 -4.9617 2.1204
-0.7013 -2.9419 1.1759
0.0160 -2.9472 1.1747
0.6984 -2.7849 1.1750
2.5307 -4.7806 2.2728
3.5144 -3.9351 2.2728
4.2629 -2.9086 2.2728
4.7521 -1.7609 2.2728
4.9709 -0.5503 2.2728
4.9181 0.6671 2.2728
4.6010 1.8382 2.2728
4.0345 2.9128 2.2728
3.2406 3.8428 2.2728
2.2493 4.5828 2.2728
0.7270 3.3662 1.5029
-0.1010 3.3736 1.4387
-1.1321 4.0644 1.7528
-2.5698 4.5683 2.1204
-3.6755 3.9272 2.1204
-4.6088 3.0153 2.1204
-5.2949 1.8781 2.1204
-6.0797 0.6274 2.2728
-5.7002 -0.7736 2.1204
-5.3693 -2.0979 2.1204
-4.7024 -3.2873 2.1204
-3.7533 -4.2547 2.1204
-2.5992 -4.9359 2.1204
-0.7373 -2.9370 1.1760
-0.0193 -2.9510 1.1748
0.6657 -2.7968 1.1749
2.4760 -4.8171 2.2728
3.4706 -3.9822 2.2728
4.2315 -2.9633 2.2728
4.7341 -1.8202 2.2728
4.9665 -0.6115 2.2728
4.9271 0.6069 2.2728
4.6229 1.7816 2.2728
4.0684 2.8621 2.2728
3.2852 3.8005 2.2728
2.3029 4.5510 2.2728
0.7699 3.3658 1.5084
-0.0602 3.3732 1.4399
-0.8976 3.3798 1.4547
-2.5114 4.5927 2.1204
-3.6237 3.9660 2.1204
-4.5674 3.0667 2.1204
-5.2675 1.9394 2.1204
-5.6612 0.6523 2.1204
-6.1176 -0.7564 2.2728
-5.3942 -2.0341 2.1204
-4.7430 -3.2324 2.1204
-3.8064 -4.2127 2.1204
-2.6604 -4.9093 2.1204
-0.7733 -2.9316 1.1761
-0.0548 -2.9544 1.1748
0.6328 -2.8082 1.1749
2.4208 -4.8529 2.2728
3.4261 -4.0288 2.2728
4.1994 -3.0177 2.2728
4.7153 -1.8794 2.2728
4.9613 -0.6726 2.2728
4.9355 0.5465 2.2728
4.6443 1.7247 2.2728
4.1018 2.8111 2.2728
3.3294 3.7577 2.2728
2.3562 4.5186 2.2728
0.8130 3.3654 1.5142
-0.0193 3.3729 1.4414
-0.8540 3.3795 1.4520
-2.4528 4.6165 2.1204
-3.5715 4.0040 2.1204
-4.5254 3.1176 2.1204
-5.2394 2.0002 2.1204
-5.6496 0.7192 2.1204
-6.1243 -0.6834 2.2728
-5.4181 -1.9700 2.1204
-4.7829 -3.1771 2.1204
-3.8589 -4.1699 2.1204
-2.7213 -4.8819 2.1204
-0.8093 -2.9258 1.1762
-0.0903 -2.9574 1.1748
0.5997 -2.8193 1.1749
2.3651 -4.8882 2.2728
3.3811 -4.0749 2.2728
4.1667 -3.0717 2.2728
4.6959 -1.9384 2.2728
4.9555 -0.7337 2.2728
4.9431 0.4861 2.2728
4.6649 1.6675 2.2728
4.1346 2.7597 2.2728
3.3730 3.7144 2.2728
2.4091 4.4857 2.2728
0.8563 3.3650 1.5202
0.0216 3.3725 1.4430
-0.8107 3.3792 1.4494
-2.3939 4.6395 2.1204
-3.5188 4.0414 2.1204
-4.4828 3.1678 2.1204
-5.2104 2.0606 2.1204
-5.6371 0.7858 2.1204
-6.1300 -0.6104 2.2728
-5.4413 -1.9055 2.1204
-4.8220 -3.1211 2.1204
-3.9108 -4.1265 2.1204
-2.7819 -4.8537 2.1204
-0.8452 -2.9195 1.1764
-0.1259 -2.9600 1.1748
0.5665 -2.8299 1.1748
2.3089 -4.9228 2.2728
3.3355 -4.1206 2.2728
4.1333 -3.1255 2.2728
4.6757 -1.9973 2.2728
4.9490 -0.7947 2.2728
4.9502 0.4256 2.2728
4.6850 1.6102 2.2728
4.1668 2.7080 2.2728
3.4162 3.6706 2.2728
2.4616 4.4521 2.2728
0.8999 3.3645 1.5265
0.0624 3.3722 1.4448
-0.7676 3.3788 1.4471
-2.3349 4.6617 2.1204
-3.4657 4.0781 2.1204
-4.4396 3.2175 2.1204
-5.1807 2.1206 2.1204
-5.6237 0.8522 2.1204
-6.1348 -0.5374 2.2728
-5.4636 -1.8408 2.1204
-4.8605 -3.0647 2.1204
-3.9623 -4.0824 2.1204
-2.8422 -4.8247 2.1204
-0.8812 -2.9128 1.1765
-0.1616 -2.9622 1.1749
0.5332 -2.8402 1.1748
2.2523 -4.9568 2.2728
3.2893 -4.1657 2.2728
4.0994 -3.1789 2.2728
4.6549 -2.0559 2.2728
4.9418 -0.8557 2.2728
4.9565 0.3650 2.2728
4.7044 1.5526 2.2728
4.1984 2.6559 2.2728
3.4588 3.6264 2.2728
2.5136 4.4180 2.2728
0.9438 3.3641 1.5330
0.1033 3.3718 1.4469
-0.7248 3.3785 1.4450
-2.2756 4.6832 2.1204
-3.4122 4.1141 2.1204
-4.3959 3.2666 2.1204
-5.1503 2.1801 2.1204
-5.6094 0.9185 2.1204
-6.1386 -0.4642 2.2728
-5.4850 -1.7757 2.1204
-4.8981 -3.0077 2.1204
-4.0131 -4.0376 2.1204
-2.9021 -4.7949 2.1204
-1.7714 -5.6130 2.2728
-0.1973 -2.9639 1.1749
0.4996 -2.8502 1.1748
2.1952 -4.9902 2.2728
3.2426 -4.2104 2.2728
4.0647 -3.2320 2.2728
4.6335 -2.1144 2.2728
4.9339 -0.9167 2.2728
4.9622 0.3044 2.2728
4.7231 1.4948 2.2728
4.2294 2.6035 2.2728
3.5010 3.5818 2.2728
2.5652 4.3834 2.2728
0.9880 3.3637 1.5398
0.1442 3.3715 1.4491
-0.6821 3.3782 1.4431
-2.2162 4.7040 2.1204
-3.3584 4.1494 2.1204
-4.3515 3.3151 2.1204
-5.1191 2.2392 2.1204
-5.5943 0.9844 2.1204
-6.1414 -0.3911 2.2728
-5.5055 -1.7104 2.1204
-4.9351 -2.9502 2.1204
-4.0634 -3.9921 2.1204
-2.9617 -4.7643 2.1204
-1.8404 -5.5977 2.2728
-0.2331 -2.9652 1.1750
0.4659 -2.8597 1.1747
2.1376 -5.0229 2.2728
3.1952 -4.2546 2.2728
4.0295 -3.2847 2.2728
4.6113 -2.1726 2.2728
4.9254 -0.9776 2.2728
4.9672 0.2436 2.2728
4.7413 1.4368 2.2728
4.2599 2.5509 2.2728
3.5426 3.5367 2.2728
2.6164 4.3482 2.2728
1.0325 3.3633 1.5468
0.1852 3.3711 1.4515
-0.6397 3.3779 1.4414
-2.1566 4.7240 2.1204
-3.3042 4.1840 2.1204
-4.3066 3.3629 2.1204
-3.7941 1.7138 1.5815
-5.5783 1.0502 2.1204
-6.1433 -0.3180 2.2728
-5.5252 -1.6448 2.1204
-4.9713 -2.8922 2.1204
-4.1131 -3.9459 2.1204
-3.0210 -4.7329 2.1204
-1.9092 -5.5815 2.2728
-0.2690 -2.9660 1.1750
0.4321 -2.8688 1.1747
2.0796 -5.0550 2.2728
3.1474 -4.2983 2.2728
3.9936 -3.3371 2.2728
4.5885 -2.2307 2.2728
4.9162 -1.0384 2.2728
4.9715 0.1828 2.2728
4.7588 1.3786 2.2728
4.2897 2.4981 2.2728
3.5837 3.4912 2.2728
2.6672 4.3124 2.2728
1.0773 3.3628 1.5541
0.2262 3.3708 1.4542
-0.5975 3.3776 1.4400
-2.0989 4.7479 2.1226
-3.2496 4.2179 2.1204
-4.2612 3.4102 2.1204
-3.7473 1.7467 1.5720
-5.5615 1.1157 2.1204
-6.1442 -0.2449 2.2728
-5.5440 -1.5790 2.1204
-5.0067 -2.8337 2.1204
-4.1623 -3.8991 2.1204
-3.0799 -4.7007 2.1204
-1.9779 -5.5644 2.2728
-0.3048 -2.9664 1.1751
0.3981 -2.8776 1.1747
2.0211 -5.0864 2.2728
3.0989 -4.3415 2.2728
3.9570 -3.3891 2.2728
4.5650 -2.2884 2.2728
4.9062 -1.0992 2.2728
4.9752 0.1219 2.2728
4.7756 1.3202 2.2728
4.3190 2.4444 2.2728
3.6242 3.4452 2.2728
2.7175 4.2762 2.2728
1.3374 4.0062 1.8608
0.2673 3.3704 1.4571
-0.5554 3.3772 1.4387
-2.0868 4.8787 2.1725
-3.1947 4.2510 2.1204
-4.2152 3.4568 2.1204
-3.7449 1.8003 1.5815
-5.5438 1.1809 2.1204
-6.1441 -0.1718 2.2728
-5.5619 -1.5129 2.1204
-5.0413 -2.7748 2.1204
-4.2108 -3.8516 2.1204
-3.1383 -4.6677 2.1204
-2.0464 -5.5465 2.2728
-0.3408 -2.9664 1.1751
0.3640 -2.8859 1.1747
1.9622 -5.1172 2.2728
3.0499 -4.3842 2.2728
3.9199 -3.4407 2.2728
4.5409 -2.3461 2.2728
4.8956 -1.1599 2.2728
4.9782 0.0609 2.2728
4.7918 1.2616 2.2728
4.3477 2.3907 2.2728
3.6642 3.3988 2.2728
2.7673 4.2393 2.2728
1.6913 4.8683 2.2728
0.3084 3.3700 1.4601
-0.5135 3.3769 1.4377
-2.0742 5.0153 2.2250
-3.1394 4.2835 2.1204
-4.1686 3.5028 2.1204
-4.9870 2.4710 2.1204
-5.5253 1.2457 2.1204
-6.1430 -0.0987 2.2728
-5.5790 -1.4470 2.1204
-5.0751 -2.7154 2.1204
-4.2587 -3.8034 2.1204
-3.1964 -4.6340 2.1204
-2.1147 -5.5276 2.2728
-0.3767 -2.9659 1.1752
0.3297 -2.8939 1.1747
1.9029 -5.1473 2.2728
3.0004 -4.4263 2.2728
3.8821 -3.4920 2.2728
4.5161 -2.4035 2.2728
4.8844 -1.2204 2.2728
4.9805 -0.0001 2.2728
4.8074 1.2029 2.2728
4.3758 2.3367 2.2728
3.7037 3.3520 2.2728
2.8167 4.2020 2.2728
1.7488 4.8425 2.2728
0.3496 3.3697 1.4634
-0.4718 3.3766 1.4369
-2.0542 5.1414 2.2728
-3.0838 4.3152 2.1204
-4.1215 3.5482 2.1204
-4.9523 2.5278 2.1204
-5.5059 1.3106 2.1204
-6.1410 -0.0257 2.2728
-5.5951 -1.3801 2.1204
-5.1082 -2.6555 2.1204
-4.3060 -3.7546 2.1204
-3.2541 -4.5995 2.1204
-2.1829 -5.5079 2.2728
-0.4127 -2.9650 1.1753
0.2954 -2.9014 1.1747
1.8432 -5.1767 2.2728
2.9503 -4.4679 2.2728
3.8437 -3.5428 2.2728
4.4906 -2.4607 2.2728
4.8724 -1.2809 2.2728
4.9822 -0.0611 2.2728
4.8223 1.1440 2.2728
4.4032 2.2825 2.2728
3.7427 3.3048 2.2728
2.8657 4.1641 2.2728
1.8058 4.8161 2.2728
0.3910 3.3693 1.4669
-0.4302 3.3763 1.4363
-1.9895 5.1590 2.2728
-3.0278 4.3462 2.1204
-4.0739 3.5929 2.1204
-4.9168 2.5840 2.1204
-5.4857 1.3750 2.1204
-6.1380 0.0473 2.2728
-5.6104 -1.3133 2.1204
-5.1405 -2.5952 2.1204
-4.3527 -3.7051 2.1204
-3.3114 -4.5642 2.1204
-2.2508 -5.4873 2.2728
-0.4488 -2.9637 1.1753
0.2608 -2.9086 1.1747
0.9221 -2.6920 1.1754
2.8997 -4.5089 2.2728
3.8047 -3.5933 2.2728
4.4644 -2.5176 2.2728
4.8597 -1.3414 2.2728
4.9831 -0.1222 2.2728
4.8366 1.0849 2.2728
4.4301 2.2279 2.2728
3.7811 3.2572 2.2728
2.9142 4.1257 2.2728
1.8625 4.7891 2.2728
0.4324 3.3689 1.4706
-0.3888 3.3759 1.4359
-1.9247 5.1756 2.2728
-2.9716 4.3765 2.1204
-4.0258 3.6370 2.1204
-4.8806 2.6398 2.1204
-5.4647 1.4391 2.1204
-6.1341 0.1202 2.2728
-5.6247 -1.2464 2.1204
-5.1719 -2.5344 2.1204
-4.3987 -3.6550 2.1204
-3.3682 -4.5281 2.1204
-2.3186 -5.4658 2.2728
-0.4848 -2.9619 1.1754
0.2262 -2.9153 1.1747
0.8907 -2.7064 1.1754
2.8486 -4.5494 2.2728
3.7650 -3.6434 2.2728
4.4376 -2.5743 2.2728
4.8464 -1.4017 2.2728
4.9834 -0.1833 2.2728
4.8502 1.0257 2.2728
4.4564 2.1730 2.2728
3.8189 3.2092 2.2728
2.9623 4.0868 2.2728
1.9189 4.7614 2.2728
0.4741 3.3685 1.4746
-0.3474 3.3756 1.4357
-1.8597 5.1915 2.2728
-2.9150 4.4061 2.1204
-3.9772 3.6805 2.1204
-4.8437 2.6950 2.1204
-5.4429 1.5028 2.1204
-6.1292 0.1930 2.2728
-5.6382 -1.1793 2.1204
-5.2026 -2.4732 2.1204
-4.4442 -3.6043 2.1204
-3.4246 -4.4913 2.1204
-2.3645 -5.3940 2.2522
-0.5209 -2.9597 1.1755
0.1914 -2.9217 1.1747
0.8592 -2.7204 1.1753
2.7969 -4.5894 2.2728
3.7248 -3.6931 2.2728
4.4101 -2.6307 2.2728
4.8324 -1.4618 2.2728
4.9830 -0.2445 2.2728
4.8631 0.9662 2.2728
4.4820 2.1179 2.2728
3.8562 3.1607 2.2728
3.0099 4.0474 2.2728
1.9749 4.7332 2.2728
0.5158 3.3682 1.4787
-0.3062 3.3753 1.4357
-1.7946 5.2066 2.2728
-2.8582 4.4350 2.1204
-3.9281 3.7232 2.1204
-4.8062 2.7498 2.1204
-5.4202 1.5663 2.1204
-6.1233 0.2657 2.2728
-5.6508 -1.1120 2.1204
-5.2324 -2.4117 2.1204
-4.4889 -3.5529 2.1204
-3.4806 -4.4537 2.1204
-2.3695 -5.2347 2.1951
-0.5570 -2.9570 1.1756
0.1566 -2.9276 1.1747
0.8274 -2.7340 1.1752
2.7447 -4.6288 2.2728
3.6839 -3.7423 2.2728
4.3820 -2.6868 2.2728
4.8177 -1.5219 2.2728
4.9820 -0.3056 2.2728
4.8754 0.9067 2.2728
4.5071 2.0625 2.2728
3.8930 3.1119 2.2728
3.0569 4.0075 2.2728
2.0305 4.7043 2.2728
0.5577 3.3678 1.4831
-0.2650 3.3749 1.4359
-1.7295 5.2209 2.2728
-2.8011 4.4631 2.1204
-3.8785 3.7654 2.1204
-4.7680 2.8039 2.1204
-5.3968 1.6293 2.1204
-6.1165 0.3383 2.2728
-5.6625 -1.0446 2.1204
-5.2615 -2.3497 2.1204
-4.5330 -3.5010 2.1204
-3.5361 -4.4154 2.1204
-2.3742 -5.0828 2.1409
-0.5930 -2.9539 1.1757
0.1216 -2.9331 1.1747
0.7954 -2.7473 1.1752
2.6920 -4.6676 2.2728
3.6425 -3.7911 2.2728
4.3532 -2.7427 2.2728
4.8024 -1.5818 2.2728
4.9802 -0.3667 2.2728
4.8871 0.8470 2.2728
4.5315 2.0068 2.2728
3.9292 3.0627 2.2728
3.1035 3.9671 2.2728
2.0858 4.6748 2.2728
0.5997 3.3674 1.4877
-0.2239 3.3746 1.4363
-1.6643 5.2344 2.2728
-2.7437 4.4905 2.1204
-3.8285 3.8068 2.1204
-4.7292 2.8576 2.1204
-5.3725 1.6920 2.1204
-6.1087 0.4107 2.2728
-5.6733 -0.9770 2.1204
-5.2897 -2.2872 2.1204
-4.5763 -3.4485 2.1204
-3.5911 -4.3763 2.1204
-2.4138 -5.0109 2.1204
-0.6291 -2.9503 1.1757
0.0865 -2.9382 1.1747
0.7633 -2.7602 1.1751
2.6387 -4.7059 2.2728
3.6004 -3.8396 2.2728
4.3238 -2.7982 2.2728
4.7863 -1.6416 2.2728
4.9778 -0.4280 2.2728
4.8981 0.7871 2.2728
4.5552 1.9509 2.2728
3.9648 3.0132 2.2728
3.1497 3.9261 2.2728
2.1407 4.6448 2.2728
0.6419 3.3670 1.4925
-0.1830 3.3743 1.4369
-1.5989 5.2472 2.2728
-2.6859 4.5172 2.1204
-3.7780 3.8476 2.1204
-4.6897 2.9107 2.1204
-5.3474 1.7544 2.1204
-6.1000 0.4832 2.2728
-5.6831 -0.9094 2.1204
-5.3170 -2.2245 2.1204
-4.6190 -3.3953 2.1204
-3.6457 -4.3365 2.1204
-2.4758 -4.9867 2.1204
-0.6652 -2.9463 1.1758
0.0513 -2.9429 1.1747
0.7309 -2.7727 1.1750
2.5850 -4.7435 2.2728
3.5577 -3.8875 2.2728
4.2936 -2.8536 2.2728
4.7696 -1.7013 2.2728
4.9747 -0.4891 2.2728
4.9084 0.7272 2.2728
4.5784 1.8947 2.2728
3.9999 2.9632 2.2728
3.1953 3.8848 2.2728
2.1951 4.6141 2.2728
0.6844 3.3666 1.4976
-0.1420 3.3739 1.4377
-1.5335 5.2591 2.2728
-2.6281 4.5431 2.1204
-3.7270 3.8877 2.1204
-4.6496 2.9633 2.1204
-5.3216 1.8164 2.1204
-6.0903 0.5553 2.2728
-5.6921 -0.8416 2.1204
-5.3436 -2.1614 2.1204
-4.6610 -3.3417 2.1204
-3.6997 -4.2960 2.1204
-2.5376 -4.9617 2.1204
-0.7013 -2.9419 1.1759
0.0161 -2.9472 1.1747
0.6984 -2.7849 1.1750
2.5308 -4.7806 2.2728
3.5144 -3.9351 2.2728
4.2629 -2.9085 2.2728
4.7522 -1.7608 2.2728
4.9709 -0.5503 2.2728
4.9181 0.6671 2.2728
4.6010 1.8383 2.2728
4.0344 2.9129 2.2728
3.2405 3.8429 2.2728
2.2492 4.5829 2.2728
0.7270 3.3662 1.5029
-0.1011 3.3736 1.4387
-1.1321 4.0645 1.7529
-2.5699 4.5683 2.1204
-3.6756 3.9272 2.1204
-4.6088 3.0152 2.1204
-5.2950 1.8781 2.1204
-6.0797 0.6273 2.2728
-5.7002 -0.7737 2.1204
-5.3693 -2.0980 2.1204
-4.7024 -3.2873 2.1204
-3.7533 -4.2547 2.1204
-2.5991 -4.9360 2.1204
-0.7373 -2.9370 1.1760
-0.0193 -2.9510 1.1748
0.6657 -2.7967 1.1749
2.4761 -4.8170 2.2728
3.4706 -3.9821 2.2728
4.2315 -2.9632 2.2728
4.7341 -1.8202 2.2728
4.9665 -0.6114 2.2728
4.9271 0.6069 2.2728
4.6229 1.7816 2.2728
4.0684 2.8622 2.2728
3.2851 3.8006 2.2728
2.3029 4.5511 2.2728
0.7698 3.3658 1.5084
-0.0602 3.3732 1.4399
-0.8977 3.3798 1.4547
-2.5115 4.5927 2.1204
-3.6238 3.9659 2.1204
-4.5674 3.0667 2.1204
-5.2676 1.9392 2.1204
-5.6613 0.6522 2.1204
-6.1176 -0.7564 2.2728
-5.3941 -2.0341 2.1204
-4.7429 -3.2325 2.1204
-3.8063 -4.2127 2.1204
-2.6603 -4.9093 2.1204
-0.7733 -2.9316 1.1761
-0.0547 -2.9544 1.1748
0.6328 -2.8082 1.1749
2.4208 -4.8529 2.2728
3.4261 -4.0287 2.2728
4.1995 -3.0176 2.2728
4.7153 -1.8793 2.2728
4.9613 -0.6725 2.2728
4.9355 0.5466 2.2728
4.6442 1.7248 2.2728
4.1017 2.8112 2.2728
3.3293 3.7577 2.2728
2.3562 4.5187 2.2728
0.8129 3.3654 1.5142
-0.0193 3.3729 1.4414
-0.8541 3.3795 1.4520
-2.4528 4.6165 2.1204
-3.5716 4.0040 2.1204
-4.5255 3.1175 2.1204
-5.2394 2.0001 2.1204
-5.6496 0.7191 2.1204
-6.1243 -0.6836 2.2728
-5.4181 -1.9700 2.1204
-4.7829 -3.1771 2.1204
-3.8588 -4.1700 2.1204
-2.7212 -4.8820 2.1204
-0.8093 -2.9258 1.1762
-0.0903 -2.9574 1.1748
0.5998 -2.8192 1.1749
2.3652 -4.8881 2.2728
3.3812 -4.0748 2.2728
4.1667 -3.0717 2.2728
4.6959 -1.9384 2.2728
4.9555 -0.7336 2.2728
4.9431 0.4862 2.2728
4.6649 1.6676 2.2728
4.1345 2.7598 2.2728
3.3730 3.7145 2.2728
2.4090 4.4857 2.2728
0.8563 3.3650 1.5202
0.0215 3.3725 1.4430
-0.8108 3.3792 1.4494
-2.3940 4.6394 2.1204
-3.5188 4.0414 2.1204
-4.4829 3.1678 2.1204
-5.2105 2.0605 2.1204
-5.6371 0.7857 2.1204
-6.1300 -0.6105 2.2728
-5.4413 -1.9055 2.1204
-4.8220 -3.1212 2.1204
-3.9108 -4.1266 2.1204
-2.7818 -4.8537 2.1204
-0.8452 -2.9196 1.1764
-0.1259 -2.9600 1.1748
0.5666 -2.8299 1.1748
2.3090 -4.9228 2.2728
3.3355 -4.1205 2.2728
4.1334 -3.1255 2.2728
4.6758 -1.9972 2.2728
4.9490 -0.7947 2.2728
4.9501 0.4257 2.2728
4.6850 1.6102 2.2728
4.1667 2.7080 2.2728
3.4162 3.6707 2.2728
2.4615 4.4522 2.2728
0.8999 3.3645 1.5265
0.0624 3.3722 1.4448
-0.7676 3.3788 1.4471
-2.3349 4.6617 2.1204
-3.4657 4.0781 2.1204
-4.4397 3.2174 2.1204
-5.1807 2.1205 2.1204
-5.6237 0.8522 2.1204
-6.1348 -0.5374 2.2728
-5.4635 -1.8409 2.1204
-4.8604 -3.0647 2.1204
-3.9622 -4.0824 2.1204
-2.8422 -4.8247 2.1204
-0.8811 -2.9128 1.1765
-0.1615 -2.9622 1.1749
0.5332 -2.8402 1.1748
2.2523 -4.9568 2.2728
3.2894 -4.1657 2.2728
4.0994 -3.1788 2.2728
4.6550 -2.0559 2.2728
4.9418 -0.8557 2.2728
4.9565 0.3651 2.2728
4.7043 1.5526 2.2728
4.1984 2.6559 2.2728
3.4588 3.6264 2.2728
2.5135 4.4181 2.2728
0.9437 3.3641 1.5330
0.1033 3.3718 1.4469
-0.7248 3.3785 1.4450
-2.2757 4.6832 2.1204
-3.4123 4.1141 2.1204
-4.3959 3.2666 2.1204
-5.1503 2.1801 2.1204
-5.6094 0.9184 2.1204
-6.1386 -0.4643 2.2728
-5.4850 -1.7758 2.1204
-4.8981 -3.0077 2.1204
-4.0131 -4.0377 2.1204
-2.9021 -4.7949 2.1204
-1.7714 -5.6130 2.2728
-0.1973 -2.9639 1.1749
0.4997 -2.8501 1.1748
2.1952 -4.9901 2.2728
3.2426 -4.2104 2.2728
4.0647 -3.2319 2.2728
4.6335 -2.1143 2.2728
4.9340 -0.9166 2.2728
4.9622 0.3044 2.2728
4.7231 1.4948 2.2728
4.2294 2.6037 2.2728
3.5009 3.5818 2.2728
2.5652 4.3834 2.2728
0.9880 3.3637 1.5398
0.1442 3.3715 1.4491
-0.6822 3.3782 1.4431
-2.2162 4.7040 2.1204
-3.3584 4.1494 2.1204
-4.3516 3.3150 2.1204
-5.1191 2.2391 2.1204
-5.5943 0.9844 2.1204
-6.1414 -0.3912 2.2728
-5.5055 -1.7105 2.1204
-4.9350 -2.9503 2.1204
-4.0634 -3.9921 2.1204
-2.9617 -4.7643 2.1204
-1.8403 -5.5977 2.2728
-0.2331 -2.9652 1.1750
0.4660 -2.8597 1.1747
2.1376 -5.0229 2.2728
3.1953 -4.2546 2.2728
4.0295 -3.2846 2.2728
4.6114 -2.1726 2.2728
4.9254 -0.9775 2.2728
4.9672 0.2437 2.2728
4.7413 1.4369 2.2728
4.2599 2.5508 2.2728
3.5426 3.5367 2.2728
2.6163 4.3482 2.2728
1.0324 3.3633 1.5468
0.1851 3.3711 1.4515
-0.6397 3.3779 1.4414
-2.1566 4.7240 2.1204
-3.3043 4.1839 2.1204
-4.3067 3.3629 2.1204
-3.7941 1.7138 1.5815
-5.5783 1.0501 2.1204
-6.1433 -0.3181 2.2728
-5.5252 -1.6449 2.1204
-4.9712 -2.8922 2.1204
-4.1131 -3.9460 2.1204
-3.0209 -4.7329 2.1204
-1.9091 -5.5815 2.2728
-0.2689 -2.9660 1.1750
0.4321 -2.8688 1.1747
2.0797 -5.0549 2.2728
3.1474 -4.2983 2.2728
3.9936 -3.3370 2.2728
4.5886 -2.2306 2.2728
4.9162 -1.0383 2.2728
4.9715 0.1828 2.2728
4.7588 1.3786 2.2728
4.2897 2.4983 2.2728
3.5836 3.4912 2.2728
2.6671 4.3125 2.2728
1.0773 3.3628 1.5541
0.2261 3.3708 1.4542
-0.5975 3.3776 1.4400
-2.0989 4.7481 2.1225
-3.2496 4.2178 2.1204
-4.2612 3.4101 2.1204
-3.7473 1.7467 1.5720
-5.5615 1.1157 2.1204
-6.1442 -0.2449 2.2728
-5.5440 -1.5791 2.1204
-5.0066 -2.8338 2.1204
-4.1622 -3.8991 2.1204
-3.0798 -4.7007 2.1204
-1.9778 -5.5645 2.2728
-0.3048 -2.9664 1.1751
0.3981 -2.8776 1.1747
2.0212 -5.0864 2.2728
3.0990 -4.3414 2.2728
3.9571 -3.3890 2.2728
4.5650 -2.2883 2.2728
4.9062 -1.0991 2.2728
4.9752 0.1220 2.2728
4.7756 1.3203 2.2728
4.3190 2.4444 2.2728
3.6242 3.4452 2.2728
2.7174 4.2762 2.2728
1.3373 4.0061 1.8607
0.2672 3.3704 1.4571
-0.5555 3.3772 1.4387
-2.0869 4.8785 2.1724
-3.1947 4.2510 2.1204
-4.2152 3.4568 2.1204
-3.7449 1.8002 1.5815
-5.5438 1.1809 2.1204
-6.1441 -0.1719 2.2728
-5.5619 -1.5129 2.1204
-5.0413 -2.7748 2.1204
-4.2107 -3.8516 2.1204
-3.1383 -4.6678 2.1204
-2.0463 -5.5465 2.2728
-0.3408 -2.9664 1.1751
0.3640 -2.8859 1.1747
1.9623 -5.1171 2.2728
3.0500 -4.3841 2.2728
3.9199 -3.4407 2.2728
4.5409 -2.3461 2.2728
4.8957 -1.1598 2.2728
4.9782 0.0610 2.2728
4.7918 1.2617 2.2728
4.3477 2.3908 2.2728
3.6642 3.3989 2.2728
2.7673 4.2394 2.2728
1.6913 4.8683 2.2728
0.3083 3.3700 1.4601
-0.5136 3.3769 1.4377
-2.0742 5.0152 2.2250
-3.1394 4.2835 2.1204
-4.1687 3.5027 2.1204
-4.9871 2.4709 2.1204
-5.5253 1.2460 2.1204
-6.1430 -0.0988 2.2728
-5.5789 -1.4472 2.1204
-5.0751 -2.7154 2.1204
-4.2587 -3.8034 2.1204
-3.1964 -4.6340 2.1204
-2.1146 -5.5277 2.2728
-0.3767 -2.9659 1.1752
0.3298 -2.8939 1.1747
1.9030 -5.1472 2.2728
3.0005 -4.4262 2.2728
3.8822 -3.4919 2.2728
4.5161 -2.4035 2.2728
4.8844 -1.2204 2.2728
4.9805 0.0000 2.2728
4.8074 1.2030 2.2728
4.3757 2.3368 2.2728
3.7037 3.3521 2.2728
2.8167 4.2020 2.2728
1.7487 4.8425 2.2728
0.3496 3.3697 1.4634
-0.4718 3.3766 1.4369
-2.0543 5.1414 2.2728
-3.0839 4.3152 2.1204
-4.1216 3.5481 2.1204
-4.9523 2.5277 2.1204
-5.5059 1.3104 2.1204
-6.1410 -0.0258 2.2728
-5.5951 -1.3805 2.1204
-5.1082 -2.6555 2.1204
-4.3060 -3.7546 2.1204
-3.2540 -4.5995 2.1204
-2.1828 -5.5079 2.2728
-0.4127 -2.9650 1.1753
0.2954 -2.9014 1.1747
1.8433 -5.1766 2.2728
2.9504 -4.4679 2.2728
3.8437 -3.5428 2.2728
4.4906 -2.4606 2.2728
4.8724 -1.2809 2.2728
4.9822 -0.0611 2.2728
4.8223 1.1440 2.2728
4.4032 2.2825 2.2728
3.7426 3.3049 2.2728
2.8657 4.1642 2.2728
1.8058 4.8161 2.2728
0.3909 3.3693 1.4669
-0.4303 3.3763 1.4363
-1.9896 5.1589 2.2728
-3.0279 4.3462 2.1204
-4.0740 3.5928 2.1204
-4.9168 2.5840 2.1204
-5.4857 1.3749 2.1204
-6.1380 0.0472 2.2728
-5.6103 -1.3134 2.1204
-5.1404 -2.5953 2.1204
-4.3527 -3.7051 2.1204
-3.3114 -4.5642 2.1204
-2.2507 -5.4873 2.2728
-0.4487 -2.9637 1.1753
0.2609 -2.9086 1.1747
0.9221 -2.6920 1.1754
2.8998 -4.5089 2.2728
3.8047 -3.5932 2.2728
4.4645 -2.5176 2.2728
4.8598 -1.3413 2.2728
4.9831 -0.1221 2.2728
4.8365 1.0850 2.2728
4.4301 2.2279 2.2728
3.7810 3.2572 2.2728
2.9141 4.1258 2.2728
1.8625 4.7891 2.2728
0.4324 3.3689 1.4706
-0.3888 3.3759 1.4359
-1.9248 5.1756 2.2728
-2.9717 4.3765 2.1204
-4.0259 3.6370 2.1204
-4.8806 2.6398 2.1204
-5.4647 1.4389 2.1204
-6.1341 0.1201 2.2728
-5.6247 -1.2465 2.1204
-5.1719 -2.5345 2.1204
-4.3987 -3.6550 2.1204
-3.3682 -4.5282 2.1204
-2.3185 -5.4658 2.2728
-0.4848 -2.9619 1.1754
0.2262 -2.9153 1.1747
0.8908 -2.7064 1.1754
2.8486 -4.5494 2.2728
3.7651 -3.6433 2.2728
4.4376 -2.5742 2.2728
4.8464 -1.4016 2.2728
4.9834 -0.1832 2.2728
4.8502 1.0257 2.2728
4.4564 2.1730 2.2728
3.8189 3.2092 2.2728
2.9622 4.0869 2.2728
1.9189 4.7614 2.2728
0.4708 3.3676 1.5658
-0.3507 3.3746 1.5263
-1.7521 4.8753 2.2728
-2.7394 4.1318 2.1204
-3.7308 3.4463 2.1204
-4.5370 2.5199 2.1204
-5.0923 1.4030 2.1204
-5.3457 0.1665 2.1204
-5.2689 -1.1027 2.1204
-4.8623 -2.3107 2.1204
-4.1558 -3.3679 2.1204
-3.2060 -4.1995 2.1204
-2.2380 -5.0948 2.2728
-0.4914 -2.7771 1.1770
0.1771 -2.7452 1.1762
0.8054 -2.5595 1.1767
2.6259 -4.3187 2.2728
3.5030 -3.4798 2.2728
4.1529 -2.4818 2.2728
4.5547 -1.3809 2.2728
4.6995 -0.2324 2.2728
4.5877 0.9108 2.2728
4.2278 1.9983 2.2728
3.6359 2.9823 2.2728
2.8353 3.8173 2.2728
1.8572 4.4608 2.2728
0.5125 3.3672 1.5701
-0.3095 3.3743 1.5262
-1.6910 4.8898 2.2728
-2.6862 4.1591 2.1204
-3.6851 3.4866 2.1204
-4.5022 2.5713 2.1204
-5.0714 1.4623 2.1204
-5.3408 0.2298 2.1204
-5.2807 -1.0399 2.1204
-4.8901 -2.2532 2.1204
-4.1974 -3.3199 2.1204
-3.2582 -4.1642 2.1204
-2.3008 -5.0728 2.2728
-0.5252 -2.7744 1.1771
0.1443 -2.7506 1.1762
0.7755 -2.5722 1.1767
2.5766 -4.3555 2.2728
3.4644 -3.5260 2.2728
4.1261 -2.5346 2.2728
4.5407 -1.4376 2.2728
4.6984 -0.2902 2.2728
4.5992 0.8545 2.2728
4.2515 1.9460 2.2728
3.6707 2.9363 2.2728
2.8798 3.7798 2.2728
1.9098 4.4338 2.2728
0.5544 3.3668 1.5747
-0.2683 3.3740 1.5263
-1.6299 4.9036 2.2728
-2.6328 4.1858 2.1204
-3.6388 3.5263 2.1204
-4.4667 2.6222 2.1204
-5.0497 1.5214 2.1204
-5.3350 0.2931 2.1204
-5.2917 -0.9770 2.1204
-4.9171 -2.1953 2.1204
-4.2385 -3.2713 2.1204
-3.3099 -4.1282 2.1204
-2.3524 -5.0264 2.2623
-0.5590 -2.7713 1.1771
0.1115 -2.7556 1.1762
0.7454 -2.5845 1.1766
2.5269 -4.3917 2.2728
3.4251 -3.5717 2.2728
4.0988 -2.5871 2.2728
4.5260 -1.4939 2.2728
4.6966 -0.3479 2.2728
4.6102 0.7982 2.2728
4.2745 1.8936 2.2728
3.7049 2.8899 2.2728
2.9239 3.7418 2.2728
1.9619 4.4062 2.2728
0.5964 3.3664 1.5795
-0.2272 3.3736 1.5267
-1.5687 4.9166 2.2728
-2.5791 4.2118 2.1204
-3.5922 3.5654 2.1204
-4.4306 2.6725 2.1204
-5.0272 1.5801 2.1204
-5.3284 0.3563 2.1204
-5.3018 -0.9139 2.1204
-4.9434 -2.1370 2.1204
-4.2789 -3.2221 2.1204
-3.3612 -4.0915 2.1204
-2.3573 -4.8844 2.2087
-0.5928 -2.7678 1.1772
0.0785 -2.7602 1.1762
0.7151 -2.5965 1.1766
2.4766 -4.4274 2.2728
3.3853 -3.6171 2.2728
4.0708 -2.6394 2.2728
4.5107 -1.5504 2.2728
4.6942 -0.4056 2.2728
4.6205 0.7417 2.2728
4.2970 1.8406 2.2728
3.7386 2.8431 2.2728
2.9675 3.7033 2.2728
2.0138 4.3781 2.2728
0.6386 3.3660 1.5845
-0.1862 3.3733 1.5272
-1.5074 4.9290 2.2728
-2.5252 4.2371 2.1204
-3.5451 3.6039 2.1204
-4.3939 2.7224 2.1204
-5.0041 1.6385 2.1204
-5.3209 0.4193 2.1204
-5.3111 -0.8507 2.1204
-4.9690 -2.0784 2.1204
-4.3187 -3.1724 2.1204
-3.4120 -4.0541 2.1204
-2.3619 -4.7486 2.1578
-0.6265 -2.7638 1.1773
0.0455 -2.7644 1.1762
0.6846 -2.6081 1.1765
2.4259 -4.4626 2.2728
3.3449 -3.6621 2.2728
4.0423 -2.6914 2.2728
4.4948 -1.6066 2.2728
4.6912 -0.4633 2.2728
4.6302 0.6850 2.2728
4.3189 1.7877 2.2728
3.7718 2.7960 2.2728
3.0107 3.6643 2.2728
2.0652 4.3494 2.2728
0.6810 3.3656 1.5898
-0.1453 3.3729 1.5280
-1.4460 4.9405 2.2728
-2.4710 4.2618 2.1204
-3.4976 3.6417 2.1204
-4.3566 2.7717 2.1204
-4.9801 1.6965 2.1204
-5.3127 0.4822 2.1204
-5.3196 -0.7874 2.1204
-4.9937 -2.0195 2.1204
-4.3578 -3.1222 2.1204
-3.4624 -4.0160 2.1204
-2.3787 -4.6427 2.1204
-0.6603 -2.7594 1.1774
0.0124 -2.7682 1.1762
0.6540 -2.6194 1.1765
2.3748 -4.4971 2.2728
3.3040 -3.7066 2.2728
4.0131 -2.7431 2.2728
4.4782 -1.6627 2.2728
4.6875 -0.5211 2.2728
4.6393 0.6283 2.2728
4.3403 1.7343 2.2728
3.8045 2.7485 2.2728
3.0534 3.6249 2.2728
2.1163 4.3201 2.2728
0.7237 3.3652 1.5953
-0.1044 3.3726 1.5290
-1.1161 3.9913 1.8322
-2.4166 4.2857 2.1204
-3.4496 3.6789 2.1204
-4.3187 2.8206 2.1204
-4.9555 1.7542 2.1204
-5.3036 0.5450 2.1204
-5.3272 -0.7240 2.1204
-5.0177 -1.9602 2.1204
-4.3963 -3.0714 2.1204
-3.5123 -3.9773 2.1204
-2.4361 -4.6183 2.1204
-0.6941 -2.7547 1.1775
-0.0209 -2.7716 1.1763
0.6232 -2.6304 1.1764
2.3231 -4.5311 2.2728
3.2625 -3.7507 2.2728
3.9833 -2.7945 2.2728
4.4609 -1.7186 2.2728
4.6832 -0.5788 2.2728
4.6478 0.5714 2.2728
4.3610 1.6808 2.2728
3.8366 2.7007 2.2728
3.0957 3.5851 2.2728
2.1671 4.2903 2.2728
0.7665 3.3648 1.6011
-0.0635 3.3723 1.5302
-0.9011 3.3788 1.5479
-2.3619 4.3090 2.1204
-3.4013 3.7155 2.1204
-4.2802 2.8689 2.1204
-4.9301 1.8115 2.1204
-5.2937 0.6076 2.1204
-5.3340 -0.6606 2.1204
-5.0408 -1.9006 2.1204
-4.4341 -3.0201 2.1204
-3.5617 -3.9379 2.1204
-2.4932 -4.5932 2.1204
-0.7278 -2.7494 1.1776
-0.0541 -2.7747 1.1763
0.5922 -2.6409 1.1764
2.2711 -4.5645 2.2728
3.2205 -3.7944 2.2728
3.9529 -2.8456 2.2728
4.4431 -1.7744 2.2728
4.6782 -0.6364 2.2728
4.6556 0.5145 2.2728
4.3811 1.6271 2.2728
3.8682 2.6526 2.2728
3.1374 3.5447 2.2728
2.2174 4.2599 2.2728
0.8096 3.3644 1.6072
-0.0226 3.3719 1.5316
-0.8575 3.3785 1.5448
-2.3070 4.3315 2.1204
-3.3525 3.7514 2.1204
-4.2412 2.9167 2.1204
-4.9040 1.8685 2.1204
-5.2830 0.6701 2.1204
-5.3399 -0.5971 2.1204
-5.0632 -1.8408 2.1204
-4.4712 -2.9684 2.1204
-3.6106 -3.8979 2.1204
-2.5500 -4.5673 2.1204
-0.7615 -2.7438 1.1777
-0.0875 -2.7773 1.1763
0.5611 -2.6512 1.1764
2.2185 -4.5974 2.2728
3.1779 -3.8376 2.2728
3.9218 -2.8964 2.2728
4.4246 -1.8300 2.2728
4.6726 -0.6941 2.2728
4.6628 0.4574 2.2728
4.4006 1.5731 2.2728
3.8992 2.6041 2.2728
3.1787 3.5040 2.2728
2.2674 4.2290 2.2728
0.8529 3.3640 1.6135
0.0182 3.3716 1.5332
-0.8141 3.3782 1.5420
-2.2520 4.3534 2.1204
-3.3034 3.7867 2.1204
-4.2016 2.9639 2.1204
-4.8772 1.9251 2.1204
-5.2715 0.7324 2.1204
-5.3450 -0.5335 2.1204
-5.0848 -1.7806 2.1204
-4.5077 -2.9161 2.1204
-3.6590 -3.8571 2.1204
-2.6066 -4.5407 2.1204
-0.7951 -2.7378 1.1778
-0.1209 -2.7795 1.1764
0.5299 -2.6610 1.1763
2.1656 -4.6296 2.2728
3.1348 -3.8803 2.2728
3.8902 -2.9469 2.2728
4.4054 -1.8854 2.2728
4.6663 -0.7517 2.2728
4.6694 0.4003 2.2728
4.4196 1.5190 2.2728
3.9296 2.5553 2.2728
3.2196 3.4628 2.2728
2.3169 4.1975 2.2728
0.8965 3.3635 1.6200
0.0591 3.3712 1.5351
-0.7710 3.3779 1.5395
-2.1967 4.3746 2.1204
-3.2538 3.8214 2.1204
-4.1614 3.0106 2.1204
-4.8497 1.9813 2.1204
-5.2591 0.7945 2.1204
-5.3493 -0.4699 2.1204
-5.1056 -1.7202 2.1204
-4.5435 -2.8633 2.1204
-3.7069 -3.8158 2.1204
-2.6628 -4.5133 2.1204
-0.8287 -2.7313 1.1779
-0.1544 -2.7813 1.1764
0.4985 -2.6705 1.1763
2.1122 -4.6613 2.2728
3.0911 -3.9226 2.2728
3.8580 -2.9971 2.2728
4.3856 -1.9407 2.2728
4.6594 -0.8092 2.2728
4.6753 0.3431 2.2728
4.4379 1.4646 2.2728
3.9596 2.5062 2.2728
3.2599 3.4212 2.2728
2.3661 4.1655 2.2728
0.9404 3.3631 1.6269
0.1000 3.3709 1.5371
-0.7282 3.3775 1.5371
-2.1412 4.3951 2.1204
-3.2039 3.8554 2.1204
-4.1207 3.0567 2.1204
-4.8215 2.0370 2.1204
-5.2460 0.8564 2.1204
-5.3527 -0.4062 2.1204
-5.1256 -1.6594 2.1204
-4.5786 -2.8101 2.1204
-3.7543 -3.7738 2.1204
-2.7187 -4.4852 2.1204
-0.8623 -2.7244 1.1780
-0.1879 -2.7828 1.1764
0.4669 -2.6797 1.1763
2.0584 -4.6923 2.2728
3.0469 -3.9644 2.2728
3.8251 -3.0470 2.2728
4.3652 -1.9957 2.2728
4.6519 -0.8668 2.2728
4.6806 0.2858 2.2728
4.4556 1.4100 2.2728
3.9889 2.4567 2.2728
3.2998 3.3791 2.2728
2.4149 4.1330 2.2728
0.9846 3.3627 1.6340
0.1409 3.3705 1.5394
-0.6855 3.3772 1.5350
-2.1043 4.4549 2.1396
-3.1536 3.8888 2.1204
-4.0794 3.1023 2.1204
-4.7925 2.0925 2.1204
-5.2321 0.9181 2.1204
-5.3553 -0.3425 2.1204
-5.1448 -1.5985 2.1204
-4.6130 -2.7563 2.1204
-3.8012 -3.7311 2.1204
-2.7743 -4.4564 2.1204
-1.7281 -5.2417 2.2728
-0.2215 -2.7838 1.1765
0.4352 -2.6885 1.1762
2.0041 -4.7228 2.2728
3.0022 -4.0058 2.2728
3.7917 -3.0965 2.2728
4.3441 -2.0506 2.2728
4.6436 -0.9242 2.2728
4.6852 0.2284 2.2728
4.4727 1.3552 2.2728
4.0177 2.4070 2.2728
3.3391 3.3367 2.2728
2.4633 4.1000 2.2728
1.0291 3.3622 1.6414
0.1819 3.3702 1.5419
-0.6431 3.3769 1.5331
-2.0931 4.5726 2.1867
-3.1030 3.9215 2.1204
-4.0377 3.1473 2.1204
-3.7976 1.7122 1.6907
-5.2174 0.9796 2.1204
-5.3570 -0.2788 2.1204
-5.1632 -1.5372 2.1204
-4.6467 -2.7021 2.1204
-3.8475 -3.6879 2.1204
-2.8296 -4.4268 2.1204
-1.7924 -5.2262 2.2728
-0.2551 -2.7844 1.1765
0.4034 -2.6969 1.1762
1.9495 -4.7526 2.2728
2.9569 -4.0467 2.2728
3.7577 -3.1457 2.2728
4.3224 -2.1053 2.2728
4.6348 -0.9816 2.2728
4.6893 0.1710 2.2728
4.4893 1.3003 2.2728
4.0460 2.3569 2.2728
3.3780 3.2938 2.2728
2.5112 4.0664 2.2728
1.0739 3.3618 1.6490
0.2229 3.3698 1.5447
-0.6009 3.3766 1.5315
-2.0814 4.6955 2.2362
-3.0521 3.9535 2.1204
-3.9953 3.1918 2.1204
-3.7483 1.7440 1.6794
-5.2018 1.0408 2.1204
-5.3579 -0.2151 2.1204
-5.1808 -1.4758 2.1204
-4.6797 -2.6475 2.1204
-3.8932 -3.6440 2.1204
-2.8845 -4.3965 2.1204
-1.8566 -5.2099 2.2728
-0.2888 -2.7846 1.1766
0.3714 -2.7049 1.1762
1.8944 -4.7818 2.2728
2.9112 -4.0870 2.2728
3.7231 -3.1945 2.2728
4.3001 -2.1597 2.2728
4.6253 -1.0389 2.2728
4.6926 0.1135 2.2728
4.5051 1.2452 2.2728
4.0737 2.3066 2.2728
3.4163 3.2505 2.2728
2.5588 4.0323 2.2728
1.3298 3.9946 1.9692
0.2639 3.3694 1.5476
-0.5588 3.3763 1.5301
-2.0553 4.7915 2.2728
-3.0007 3.9849 2.1204
-3.9525 3.2357 2.1204
-3.7430 1.7961 1.6881
-5.1855 1.1018 2.1204
-5.3580 -0.1514 2.1204
-5.1975 -1.4141 2.1204
-4.7119 -2.5924 2.1204
-3.9384 -3.5995 2.1204
-2.9390 -4.3654 2.1204
-1.9206 -5.1928 2.2728
-0.3225 -2.7844 1.1767
0.3394 -2.7126 1.1762
1.8389 -4.8104 2.2728
2.8649 -4.1269 2.2728
3.6879 -3.2430 2.2728
4.2771 -2.2140 2.2728
4.6151 -1.0961 2.2728
4.6954 0.0559 2.2728
4.5204 1.1898 2.2728
4.1008 2.2559 2.2728
3.4542 3.2068 2.2728
2.6059 3.9978 2.2728
1.5894 4.5872 2.2728
0.3051 3.3691 1.5508
-0.5169 3.3759 1.5289
-1.9950 4.8097 2.2728
-2.9491 4.0156 2.1204
-3.9092 3.2790 2.1204
-4.6701 2.3098 2.1204
-5.1684 1.1626 2.1204
-5.3572 -0.0878 2.1204
-5.2134 -1.3522 2.1204
-4.7435 -2.5369 2.1204
-3.9831 -3.5544 2.1204
-2.9932 -4.3337 2.1204
-1.9844 -5.1748 2.2728
-0.3562 -2.7837 1.1767
0.3071 -2.7199 1.1762
0.9234 -2.5055 1.1770
2.8181 -4.1663 2.2728
3.6521 -3.2911 2.2728
4.2535 -2.2680 2.2728
4.6044 -1.1533 2.2728
4.6975 -0.0016 2.2728
4.5351 1.1344 2.2728
4.1273 2.2050 2.2728
3.4916 3.1627 2.2728
2.6527 3.9627 2.2728
1.6436 4.5631 2.2728
0.3463 3.3687 1.5542
-0.4752 3.3756 1.5279
-1.9345 4.8272 2.2728
-2.8971 4.0456 2.1204
-3.8653 3.3217 2.1204
-4.6378 2.3630 2.1204
-5.1506 1.2231 2.1204
-5.3556 -0.0241 2.1204
-5.2285 -1.2901 2.1204
-4.7743 -2.4810 2.1204
-4.0271 -3.5086 2.1204
-3.0470 -4.3012 2.1204
-2.0481 -5.1561 2.2728
-0.3900 -2.7827 1.1768
0.2748 -2.7268 1.1762
0.8942 -2.5195 1.1769
2.7708 -4.2052 2.2728
3.6157 -3.3388 2.2728
4.2293 -2.3218 2.2728
4.5929 -1.2103 2.2728
4.6989 -0.0593 2.2728
4.5492 1.0787 2.2728
4.1533 2.1537 2.2728
3.5284 3.1182 2.2728
2.6990 3.9271 2.2728
1.6975 4.5384 2.2728
0.3877 3.3683 1.5578
-0.4336 3.3753 1.5271
-1.8738 4.8440 2.2728
-2.8449 4.0750 2.1204
-3.8210 3.3638 2.1204
-4.6048 2.4158 2.1204
-5.1319 1.2833 2.1204
-5.3531 0.0395 2.1204
-5.2428 -1.2278 2.1204
-4.8043 -2.4246 2.1204
-4.0706 -3.4623 2.1204
-3.1004 -4.2680 2.1204
-2.1116 -5.1365 2.2728
-0.4237 -2.7812 1.1768
0.2424 -2.7333 1.1762
0.8648 -2.5332 1.1769
2.7230 -4.2435 2.2728
3.5787 -3.3862 2.2728
4.2045 -2.3753 2.2728
4.5808 -1.2673 2.2728
4.6998 -0.1169 2.2728
4.5626 1.0229 2.2728
4.1787 2.1022 2.2728
3.5647 3.0733 2.2728
2.7448 3.8910 2.2728
1.7511 4.5131 2.2728
0.4291 3.3680 1.5617
-0.3921 3.3750 1.5266
-1.8130 4.8600 2.2728
-2.7923 4.1037 2.1204
-3.7762 3.4053 2.1204
-4.5713 2.4681 2.1204
-5.1125 1.3432 2.1204
-5.3498 0.1030 2.1204
-5.2563 -1.1654 2.1204
-4.8337 -2.3679 2.1204
-4.1135 -3.4154 2.1204
-3.1534 -4.2341 2.1204
-2.1748 -5.1161 2.2728
-0.4575 -2.7794 1.1769
0.2098 -2.7394 1.1762
0.8352 -2.5465 1.1768
2.6747 -4.2814 2.2728
3.5412 -3.4331 2.2728
4.1790 -2.4287 2.2728
4.5681 -1.3241 2.2728
4.7000 -0.1747 2.2728
4.5754 0.9670 2.2728
4.2035 2.0504 2.2728
3.6006 3.0280 2.2728
2.7903 3.8544 2.2728
1.8043 4.4873 2.2728
0.4707 3.3676 1.5658
-0.3508 3.3746 1.5263
-1.7521 4.8753 2.2728
-2.7394 4.1318 2.1204
-3.7308 3.4463 2.1204
-4.5370 2.5199 2.1204
-5.0923 1.4029 2.1204
-5.3457 0.1664 2.1204
-5.2689 -1.1027 2.1204
-4.8622 -2.3107 2.1204
-4.1558 -3.3679 2.1204
-3.2059 -4.1995 2.1204
-2.2379 -5.0948 2.2728
-0.4913 -2.7771 1.1770
0.1771 -2.7452 1.1762
0.8055 -2.5595 1.1767
2.6259 -4.3187 2.2728
3.5031 -3.4797 2.2728
4.1529 -2.4817 2.2728
4.5547 -1.3809 2.2728
4.6995 -0.2324 2.2728
4.5876 0.9109 2.2728
4.2278 1.9984 2.2728
3.6359 2.9824 2.2728
2.8352 3.8173 2.2728
1.8572 4.4609 2.2728
0.5125 3.3672 1.5701
-0.3095 3.3743 1.5262
-1.6911 4.8898 2.2728
-2.6863 4.1591 2.1204
-3.6851 3.4866 2.1204
-4.5022 2.5712 2.1204
-5.0714 1.4623 2.1204
-5.3408 0.2298 2.1204
-5.2807 -1.0399 2.1204
-4.8900 -2.2532 2.1204
-4.1974 -3.3199 2.1204
-3.2581 -4.1642 2.1204
-2.3008 -5.0728 2.2728
-0.5251 -2.7744 1.1771
0.1444 -2.7506 1.1762
0.7755 -2.5722 1.1767
2.5766 -4.3555 2.2728
3.4644 -3.5259 2.2728
4.1262 -2.5345 2.2728
4.5407 -1.4375 2.2728
4.6984 -0.2901 2.2728
4.5992 0.8546 2.2728
4.2515 1.9461 2.2728
3.6706 2.9363 2.2728
2.8798 3.7798 2.2728
1.9097 4.4339 2.2728
0.5543 3.3668 1.5747
-0.2684 3.3740 1.5263
-1.6300 4.9036 2.2728
-2.6329 4.1858 2.1204
-3.6389 3.5263 2.1204
-4.4667 2.6221 2.1204
-5.0497 1.5213 2.1204
-5.3350 0.2930 2.1204
-5.2917 -0.9770 2.1204
-4.9171 -2.1953 2.1204
-4.2385 -3.2713 2.1204
-3.3098 -4.1282 2.1204
-2.3524 -5.0264 2.2623
-0.5589 -2.7713 1.1771
0.1115 -2.7556 1.1762
0.7454 -2.5845 1.1766
2.5269 -4.3917 2.2728
3.4252 -3.5717 2.2728
4.0988 -2.5871 2.2728
4.5261 -1.4939 2.2728
4.6966 -0.3478 2.2728
4.6102 0.7982 2.2728
4.2745 1.8937 2.2728
3.7049 2.8899 2.2728
2.9238 3.7418 2.2728
1.9619 4.4063 2.2728
0.5964 3.3664 1.5795
-0.2273 3.3736 1.5267
-1.5688 4.9166 2.2728
-2.5792 4.2118 2.1204
-3.5922 3.5654 2.1204
-4.4306 2.6725 2.1204
-5.0273 1.5800 2.1204
-5.3284 0.3562 2.1204
-5.3018 -0.9140 2.1204
-4.9434 -2.1370 2.1204
-4.2788 -3.2222 2.1204
-3.3611 -4.0915 2.1204
-2.3573 -4.8845 2.2088
-0.5927 -2.7678 1.1772
0.0786 -2.7602 1.1762
0.7151 -2.5965 1.1766
2.4767 -4.4274 2.2728
3.3853 -3.6171 2.2728
4.0709 -2.6393 2.2728
4.5107 -1.5503 2.2728
4.6942 -0.4056 2.2728
4.6205 0.7417 2.2728
4.2970 1.8409 2.2728
3.7386 2.8432 2.2728
2.9675 3.7033 2.2728
2.0137 4.3781 2.2728
0.6386 3.3660 1.5845
-0.1863 3.3733 1.5272
-1.5075 4.9289 2.2728
-2.5252 4.2371 2.1204
-3.5452 3.6038 2.1204
-4.3939 2.7223 2.1204
-5.0041 1.6384 2.1204
-5.3209 0.4193 2.1204
-5.3111 -0.8508 2.1204
-4.9689 -2.0785 2.1204
-4.3186 -3.1725 2.1204
-3.4120 -4.0541 2.1204
-2.3619 -4.7488 2.1579
-0.6265 -2.7638 1.1773
0.0455 -2.7644 1.1762
0.6846 -2.6081 1.1765
2.4260 -4.4625 2.2728
3.3450 -3.6620 2.2728
4.0423 -2.6913 2.2728
4.4948 -1.6066 2.2728
4.6912 -0.4633 2.2728
4.6302 0.6851 2.2728
4.3189 1.7878 2.2728
3.7718 2.7961 2.2728
3.0106 3.6644 2.2728
2.0652 4.3494 2.2728
0.6810 3.3656 1.5898
-0.1453 3.3730 1.5280
-1.4461 4.9404 2.2728
-2.4711 4.2617 2.1204
-3.4976 3.6417 2.1204
-4.3566 2.7717 2.1204
-4.9802 1.6964 2.1204
-5.3127 0.4821 2.1204
-5.3196 -0.7875 2.1204
-4.9937 -2.0195 2.1204
-4.3577 -3.1223 2.1204
-3.4623 -4.0161 2.1204
-2.3786 -4.6427 2.1204
-0.6603 -2.7594 1.1774
0.0124 -2.7682 1.1762
0.6540 -2.6194 1.1765
2.3748 -4.4971 2.2728
3.3040 -3.7066 2.2728
4.0131 -2.7430 2.2728
4.4782 -1.6626 2.2728
4.6875 -0.5210 2.2728
4.6393 0.6283 2.2728
4.3402 1.7344 2.2728
3.8044 2.7486 2.2728
3.0534 3.6250 2.2728
2.1163 4.3201 2.2728
0.7236 3.3652 1.5953
-0.1044 3.3726 1.5290
-1.1162 3.9913 1.8322
-2.4166 4.2857 2.1204
-3.4497 3.6789 2.1204
-4.3188 2.8205 2.1204
-4.9555 1.7541 2.1204
-5.3036 0.5450 2.1204
-5.3272 -0.7242 2.1204
-5.0176 -1.9603 2.1204
-4.3962 -3.0715 2.1204
-3.5122 -3.9773 2.1204
-2.4360 -4.6184 2.1204
-0.6940 -2.7547 1.1775
-0.0208 -2.7716 1.1763
0.6232 -2.6303 1.1764
2.3232 -4.5311 2.2728
3.2626 -3.7506 2.2728
3.9833 -2.7944 2.2728
4.4610 -1.7186 2.2728
4.6832 -0.5787 2.2728
4.6478 0.5715 2.2728
4.3610 1.6809 2.2728
3.8366 2.7008 2.2728
3.0956 3.5851 2.2728
2.1670 4.2903 2.2728
0.7665 3.3648 1.6011
-0.0635 3.3723 1.5302
-0.9012 3.3788 1.5479
-2.3620 4.3089 2.1204
-3.4013 3.7155 2.1204
-4.2803 2.8688 2.1204
-4.9302 1.8114 2.1204
-5.2937 0.6075 2.1204
-5.3340 -0.6607 2.1204
-5.0408 -1.9007 2.1204
-4.4340 -3.0202 2.1204
-3.5616 -3.9380 2.1204
-2.4931 -4.5932 2.1204
-0.7278 -2.7494 1.1776
-0.0541 -2.7747 1.1763
0.5923 -2.6409 1.1764
2.2711 -4.5645 2.2728
3.2205 -3.7943 2.2728
3.9529 -2.8455 2.2728
4.4431 -1.7743 2.2728
4.6782 -0.6364 2.2728
4.6556 0.5145 2.2728
4.3811 1.6272 2.2728
3.8681 2.6527 2.2728
3.1374 3.5448 2.2728
2.2174 4.2599 2.2728
0.8095 3.3644 1.6071
-0.0227 3.3719 1.5316
-0.8575 3.3785 1.5448
-2.3071 4.3315 2.1204
-3.3526 3.7514 2.1204
-4.2413 2.9166 2.1204
-4.9040 1.8684 2.1204
-5.2830 0.6701 2.1204
-5.3399 -0.5972 2.1204
-5.0632 -1.8409 2.1204
-4.4712 -2.9684 2.1204
-3.6106 -3.8979 2.1204
-2.5499 -4.5673 2.1204
-0.7614 -2.7438 1.1777
-0.0875 -2.7773 1.1763
0.5612 -2.6512 1.1764
2.2186 -4.5973 2.2728
3.1779 -3.8375 2.2728
3.9219 -2.8964 2.2728
4.4246 -1.8300 2.2728
4.6726 -0.6940 2.2728
4.6628 0.4575 2.2728
4.4006 1.5732 2.2728
3.8991 2.6042 2.2728
3.1787 3.5041 2.2728
2.2673 4.2290 2.2728
0.8529 3.3640 1.6135
0.0182 3.3716 1.5332
-0.8142 3.3782 1.5420
-2.2520 4.3535 2.1204
-3.3034 3.7867 2.1204
-4.2016 2.9639 2.1204
-4.8772 1.9250 2.1204
-5.2715 0.7323 2.1204
-5.3450 -0.5336 2.1204
-5.0848 -1.7807 2.1204
-4.5076 -2.9162 2.1204
-3.6589 -3.8572 2.1204
-2.6065 -4.5407 2.1204
-0.7951 -2.7378 1.1778
-0.1209 -2.7795 1.1764
0.5299 -2.6610 1.1763
2.1656 -4.6296 2.2728
3.1348 -3.8803 2.2728
3.8902 -2.9469 2.2728
4.4054 -1.8854 2.2728
4.6663 -0.7516 2.2728
4.6694 0.4003 2.2728
4.4196 1.5190 2.2728
3.9296 2.5554 2.2728
3.2195 3.4628 2.2728
2.3169 4.1976 2.2728
0.8965 3.3635 1.6200
0.0591 3.3712 1.5351
-0.7711 3.3779 1.5395
-2.1967 4.3746 2.1204
-3.2539 3.8214 2.1204
-4.1615 3.0105 2.1204
-4.8497 1.9812 2.1204
-5.2592 0.7944 2.1204
-5.3493 -0.4699 2.1204
-5.1056 -1.7202 2.1204
-4.5435 -2.8634 2.1204
-3.7069 -3.8158 2.1204
-2.6628 -4.5133 2.1204
-0.8287 -2.7313 1.1779
-0.1543 -2.7813 1.1764
0.4985 -2.6705 1.1763
2.1122 -4.6613 2.2728
3.0912 -3.9226 2.2728
3.8580 -2.9971 2.2728
4.3856 -1.9406 2.2728
4.6594 -0.8092 2.2728
4.6753 0.3432 2.2728
4.4379 1.4647 2.2728
3.9595 2.5062 2.2728
3.2599 3.4212 2.2728
2.3660 4.1656 2.2728
0.9403 3.3631 1.6269
0.1000 3.3709 1.5371
-0.7282 3.3775 1.5371
-2.1413 4.3951 2.1204
-3.2040 3.8554 2.1204
-4.1207 3.0567 2.1204
-4.8215 2.0370 2.1204
-5.2460 0.8563 2.1204
-5.3527 -0.4063 2.1204
-5.1256 -1.6595 2.1204
-4.5786 -2.8101 2.1204
-3.7542 -3.7738 2.1204
-2.7187 -4.4852 2.1204
-0.8622 -2.7244 1.1780
-0.1879 -2.7828 1.1764
0.4670 -2.6797 1.1763
2.0584 -4.6923 2.2728
3.0469 -3.9644 2.2728
3.8252 -3.0469 2.2728
4.3652 -1.9957 2.2728
4.6519 -0.8667 2.2728
4.6806 0.2858 2.2728
4.4556 1.4100 2.2728
3.9889 2.4568 2.2728
3.2997 3.3792 2.2728
2.4149 4.1331 2.2728
0.9845 3.3627 1.6340
0.1408 3.3705 1.5394
-0.6856 3.3772 1.5350
-2.1043 4.4547 2.1395
-3.1537 3.8887 2.1204
-4.0795 3.1022 2.1204
-4.7926 2.0924 2.1204
-5.2321 0.9180 2.1204
-5.3553 -0.3425 2.1204
-5.1448 -1.5986 2.1204
-4.6129 -2.7564 2.1204
-3.8011 -3.7312 2.1204
-2.7743 -4.4564 2.1204
-1.7280 -5.2417 2.2728
-0.2214 -2.7838 1.1765
0.4353 -2.6884 1.1762
2.0041 -4.7227 2.2728
3.0022 -4.0057 2.2728
3.7918 -3.0964 2.2728
4.3441 -2.0506 2.2728
4.6436 -0.9242 2.2728
4.6852 0.2285 2.2728
4.4727 1.3553 2.2728
4.0177 2.4070 2.2728
3.3391 3.3367 2.2728
2.4632 4.1000 2.2728
1.0290 3.3622 1.6414
0.1818 3.3702 1.5419
-0.6431 3.3769 1.5331
-2.0932 4.5725 2.1867
-3.1031 3.9214 2.1204
-4.0377 3.1473 2.1204
-3.7976 1.7122 1.6907
-5.2174 0.9795 2.1204
-5.3570 -0.2789 2.1204
-5.1632 -1.5373 2.1204
-4.6467 -2.7022 2.1204
-3.8474 -3.6879 2.1204
-2.8295 -4.4268 2.1204
-1.7923 -5.2262 2.2728
-0.2551 -2.7844 1.1765
0.4034 -2.6969 1.1762
1.9495 -4.7526 2.2728
2.9570 -4.0466 2.2728
3.7577 -3.1456 2.2728
4.3225 -2.1052 2.2728
4.6348 -0.9815 2.2728
4.6893 0.1710 2.2728
4.4892 1.3003 2.2728
4.0459 2.3570 2.2728
3.3779 3.2938 2.2728
2.5112 4.0664 2.2728
1.0738 3.3618 1.6490
0.2228 3.3698 1.5447
-0.6009 3.3766 1.5315
-2.0814 4.6954 2.2362
-3.0521 3.9535 2.1204
-3.9954 3.1917 2.1204
-3.7483 1.7439 1.6794
-5.2019 1.0408 2.1204
-5.3579 -0.2151 2.1204
-5.1807 -1.4759 2.1204
-4.6796 -2.6476 2.1204
-3.8932 -3.6440 2.1204
-2.8844 -4.3965 2.1204
-1.8565 -5.2099 2.2728
-0.2887 -2.7846 1.1766
0.3715 -2.7049 1.1762
1.8944 -4.7818 2.2728
2.9112 -4.0870 2.2728
3.7231 -3.1944 2.2728
4.3001 -2.1597 2.2728
4.6253 -1.0389 2.2728
4.6926 0.1136 2.2728
4.5051 1.2452 2.2728
4.0736 2.3066 2.2728
3.4163 3.2505 2.2728
2.5587 4.0324 2.2728
1.3297 3.9944 1.9690
0.2639 3.3694 1.5476
-0.5588 3.3763 1.5301
-2.0554 4.7914 2.2728
-3.0008 3.9848 2.1204
-3.9525 3.2356 2.1204
-3.7430 1.7960 1.6881
-5.1856 1.1017 2.1204
-5.3580 -0.1515 2.1204
-5.1975 -1.4141 2.1204
-4.7119 -2.5924 2.1204
-3.9384 -3.5995 2.1204
-2.9389 -4.3655 2.1204
-1.9205 -5.1928 2.2728
-0.3225 -2.7844 1.1767
0.3394 -2.7126 1.1762
1.8390 -4.8104 2.2728
2.8649 -4.1269 2.2728
3.6879 -3.2429 2.2728
4.2772 -2.2139 2.2728
4.6152 -1.0960 2.2728
4.6954 0.0560 2.2728
4.5204 1.1899 2.2728
4.1007 2.2560 2.2728
3.4542 3.2068 2.2728
2.6059 3.9978 2.2728
1.5894 4.5872 2.2728
0.3050 3.3691 1.5508
-0.5170 3.3759 1.5289
-1.9950 4.8097 2.2728
-2.9491 4.0156 2.1204
-3.9092 3.2789 2.1204
-4.6701 2.3097 2.1204
-5.1685 1.1625 2.1204
-5.3572 -0.0878 2.1204
-5.2134 -1.3523 2.1204
-4.7434 -2.5370 2.1204
-3.9830 -3.5544 2.1204
-2.9932 -4.3337 2.1204
-1.9843 -5.1749 2.2728
-0.3562 -2.7837 1.1767
0.3072 -2.7198 1.1762
0.9234 -2.5055 1.1770
2.8182 -4.1663 2.2728
3.6521 -3.2910 2.2728
4.2536 -2.2679 2.2728
4.6044 -1.1532 2.2728
4.6975 -0.0016 2.2728
4.5351 1.1345 2.2728
4.1273 2.2050 2.2728
3.4915 3.1627 2.2728
2.6526 3.9627 2.2728
1.6436 4.5631 2.2728
0.3463 3.3687 1.5542
-0.4752 3.3756 1.5279
-1.9346 4.8272 2.2728
-2.8972 4.0456 2.1204
-3.8653 3.3216 2.1204
-4.6378 2.3629 2.1204
-5.1506 1.2230 2.1204
-5.3556 -0.0242 2.1204
-5.2285 -1.2902 2.1204
-4.7742 -2.4810 2.1204
-4.0270 -3.5087 2.1204
-3.0469 -4.3013 2.1204
-2.0480 -5.1561 2.2728
-0.3899 -2.7827 1.1768
0.2749 -2.7268 1.1762
0.8942 -2.5195 1.1769
2.7708 -4.2052 2.2728
3.6157 -3.3388 2.2728
4.2294 -2.3217 2.2728
4.5929 -1.2102 2.2728
4.6989 -0.0592 2.2728
4.5492 1.0788 2.2728
4.1533 2.1538 2.2728
3.5284 3.1182 2.2728
2.6989 3.9271 2.2728
1.6975 4.5384 2.2728
0.3876 3.3683 1.5578
-0.4337 3.3753 1.5271
-1.8739 4.8440 2.2728
-2.8449 4.0750 2.1204
-3.8210 3.3637 2.1204
-4.6049 2.4157 2.1204
-5.1320 1.2832 2.1204
-5.3531 0.0394 2.1204
-5.2428 -1.2279 2.1204
-4.8043 -2.4247 2.1204
-4.0706 -3.4624 2.1204
-3.1003 -4.2680 2.1204
-2.1115 -5.1365 2.2728
-0.4237 -2.7812 1.1768
0.2424 -2.7333 1.1762
0.8648 -2.5332 1.1769
2.7231 -4.2435 2.2728
3.5788 -3.3861 2.2728
4.2045 -2.3753 2.2728
4.5808 -1.2672 2.2728
4.6998 -0.1169 2.2728
4.5626 1.0230 2.2728
4.1787 2.1023 2.2728
3.5647 3.0733 2.2728
2.7447 3.8910 2.2728
1.7510 4.5132 2.2728
0.4291 3.3680 1.5617
-0.3922 3.3750 1.5266
-1.8131 4.8600 2.2728
-2.7924 4.1037 2.1204
-3.7762 3.4053 2.1204
-4.5713 2.4680 2.1204
-5.1126 1.3431 2.1204
-5.3498 0.1029 2.1204
-5.2563 -1.1654 2.1204
-4.8336 -2.3679 2.1204
-4.1135 -3.4154 2.1204
-3.1533 -4.2342 2.1204
-2.1748 -5.1161 2.2728
-0.4575 -2.7794 1.1769
0.2098 -2.7394 1.1762
0.8353 -2.5465 1.1768
2.6748 -4.2814 2.2728
3.5412 -3.4331 2.2728
4.1790 -2.4286 2.2728
4.5681 -1.3240 2.2728
4.7000 -0.1746 2.2728
4.5754 0.9670 2.2728
4.2035 2.0504 2.2728
3.6005 3.0281 2.2728
2.7902 3.8544 2.2728
1.8042 4.4873 2.2728
0.4674 3.3666 1.6588
-0.3542 3.3736 1.6187
-1.6550 4.5899 2.2728
-2.5814 3.8849 2.1204
-3.5097 3.2360 2.1204
-4.2623 2.3631 2.1204
-4.7790 1.3137 2.1204
-5.0133 0.1543 2.1204
-4.9396 -1.0344 2.1204
-4.5587 -2.1657 2.1204
-3.8984 -3.1570 2.1204
-3.0105 -3.9387 2.1204
-2.1052 -4.7826 2.2728
-0.4648 -2.6128 1.1783
0.1642 -2.5860 1.1775
0.7569 -2.4141 1.1780
2.4712 -4.0738 2.2728
3.3020 -3.2863 2.2728
3.9191 -2.3464 2.2728
4.3020 -1.3073 2.2728
4.4412 -0.2214 2.2728
4.3366 0.8603 2.2728
3.9961 1.8894 2.2728
3.4351 2.8198 2.2728
2.6764 3.6080 2.2728
1.7502 4.2134 2.2728
0.5091 3.3662 1.6633
-0.3129 3.3733 1.6185
-1.5976 4.6039 2.2728
-2.5315 3.9108 2.1204
-3.4669 3.2741 2.1204
-4.2299 2.4114 2.1204
-4.7596 1.3694 2.1204
-5.0087 0.2137 2.1204
-4.9507 -0.9756 2.1204
-4.5847 -2.1119 2.1204
-3.9373 -3.1119 2.1204
-3.0593 -3.9054 2.1204
-2.1641 -4.7617 2.2728
-0.4965 -2.6101 1.1784
0.1333 -2.5909 1.1776
0.7286 -2.4259 1.1780
2.4246 -4.1083 2.2728
3.2653 -3.3298 2.2728
3.8937 -2.3962 2.2728
4.2886 -1.3607 2.2728
4.4401 -0.2760 2.2728
4.3475 0.8072 2.2728
4.0185 1.8399 2.2728
3.4681 2.7763 2.2728
2.7186 3.5726 2.2728
1.8000 4.1880 2.2728
0.5510 3.3658 1.6681
-0.2717 3.3730 1.6186
-1.5401 4.6171 2.2728
-2.4814 3.9362 2.1204
-3.4237 3.3116 2.1204
-4.1968 2.4593 2.1204
-4.7395 1.4248 2.1204
-5.0035 0.2730 2.1204
-4.9610 -0.9167 2.1204
-4.6100 -2.0576 2.1204
-3.9757 -3.0663 2.1204
-3.1077 -3.8715 2.1204
-2.2227 -4.7400 2.2728
