ply
format ascii 1.0
element vertex 1961
property float32 x
property float32 y
property float32 z
end_header
11.8009 29.7037 -5.5418
-22.3374 33.5801 -6.9509
-28.7549 26.3886 -6.7210
-29.2365 16.0195 -5.7389
-25.9740 6.9094 -4.6270
-26.0983 0.4888 -4.4958
-26.2226 -5.9338 -4.6347
-26.3629 -13.1869 -5.0877
-26.3303 -22.4082 -5.9765
11.2178 -10.3918 -2.6705
11.8412 -6.5587 -2.3649
25.2364 -6.8341 -4.5676
33.0251 7.3248 -5.9019
15.9009 7.8704 -3.0917
10.3915 8.7696 -2.3659
18.0885 24.8863 -5.3442
11.7853 28.9010 -5.4121
-22.3249 34.2277 -7.0431
-28.2252 26.3778 -6.6530
-28.9526 16.2069 -5.7118
-25.9691 7.1608 -4.6374
-26.0937 0.7254 -4.4958
-26.2177 -5.6834 -4.6243
-26.3571 -12.8866 -5.0635
-26.3223 -21.9929 -5.9288
11.2142 -10.5790 -2.6923
11.5831 -6.5537 -2.3251
24.0443 -6.7459 -4.3628
32.6860 6.9391 -5.8300
16.4020 7.9340 -3.1752
11.2654 9.3334 -2.5457
18.4307 24.8797 -5.3788
11.7705 28.1350 -5.2887
-22.3120 34.8926 -7.1385
-27.7081 26.3673 -6.5871
-4.8365 2.7650 -0.9590
-25.9643 7.4124 -4.6483
-26.0891 0.9612 -4.4963
-26.0010 -5.3910 -4.5772
-26.3514 -12.5902 -5.0401
-26.4578 -21.7034 -5.9146
11.2105 -10.7686 -2.7146
11.3344 -6.5489 -2.2870
23.3580 -6.7816 -4.2492
32.5218 6.5978 -5.7901
17.1409 8.1012 -3.3041
10.9105 8.8744 -2.4474
18.7761 24.8730 -5.4142
11.7563 27.4005 -5.1708
-22.2988 35.5785 -7.2374
-27.1991 26.3570 -6.5228
-4.7918 2.7974 -0.9552
-25.9593 7.6662 -4.6596
-26.0845 1.1979 -4.4971
-26.2081 -5.1866 -4.6050
-26.3457 -12.2953 -5.0172
-26.5210 -21.3559 -5.8848
11.2068 -10.9621 -2.7376
11.2901 -6.6606 -2.2901
13.5489 -4.0673 -2.4714
37.7843 7.3106 -6.7152
17.0359 7.8641 -3.2702
11.1374 8.8930 -2.4803
19.1261 24.8662 -5.4504
11.7428 26.7007 -5.0589
-22.2852 36.2809 -7.3393
-26.7019 26.3469 -6.4605
-4.7980 2.8594 -0.9615
-25.9544 7.9203 -4.6714
-26.0800 1.4338 -4.4982
-25.9915 -4.9002 -4.5588
-26.3400 -12.0042 -4.9951
-26.5133 -20.9578 -5.8405
11.2030 -11.1583 -2.7611
11.2874 -6.7973 -2.3019
13.3000 -4.1239 -2.4327
38.3210 7.0545 -6.7992
16.9828 7.6535 -3.2467
11.4933 9.0078 -2.5415
19.4821 24.8593 -5.4878
11.7297 26.0281 -4.9517
-22.2711 37.0062 -7.4452
-26.2122 26.3369 -6.3997
-29.2658 17.8028 -5.8971
-25.7397 8.1105 -4.6457
-26.0754 1.6708 -4.4997
-26.1985 -4.6937 -4.5873
-26.1215 -11.6197 -4.9332
-26.4925 -20.5538 -5.7943
11.1991 -11.3578 -2.7853
11.2847 -6.9354 -2.3140
13.3022 -4.2567 -2.4401
38.2884 6.6914 -6.7827
16.9315 7.4471 -3.2241
11.4049 8.7733 -2.5044
19.8417 24.8524 -5.5260
11.7173 25.3858 -4.8498
-22.2567 37.7499 -7.5544
-25.7334 26.3272 -6.3408
-28.7714 17.8601 -5.8298
-26.0708 1.9071 -4.5016
-26.1938 -4.4491 -4.5791
-26.3289 -11.4283 -4.9524
-26.4982 -20.1775 -5.7551
11.1952 -11.5617 -2.8102
11.2820 -7.0755 -2.3265
13.3048 -4.3910 -2.4478
48.5950 -3.7694 -8.5123
42.9427 7.1041 -7.5958
16.8806 7.2427 -3.2019
11.3939 8.6015 -2.4849
20.2076 24.8453 -5.5653
11.8190 25.0076 -4.7981
-22.2419 38.5186 -7.6678
-25.2615 26.3176 -6.2832
-29.0484 18.3989 -5.9195
-26.0662 2.1445 -4.5039
-26.1891 -4.2043 -4.5712
-26.3234 -11.1434 -4.9319
-26.4908 -19.7950 -5.7139
11.1912 -11.7685 -2.8357
11.2793 -7.2166 -2.3393
13.3083 -4.5259 -2.4559
48.1487 -4.1727 -8.4406
43.6033 6.8092 -7.7017
16.8304 7.0418 -3.1803
11.3832 8.4330 -2.4660
23.4606 28.3184 -6.3908
12.0940 25.0023 -4.8182
-22.2266 39.3077 -7.7850
-24.7999 26.3082 -6.2274
-26.0616 2.3813 -4.5066
-26.1844 -3.9613 -4.5638
-26.3179 -10.8618 -4.9121
-26.2694 -19.2623 -5.6281
11.1871 -11.9799 -2.8620
11.2765 -7.3598 -2.3524
13.3217 -4.6657 -2.4661
48.7145 -4.6672 -8.5470
48.2914 7.0933 -8.5183
21.8785 8.9216 -4.1190
11.3727 8.2666 -2.4475
23.4504 27.7892 -6.3196
12.3723 24.9969 -4.8389
-22.2108 40.1245 -7.9068
-24.3447 26.2990 -6.1729
-26.0488 2.6184 -4.5082
-26.1797 -3.7191 -4.5568
-26.3125 -10.5824 -4.8928
-26.4764 -19.0487 -5.6350
11.1830 -12.1945 -2.8889
11.2737 -7.5041 -2.3658
13.3357 -4.8063 -2.4766
48.4542 -5.0845 -8.5092
22.1882 8.8150 -4.1623
11.9330 8.5102 -2.5516
23.4404 27.2736 -6.2506
12.6520 24.9915 -4.8601
-23.9140 26.3064 -6.1238
-26.0524 2.8567 -4.5130
-26.1750 -3.4767 -4.5501
-26.1002 -10.2231 -4.8357
-26.2553 -18.5307 -5.5517
11.1787 -12.4140 -2.9167
11.2709 -7.6506 -2.3797
13.3515 -4.9492 -2.4878
48.1956 -5.4997 -8.4724
22.0961 8.5472 -4.1305
12.3821 8.6622 -2.6309
23.4306 26.7673 -6.1834
12.9352 24.9860 -4.8820
-23.5685 26.4015 -6.0963
-37.6489 25.7995 -7.8576
-26.0478 3.0945 -4.5168
-26.1703 -3.2358 -4.5439
-26.3018 -10.0291 -4.8558
-26.4623 -18.3210 -5.5599
-4.9541 -5.6039 -1.2942
11.1744 -12.6375 -2.5552
11.2680 -7.7987 -2.0770
12.6666 -4.8264 -2.0548
22.0300 8.2924 -3.5599
11.5606 7.9320 -2.1170
23.4210 26.2707 -5.3045
13.2586 25.0505 -4.2632
-22.8412 26.0602 -5.1689
-36.9891 25.8448 -6.7262
-26.0432 3.3340 -3.9144
-26.1657 -2.9945 -3.9296
-26.2965 -9.7549 -4.1900
-26.3191 -17.8713 -4.7602
-5.0159 -5.5713 -1.1238
11.1700 -12.8653 -2.5807
11.2651 -7.9485 -2.0896
12.6800 -4.9634 -2.0642
21.6517 7.9270 -3.4872
11.5319 7.7597 -2.0989
23.4116 25.7865 -5.2497
13.5471 25.0449 -4.2833
-22.6688 26.3406 -5.1838
-36.7533 26.1780 -6.7262
-26.0386 3.5731 -3.9183
-25.9495 -2.7321 -3.8931
-26.2913 -9.4833 -4.1751
-26.4486 -17.6117 -4.7543
-26.6655 -29.0840 -5.9146
11.1655 -13.0977 -2.6068
11.2622 -8.1000 -2.1026
12.6949 -5.1022 -2.0741
21.1459 7.5255 -3.3948
11.5038 7.5905 -2.0813
23.4025 25.3124 -5.1964
13.8384 25.0393 -4.3039
12.8361 47.5662 -7.3966
-22.5487 26.6856 -5.2115
-36.5143 26.5090 -6.7262
-26.0339 3.8127 -3.9225
-26.1564 -2.5148 -3.9204
-26.2860 -9.2135 -4.1607
-26.4418 -17.2640 -4.7245
-26.6604 -28.5554 -5.8554
11.1609 -13.3349 -2.6337
11.2592 -8.2535 -2.1158
12.7103 -5.2425 -2.0843
48.0879 -7.2602 -7.3704
21.7557 7.5214 -3.4818
12.1773 7.8776 -2.1903
23.3935 24.8477 -5.1447
14.1325 25.0336 -4.3250
-22.4844 27.1031 -5.2532
-35.8468 26.5229 -6.6473
-25.8188 4.0201 -3.8954
-26.1518 -2.2758 -3.9163
-26.0895 -8.8804 -4.1165
-26.4352 -16.9205 -4.6954
-26.6503 -28.0317 -5.7969
11.1562 -13.5771 -2.6614
11.2562 -8.4090 -2.1295
12.7262 -5.3844 -2.0948
44.5925 -7.1459 -6.8444
22.3771 7.5102 -3.5704
12.1628 7.7130 -2.1752
23.7532 24.7767 -5.1746
14.3891 24.9579 -4.3346
-22.4538 27.5701 -5.3044
-35.1600 26.5103 -6.5643
-26.0246 4.2937 -3.9320
-25.9357 -2.0208 -3.8809
-26.2757 -8.6793 -4.1331
-26.3438 -16.5278 -4.6521
-26.4249 -27.2959 -5.6935
11.1514 -13.8245 -2.6899
11.2532 -8.5665 -2.1434
12.7427 -5.5278 -2.1056
42.1436 -7.1452 -6.4783
22.2243 7.2358 -3.5357
12.1483 7.5506 -2.1605
24.1792 24.7684 -5.2188
14.6883 24.9521 -4.3568
-22.4440 28.0730 -5.3620
-34.4900 26.4980 -6.4838
-26.0199 4.5351 -3.9373
-26.1425 -1.7991 -3.9091
-26.0582 -8.3467 -4.0866
-26.4221 -16.2458 -4.6395
-26.6306 -27.0149 -5.6845
-2.6464 -48.6885 -7.3510
11.1465 -14.0772 -2.7193
11.2501 -8.7261 -2.1577
12.7597 -5.6730 -2.1168
39.6795 -7.0975 -6.1092
22.1651 6.9954 -3.5162
12.1339 7.3903 -2.1461
24.6125 24.7600 -5.2641
14.9904 24.9463 -4.3797
-22.4341 28.5871 -5.4214
-33.8363 26.4860 -6.4058
-26.0153 4.7773 -3.9429
-26.1379 -1.5614 -3.9060
-26.0531 -8.0860 -4.0740
-26.4157 -15.9142 -4.6126
-26.6210 -26.5208 -5.6306
-3.0877 -48.6782 -7.3528
11.1415 -14.3357 -2.7495
11.2469 -8.8879 -2.1724
12.7772 -5.8199 -2.1284
37.4819 -7.0550 -5.7806
27.2040 8.3157 -4.3036
16.4132 9.7940 -2.8873
25.0535 24.7515 -5.3106
15.2958 24.9404 -4.4031
-22.4239 29.1127 -5.4826
-33.1980 26.4742 -6.3302
-26.0106 5.0200 -3.9488
-25.9221 -1.3132 -3.8717
-26.2604 -7.8905 -4.0948
-26.4094 -15.5864 -4.5864
-26.4989 -25.9256 -5.5545
-3.5296 -48.6673 -7.3552
11.1364 -14.5999 -2.7806
11.2438 -9.0518 -2.1875
12.7946 -5.9681 -2.1402
35.5077 -7.0168 -5.4858
27.2131 8.0499 -4.2936
16.5057 9.6477 -2.8883
10.4333 10.1227 -2.1922
15.6043 24.9344 -4.4271
15.4406 46.9278 -7.4203
-22.4135 29.6501 -5.5456
-32.5748 26.4628 -6.2569
-26.0058 5.2636 -3.9551
-26.1288 -1.0867 -3.9008
-26.0431 -7.5690 -4.0499
-26.2714 -15.1863 -4.5381
-26.6024 -25.5600 -5.5271
-3.9717 -48.6558 -7.3580
11.2406 -9.2182 -2.2030
12.8108 -6.1175 -2.1521
33.7398 -6.9853 -5.2223
27.2223 7.7854 -4.2840
16.5984 9.5015 -2.8895
10.5755 10.0764 -2.2030
15.9163 24.9283 -4.4518
15.8547 46.7569 -7.4162
-4.7037 11.2202 -1.8175
-22.4028 30.2003 -5.6106
-31.9656 26.4516 -6.1857
-26.0011 5.5080 -3.9618
-26.1242 -0.8499 -3.8987
-26.2504 -7.3724 -4.0714
-26.3969 -14.9418 -4.5360
-26.5934 -25.0924 -5.4774
-4.4141 -48.6439 -7.3614
11.2373 -9.3869 -2.2189
12.8276 -6.2687 -2.1643
33.7336 -7.3030 -5.2314
26.4379 7.3029 -4.1502
15.8004 8.8557 -2.7367
9.9126 9.2751 -2.0475
16.2316 24.9222 -4.4770
-23.1385 31.7891 -5.8668
-30.6883 25.8658 -5.9837
-25.9964 5.7532 -3.9688
-26.1196 -0.6132 -3.8969
-26.2454 -7.1154 -4.0603
-26.3908 -14.6246 -4.5117
-26.5291 -24.5820 -5.4178
-4.8572 -48.6324 -7.3655
11.2340 -9.5580 -2.2352
12.8449 -6.4218 -2.1770
30.2449 -6.8349 -4.6999
27.4213 7.3080 -4.2942
16.0380 8.7992 -2.7641
10.5534 9.6971 -2.1618
16.5507 24.9161 -4.5030
11.8649 33.0138 -5.2704
-23.1272 32.3856 -5.9383
-30.6792 26.3368 -6.0283
-31.5099 15.9310 -5.2623
-25.9916 5.9992 -3.9761
-26.1150 -0.3768 -3.8954
-26.2405 -6.8599 -4.0496
-26.2703 -14.2487 -4.4687
-26.5757 -24.1819 -5.3820
-5.3010 -48.6213 -7.3702
11.2306 -9.7317 -2.2519
12.8629 -6.5769 -2.1900
28.9115 -6.8091 -4.5021
27.2860 7.0082 -4.2631
16.4495 8.8322 -2.8213
11.0078 9.9324 -2.2365
16.8734 24.9098 -4.5296
11.8462 32.0476 -5.1334
-23.1157 32.9962 -6.0119
-30.2170 26.4183 -5.9843
-31.0947 16.0760 -5.2170
-25.9868 6.2463 -3.9838
-26.1104 -0.1405 -3.8943
-26.2356 -6.6056 -4.0392
-26.1654 -13.8869 -4.4290
-26.5672 -23.7382 -5.3362
-5.7454 -48.6096 -7.3755
11.2272 -9.9081 -2.2690
12.5728 -6.5729 -2.1506
28.0397 -6.8722 -4.3759
32.4616 8.0250 -5.0604
16.8610 8.8575 -2.8782
11.0813 9.8182 -2.2335
17.2000 24.9035 -4.5570
11.8285 31.1303 -5.0038
-23.1039 33.6227 -6.0880
-29.6581 26.4070 -5.9209
-29.6851 15.6893 -5.0042
-25.9820 6.4944 -3.9918
-26.1059 0.0958 -3.8934
-26.0186 -6.3011 -3.9967
-26.2961 -13.6527 -4.4297
-26.4880 -23.2398 -5.2775
-6.1900 -48.5974 -7.3813
11.2237 -10.0872 -2.2866
12.2901 -6.5674 -2.1124
26.8939 -6.8501 -4.2067
32.6768 7.7650 -5.0830
16.1377 8.2920 -2.7420
11.1546 9.7044 -2.2306
17.5305 24.8971 -4.5850
11.8116 30.2590 -4.8811
-22.8532 33.9112 -6.1028
-29.1109 26.3958 -5.8592
-29.1311 15.7354 -4.9346
-25.7672 6.6890 -3.9679
-26.1013 0.3320 -3.8929
-26.2258 -6.1006 -4.0197
-26.3668 -13.3879 -4.4208
-26.3358 -22.6882 -5.2057
-6.6358 -48.5846 -7.3876
11.2202 -10.2692 -2.3047
12.0172 -6.5621 -2.0756
25.8333 -6.8295 -4.0503
32.1719 7.3380 -4.9941
16.8216 8.4520 -2.8452
10.0542 8.5885 -1.9951
17.8306 24.8430 -4.6049
11.7956 29.4288 -4.7646
-22.4039 33.9025 -6.0647
-27.7283 25.6032 -5.6275
-29.1126 16.0674 -4.9560
-25.9724 6.9937 -4.0091
-26.0967 0.5682 -3.8927
-26.2209 -5.8501 -4.0105
-26.1479 -12.9807 -4.3640
-26.3276 -22.2693 -5.1637
-7.0823 -48.5713 -7.3945
11.2166 -10.4540 -2.3232
11.7537 -6.5570 -2.0402
25.1263 -6.8866 -3.9491
31.5366 6.8937 -4.8859
16.8379 8.2702 -2.8354
11.0429 9.2616 -2.1747
18.2546 24.9538 -4.6562
11.7802 28.6373 -4.6539
-23.0650 35.5992 -6.3309
-27.2193 25.5933 -5.5711
-29.7519 16.7732 -5.0905
-25.9675 7.2448 -4.0182
-26.0922 0.8041 -3.8929
-26.2161 -5.6005 -4.0017
-26.1421 -12.6843 -4.3434
-26.3704 -21.8992 -5.1326
-7.5298 -48.5574 -7.4019
11.2130 -10.6419 -2.3423
11.4992 -6.5521 -2.0062
23.9329 -6.7928 -3.7711
32.5860 6.8147 -5.0389
16.8296 8.0778 -2.8217
10.5492 8.6861 -2.0620
18.5986 24.9471 -4.6865
11.6529 27.6147 -4.5050
-23.0513 36.2934 -6.4173
-26.7208 25.5837 -5.5163
-4.8159 2.7727 -0.8283
-25.9626 7.4973 -4.0277
-26.0876 1.0403 -3.8933
-26.1076 -5.3308 -3.9774
-26.1364 -12.3906 -4.3234
-26.5263 -21.6260 -5.1243
-7.9781 -48.5430 -7.4099
11.2093 -10.8328 -2.3618
11.2918 -6.5700 -1.9803
13.9658 -4.1008 -2.2064
37.7848 7.5456 -5.8323
16.8212 7.8873 -2.8084
11.0455 8.9282 -2.1433
18.9472 24.9404 -4.7176
11.8197 27.3172 -4.4741
-23.0371 37.0062 -6.5065
-26.2316 25.5742 -5.4630
-4.7847 2.8127 -0.8272
-25.9577 7.7511 -4.0377
-26.0654 1.2758 -3.8915
-26.2065 -5.1044 -3.9851
-26.1308 -12.0996 -4.3040
-26.5185 -21.2230 -5.0851
-8.4274 -48.5280 -7.4184
11.2055 -11.0270 -2.3819
11.2892 -6.7060 -1.9904
13.5784 -4.1209 -2.1510
38.2940 7.2874 -5.9007
17.3623 7.9501 -2.8867
11.1004 8.8077 -2.1385
19.1854 24.7851 -4.7213
11.7383 26.4690 -4.3527
-23.0225 37.7397 -6.5989
-25.7517 25.5649 -5.4112
-29.2238 17.5371 -5.0798
-25.9528 8.0061 -4.0480
-26.0784 1.5131 -3.8952
-26.1604 -4.8501 -3.9711
-26.2033 -11.8464 -4.2978
-26.2965 -20.6578 -5.0062
-8.8773 -48.5124 -7.4274
11.2017 -11.2247 -2.4025
11.2865 -6.8434 -2.0007
13.1206 -4.1121 -2.0843
38.0092 6.8773 -5.8472
16.9246 7.5651 -2.8026
11.6391 9.0648 -2.2266
19.6031 24.8570 -4.7689
11.7255 25.8079 -4.2616
-2.0461 36.4016 -5.4595
-23.0075 38.4944 -6.6945
-25.2808 25.5558 -5.3608
-28.8753 17.6853 -5.0469
-25.7380 8.1956 -4.0258
-26.0739 1.7497 -3.8966
-26.1970 -4.6121 -3.9699
-26.2074 -11.5640 -4.2809
-26.5032 -20.4354 -5.0098
-9.1954 -47.8027 -7.3306
11.1978 -11.4258 -2.4237
11.2838 -6.9823 -2.0114
12.6236 -4.0821 -2.0111
37.8238 6.4911 -5.8097
16.8736 7.3600 -2.7832
11.2294 8.5836 -2.1334
19.9650 24.8500 -4.8024
11.7132 25.1734 -4.1745
-1.7131 36.3447 -5.4488
-22.7647 38.8829 -6.7262
-24.8186 25.5469 -5.3117
-29.1427 18.2137 -5.1223
-26.0693 1.9862 -3.8983
-26.1922 -4.3675 -3.9629
-26.3271 -11.3333 -4.2833
-26.4958 -20.0500 -4.9736
-9.6457 -47.8072 -7.3439
11.1939 -11.6305 -2.4455
11.2811 -7.1226 -2.0223
12.6332 -4.2118 -2.0187
48.3444 -3.8976 -7.3492
43.2392 7.0181 -6.6317
16.8232 7.1574 -2.7642
11.5339 8.6520 -2.1764
20.3320 24.8429 -4.8367
11.9117 25.0058 -4.1647
-1.3886 36.4758 -5.4667
-22.4109 39.0855 -6.7262
-24.3648 25.5381 -5.2640
-26.0647 2.2233 -3.9004
-25.9758 -4.0902 -3.9242
-26.3216 -11.0497 -4.2657
-26.4884 -19.6700 -4.9382
-10.0980 -47.8125 -7.3579
11.1898 -11.8390 -2.4678
11.2784 -7.2645 -2.0335
12.6385 -4.3412 -2.0257
43.5789 6.6686 -6.6746
17.5215 7.2678 -2.8682
11.7928 8.6808 -2.2105
23.4572 28.1384 -5.5198
12.1877 25.0005 -4.1823
-22.2213 39.5798 -6.7768
-23.9290 25.5397 -5.2197
-26.0601 2.4606 -3.9028
-26.1828 -3.8803 -3.9499
-26.3161 -10.7684 -4.2486
-26.3686 -19.2133 -4.8830
-10.5522 -47.8184 -7.3726
11.1857 -12.0513 -2.4908
11.2756 -7.4080 -2.0449
12.6398 -4.4700 -2.0324
48.2072 6.9317 -7.3738
17.5053 7.0764 -2.8551
12.3656 8.9310 -2.3028
23.4470 27.6141 -5.4588
12.4663 24.9951 -4.2005
-22.2054 40.4036 -6.8835
-23.5560 25.6020 -5.1888
-25.8448 2.6765 -3.8739
-25.9665 -3.6084 -3.9120
-26.3107 -10.4892 -4.2320
-26.4740 -18.9257 -4.8702
-11.0086 -47.8252 -7.3882
11.1815 -12.2676 -2.5144
11.2728 -7.5528 -2.0567
12.6478 -4.6018 -2.0403
22.1248 8.7116 -3.5958
12.3476 8.7490 -2.2848
23.4371 27.1014 -5.3995
12.7473 24.9897 -4.2191
-22.2776 41.4187 -7.0221
-23.2371 25.7186 -5.1698
-26.0509 2.9363 -3.9086
-26.1734 -3.3961 -3.9382
-26.3054 -10.2122 -4.2159
-26.2530 -18.4110 -4.7984
11.1773 -12.4877 -2.5386
11.2699 -7.6996 -2.0688
12.6589 -4.7360 -2.0489
22.0892 8.4675 -3.5775
11.5800 8.0487 -2.1293
23.4274 26.5997 -5.3420
12.9895 24.9050 -4.2248
-22.9804 25.9019 -5.1648
-37.3898 25.7902 -6.7706
-26.0463 3.1747 -3.9119
-26.1688 -3.1550 -3.9329
-26.3000 -9.9372 -4.2002
-26.4600 -18.2012 -4.8056
-4.9646 -5.5816 -1.1199
11.1729 -12.7126 -2.5636
11.2671 -7.8482 -2.0812
12.6705 -4.8715 -2.0578
21.9990 8.2053 -3.5510
11.5510 7.8744 -2.1109
23.4179 26.1087 -5.2861
13.3542 25.0486 -4.2698
-22.7750 26.1431 -5.1718
-36.9110 25.9560 -6.7262
-26.0416 3.4136 -3.9156
-26.1641 -2.9145 -3.9279
-26.2948 -9.6642 -4.1850
-26.4531 -17.8460 -4.7745
-26.4883 -29.2429 -5.9146
11.1685 -12.9419 -2.5893
11.2642 -7.9986 -2.0939
12.6849 -5.0094 -2.0675
21.4891 7.7943 -3.4573
11.5225 7.7032 -2.0930
23.4086 25.6278 -5.2318
13.6437 25.0430 -4.2900
-4.5005 19.6591 -3.0162
-22.6207 26.4454 -5.1910
-36.6741 26.2885 -6.7262
-26.0370 3.6529 -3.9197
-25.9480 -2.6529 -3.8916
-26.2895 -9.3932 -4.1703
-26.4463 -17.4959 -4.7443
-26.4517 -28.6776 -5.8479
11.1640 -13.1759 -2.6157
11.2612 -8.1508 -2.1069
12.7000 -5.1487 -2.0774
21.8156 7.6900 -3.4987
11.4946 7.5349 -2.0756
23.3995 25.1567 -5.1790
13.9359 25.0374 -4.3108
13.0215 47.6818 -7.4208
-22.5274 26.8240 -5.2253
-36.3146 26.5315 -6.7042
-26.0324 3.8923 -3.9240
-26.1548 -2.4356 -3.9190
-26.2843 -9.1244 -4.1560
-26.2259 -17.0109 -4.6766
-26.6570 -28.3805 -5.8358
11.1593 -13.4148 -2.6428
11.2582 -8.3050 -2.1203
12.7155 -5.2895 -2.0877
45.0261 -6.9366 -6.9043
22.4066 7.6710 -3.5824
12.1724 7.8226 -2.1853
23.4729 24.7821 -5.1458
14.1642 24.9142 -4.3119
-22.4627 27.2438 -5.2674
-35.6172 26.5187 -6.6195
-26.0277 4.1327 -3.9287
-25.9388 -2.1789 -3.8834
-26.2791 -8.8570 -4.1421
-26.4330 -16.8074 -4.6860
-26.6469 -27.8602 -5.7778
11.1546 -13.6588 -2.6708
11.2552 -8.4611 -2.1341
12.7316 -5.4319 -2.0984
44.5962 -7.2842 -6.8483
22.2642 7.3978 -3.5489
12.1580 7.6587 -2.1703
23.8943 24.7739 -5.1892
14.4884 24.9560 -4.3419
-22.4505 27.7356 -5.3233
-34.9359 26.5062 -6.5373
-26.0231 4.3738 -3.9337
-26.1456 -1.9582 -3.9114
-26.2740 -8.5913 -4.1287
-26.4265 -16.4693 -4.6579
-26.5566 -27.2674 -5.7040
11.1498 -13.9080 -2.6996
11.2521 -8.6193 -2.1481
12.7483 -5.5759 -2.1093
41.2910 -7.1287 -6.3505
22.2046 7.1555 -3.5291
12.1435 7.4969 -2.1556
24.3228 24.7656 -5.2337
14.7886 24.9502 -4.3644
-22.4407 28.2423 -5.3815
-34.2714 26.4940 -6.4577
-26.0184 4.6154 -3.9391
-26.1410 -1.7201 -3.9081
-26.0565 -8.2599 -4.0824
-26.4200 -16.1352 -4.6305
-26.6274 -26.8496 -5.6664
-2.7931 -48.6851 -7.3515
11.1449 -14.1626 -2.7292
11.2490 -8.7797 -2.1626
12.7654 -5.7217 -2.1206
38.9204 -7.0828 -5.9957
22.1454 6.9158 -3.5098
12.1292 7.3373 -2.1413
24.7586 24.7572 -5.2795
15.0913 24.9443 -4.3874
-22.4307 28.7602 -5.4415
-33.6228 26.4820 -6.3805
-26.0137 4.8578 -3.9448
-26.1364 -1.4824 -3.9051
-26.2638 -8.0649 -4.1030
-26.2001 -15.6771 -4.5666
-26.6179 -26.3586 -5.6130
-3.2348 -48.6746 -7.3535
11.1398 -14.4230 -2.7597
11.2459 -8.9422 -2.1774
12.7832 -5.8691 -2.1323
36.8006 -7.0418 -5.6788
27.1996 8.2247 -4.2991
16.4438 9.7455 -2.8876
10.3391 10.1533 -2.1852
15.3977 24.9384 -4.4110
-22.4205 29.2898 -5.5033
-32.9894 26.4704 -6.3056
-26.0090 5.1009 -3.9509
-26.1318 -1.2450 -3.9024
-26.2587 -7.8040 -4.0908
-26.4073 -15.4783 -4.5779
-26.6085 -25.8766 -5.5610
-3.6767 -48.6635 -7.3561
11.1347 -14.6892 -2.7912
11.2427 -9.1070 -2.1926
12.7999 -6.0177 -2.1441
34.8970 -7.0050 -5.3947
27.0200 7.9046 -4.2594
16.5364 9.5992 -2.8887
10.4803 10.1074 -2.1958
15.7075 24.9324 -4.4352
-22.4100 29.8316 -5.5670
-32.3708 26.4590 -6.2330
-25.7940 5.3016 -3.9253
-26.1272 -1.0079 -3.9001
-26.2199 -7.5349 -4.0738
-26.4010 -15.1553 -4.5525
-26.5994 -25.4034 -5.5104
-4.1190 -48.6519 -7.3591
11.2395 -9.2738 -2.2082
12.8163 -6.1674 -2.1561
33.7377 -7.0906 -5.2253
27.8715 7.8806 -4.3825
16.6293 9.4529 -2.8900
9.6658 9.1544 -2.0078
16.0206 24.9263 -4.4601
-4.3252 28.1097 -4.2557
-4.6616 11.2143 -1.8143
-22.3993 30.3860 -5.6326
-30.8235 25.6631 -5.9797
-25.9995 5.5895 -3.9641
-26.1226 -0.7711 -3.8981
-26.2487 -7.2867 -4.0677
-26.3949 -14.8358 -4.5279
-26.5904 -24.9386 -5.4612
-4.5617 -48.6398 -7.3627
11.2362 -9.4434 -2.2242
12.8333 -6.3193 -2.1685
31.6030 -6.9412 -4.9042
26.5029 7.2352 -4.1570
15.7720 8.7776 -2.7272
10.0389 9.3368 -2.0678
16.3373 24.9202 -4.4856
-23.1348 31.9858 -5.8903
-30.6853 26.0217 -5.9984
-25.9948 5.8350 -3.9712
-26.1181 -0.5345 -3.8964
-26.2438 -7.0302 -4.0567
-26.3887 -14.5197 -4.5038
-26.5816 -24.4820 -5.4133
-5.0043 -48.6288 -7.3670
11.2329 -9.6154 -2.2407
12.8508 -6.4731 -2.1813
30.1540 -6.9096 -4.6890
27.3831 7.2098 -4.2848
16.1730 8.8100 -2.7828
10.7057 9.7778 -2.1870
16.6575 24.9140 -4.5118
11.8586 32.6870 -5.2240
-23.1234 32.5871 -5.9625
-30.5964 26.4260 -6.0277
-31.3707 15.9796 -5.2471
-25.9900 6.0815 -3.9786
-26.1135 -0.2980 -3.8950
-26.0267 -6.7202 -4.0134
-26.3827 -14.2069 -4.4804
-26.5729 -24.0332 -5.3666
-5.4482 -48.6175 -7.3719
11.2295 -9.7900 -2.2575
12.7674 -6.5767 -2.1771
28.8575 -6.8881 -4.4969
27.2380 6.9086 -4.2524
16.9411 9.0306 -2.9010
11.0323 9.8944 -2.2355
16.9816 24.9077 -4.5386
11.8402 31.7374 -5.0896
-23.1118 33.2033 -6.0370
-30.0294 26.4145 -5.9630
-30.9579 16.1238 -5.2022
-25.9852 6.3289 -3.9864
-25.8978 -0.0612 -3.8625
-26.2339 -6.5216 -4.0359
-26.1634 -13.7855 -4.4215
-26.5643 -23.5928 -5.3213
-5.8928 -48.6056 -7.3774
11.2261 -9.9673 -2.2748
12.4777 -6.5710 -2.1378
27.6487 -6.8647 -4.3181
32.6186 7.9598 -5.0812
16.5651 8.6385 -2.8233
11.1057 9.7804 -2.2325
17.3094 24.9014 -4.5662
11.7095 30.5402 -4.9148
-23.0999 33.8351 -6.1139
-29.4744 26.4032 -5.9001
-29.5889 15.7528 -4.9960
-25.9804 6.5769 -3.9946
-26.1043 0.1741 -3.8932
-26.0170 -6.2182 -3.9935
-26.3708 -13.5912 -4.4353
-26.5559 -23.1588 -5.2770
-6.3381 -48.5932 -7.3833
11.2226 -10.1474 -2.2926
12.1983 -6.5656 -2.1000
26.5324 -6.8431 -4.1533
32.7059 7.6681 -5.0840
16.3182 8.3228 -2.7684
11.1789 9.6666 -2.2297
17.6413 24.8950 -4.5945
11.8062 29.9778 -4.8416
-22.7028 33.9083 -6.0900
-28.9321 26.3922 -5.8392
-29.3028 15.9418 -4.9718
-25.9756 6.8264 -4.0031
-26.0998 0.4103 -3.8928
-26.2242 -6.0174 -4.0166
-26.3649 -13.2876 -4.4137
-26.3330 -22.5482 -5.1916
-6.7841 -48.5802 -7.3899
11.2190 -10.3303 -2.3108
11.9286 -6.5604 -2.0637
25.2380 -6.7534 -3.9602
31.9583 7.1882 -4.9577
16.1151 8.0362 -2.7217
10.9970 9.3367 -2.1766
17.9202 24.8095 -4.6088
11.7904 29.1608 -4.7271
-22.3291 34.0107 -6.0722
-27.5584 25.5999 -5.6086
-29.0188 16.1293 -4.9482
-25.9707 7.0769 -4.0121
-26.0952 0.6464 -3.8927
-26.2193 -5.7671 -4.0075
-26.1972 -12.9072 -4.3656
-26.3769 -22.1751 -5.1601
-7.2310 -48.5667 -7.3969
11.2154 -10.5162 -2.3295
11.6681 -6.5554 -2.0287
24.8110 -6.8805 -3.9028
32.6962 7.0439 -5.0623
16.8351 8.2059 -2.8308
11.0659 9.2241 -2.1738
18.3688 24.9516 -4.6662
11.7753 28.3816 -4.6182
-23.0605 35.8272 -6.3592
-27.0528 25.5901 -5.5528
-29.6596 16.8386 -5.0833
-25.9659 7.3286 -4.0213
-26.0906 0.8826 -3.8930
-26.2145 -5.5178 -3.9988
-26.1402 -12.5864 -4.3367
-26.5287 -21.8961 -5.1505
-7.6787 -48.5527 -7.4045
11.2118 -10.7051 -2.3487
11.4161 -6.5505 -1.9952
23.6412 -6.7871 -3.7284
32.5312 6.7008 -5.0274
16.8268 8.0141 -2.8172
10.7091 8.7640 -2.0882
18.7136 24.9449 -4.6967
11.7255 27.5556 -4.5012
-23.0466 36.5277 -6.4466
-26.5571 25.5805 -5.4985
-4.7982 2.7818 -0.8266
-25.9610 7.5815 -4.0310
-26.0861 1.1189 -3.8935
-26.2097 -5.2695 -3.9904
-26.1346 -12.2936 -4.3169
-26.5237 -21.4914 -5.1112
-8.1273 -48.5380 -7.4126
11.2081 -10.8972 -2.3684
11.2909 -6.6152 -1.9836
13.9002 -4.1271 -2.1980
38.2253 7.5143 -5.8968
16.8185 7.8245 -2.8040
11.4660 9.2114 -2.2196
19.0637 24.9381 -4.7281
11.8152 27.0835 -4.4417
-23.0323 37.2477 -6.5369
-26.0710 25.5711 -5.4457
-4.7876 2.8338 -0.8292
-25.9561 7.8357 -4.0410
-25.8706 1.3443 -3.8629
-26.2049 -5.0223 -3.9825
-26.1302 -12.0040 -4.2978
-26.5159 -21.0905 -5.0723
-8.5770 -48.5229 -7.4213
11.2043 -11.0925 -2.3887
11.2883 -6.7517 -1.9938
13.4226 -4.1179 -2.1283
38.3068 7.1702 -5.8994
16.9589 7.7035 -2.8158
11.1769 8.8136 -2.1482
19.3649 24.8616 -4.7470
11.7339 26.2453 -4.3218
-2.2739 36.5261 -5.4798
-23.0176 37.9896 -6.6305
-25.5933 25.5619 -5.3942
-29.2709 17.6846 -5.0972
-25.7566 8.0300 -4.0211
-26.0769 1.5912 -3.8956
-26.2002 -4.7765 -3.9749
-26.2391 -11.7682 -4.2978
-26.3299 -20.5570 -5.0007
-9.0268 -48.5072 -7.4305
11.2004 -11.2909 -2.4095
11.2856 -6.8893 -2.0042
12.9751 -4.1092 -2.0631
37.9474 6.7486 -5.8347
16.9076 7.4967 -2.7961
11.2358 8.6966 -2.1445
19.7228 24.8547 -4.7799
11.7213 25.5941 -4.2322
-1.9351 36.3793 -5.4553
-22.9999 38.7458 -6.7262
-25.1263 25.5528 -5.3443
-28.9633 17.8592 -5.0717
-25.7364 8.2804 -4.0294
-26.0723 1.8284 -3.8971
-26.1954 -4.5306 -3.9676
-26.3307 -11.5237 -4.2953
-26.5007 -20.3063 -4.9976
-9.3453 -47.8041 -7.3350
11.1965 -11.4936 -2.4309
11.2829 -7.0289 -2.0150
12.6267 -4.1253 -2.0136
37.7622 6.3629 -5.7973
16.8567 7.2920 -2.7768
11.5730 8.7908 -2.1937
20.0871 24.8476 -4.8137
11.7290 25.0094 -4.1532
-1.6042 36.3462 -5.4484
-22.6480 38.9502 -6.7262
-24.6677 25.5440 -5.2958
-29.2328 18.3919 -5.1478
-26.0678 2.0648 -3.8990
-26.1907 -4.2866 -3.9607
-26.3252 -11.2391 -4.2774
-26.4933 -19.9234 -4.9618
-9.7954 -47.8089 -7.3484
11.1925 -11.6992 -2.4528
11.2802 -7.1695 -2.0260
12.6365 -4.2552 -2.0212
43.6034 6.9427 -6.6844
17.5325 7.3970 -2.8772
11.5146 8.5836 -2.1680
20.4551 24.8405 -4.8483
12.0033 25.0041 -4.1705
-22.2929 39.1521 -6.7262
-24.2157 25.5352 -5.2484
-26.0632 2.3024 -3.9012
-25.9743 -4.0097 -3.9221
-26.3197 -10.9557 -4.2600
-26.4860 -19.5445 -4.9267
-10.2492 -47.8144 -7.3627
11.1885 -11.9093 -2.4754
11.2774 -7.3121 -2.0373
12.6389 -4.3840 -2.0279
43.5665 6.5322 -6.6697
17.5162 7.2044 -2.8638
11.7096 8.5654 -2.1902
23.4538 27.9633 -5.4994
12.2798 24.9987 -4.1883
-22.2161 39.8500 -6.8117
-23.8049 25.5604 -5.2094
-26.0586 2.5394 -3.9037
-26.1812 -3.7999 -3.9479
-26.3143 -10.6756 -4.2431
-26.4788 -19.1722 -4.8926
-10.7032 -47.8206 -7.3777
11.1843 -12.1225 -2.4985
11.2747 -7.4559 -2.0488
12.6407 -4.5130 -2.0347
48.8564 6.8746 -7.4700
17.4998 7.0128 -2.8508
12.3596 8.8700 -2.2967
23.4437 27.4420 -5.4388
12.5597 24.9933 -4.2066
-22.1999 40.6839 -6.9199
-23.4327 25.6226 -5.1787
-26.0540 2.7776 -3.9065
-25.9649 -3.5284 -3.9101
-26.0962 -10.3126 -4.1924
-26.4716 -18.8036 -4.8592
-11.1611 -47.8276 -7.3935
11.1801 -12.3407 -2.5224
11.2718 -7.6013 -2.0607
12.6515 -4.6462 -2.0431
22.1167 8.6319 -3.5903
11.5997 8.1669 -2.1419
23.4338 26.9340 -5.3803
12.8410 24.9879 -4.2254
-23.1475 25.7745 -5.1671
-37.9979 25.8718 -6.8522
-26.0494 3.0153 -3.9096
-26.1719 -3.3161 -3.9364
-26.3036 -10.1208 -4.2107
-26.3124 -18.3352 -4.7991
-4.9516 -5.6353 -1.1247
11.1758 -12.5622 -2.5469
11.2690 -7.7490 -2.0729
12.6627 -4.7811 -2.0518
22.0756 8.3860 -3.5713
11.5703 7.9902 -2.1231
23.4242 26.4349 -5.3232
13.0843 24.9031 -4.2312
-22.9105 25.9805 -5.1667
-37.1427 25.7854 -6.7399
-26.0447 3.2543 -3.9131
-26.1672 -3.0747 -3.9312
-26.2983 -9.8460 -4.1951
-26.2438 -17.9361 -4.7564
-4.9863 -5.5721 -1.1209
11.1715 -12.7881 -2.5720
11.2661 -7.8978 -2.0854
12.6751 -4.9170 -2.0610
21.9683 8.1188 -3.5421
11.5415 7.8173 -2.1049
23.4148 25.9482 -5.2679
13.4499 25.0468 -4.2765
-22.7172 26.2353 -5.1765
-36.8328 26.0664 -6.7262
-26.0401 3.4928 -3.9169
-26.1626 -2.8349 -3.9264
-26.2930 -9.5742 -4.1801
-26.4509 -17.7292 -4.7644
-26.5765 -29.1641 -5.9146
11.1670 -13.0194 -2.5980
11.2632 -8.0491 -2.0982
12.6899 -5.0556 -2.0707
21.3287 7.6634 -3.4278
11.5132 7.6468 -2.0872
23.4055 25.4697 -5.2141
13.7408 25.0412 -4.2969
-22.5724 26.5506 -5.1983
-36.5944 26.3988 -6.7262
-26.0355 3.7328 -3.9211
-26.1579 -2.5947 -3.9218
-26.2878 -9.3042 -4.1655
-26.4441 -17.3806 -4.7344
-26.5491 -28.6105 -5.8503
11.1624 -13.2546 -2.6246
11.2602 -8.2017 -2.1113
12.7051 -5.1952 -2.0808
48.6620 -7.1955 -7.4549
20.8319 7.2730 -3.3375
11.4854 7.4797 -2.0699
23.3965 25.0027 -5.1619
14.0335 25.0355 -4.3179
-22.5061 26.9624 -5.2391
-36.0810 26.5272 -6.6758
-25.9458 3.9594 -3.9127
-26.1533 -2.3559 -3.9176
-26.0701 -8.9620 -4.1178
-26.2813 -16.9344 -4.6773
-26.6536 -28.2059 -5.8163
11.1578 -13.4956 -2.6521
11.2572 -8.3568 -2.1249
12.7208 -5.3368 -2.0912
44.5891 -7.0071 -6.8405
22.3919 7.5906 -3.5764
12.1676 7.7677 -2.1802
23.6126 24.7794 -5.1601
14.2447 24.8807 -4.3136
-22.4569 27.4048 -5.2855
-35.3895 26.5145 -6.5920
-26.0262 4.2126 -3.9303
-25.9373 -2.1004 -3.8821
-26.2774 -8.7687 -4.1376
-26.2171 -16.5599 -4.6388
-26.6436 -27.6900 -5.7589
11.1530 -13.7408 -2.6802
11.2542 -8.5133 -2.1387
12.7371 -5.4795 -2.1019
44.5999 -7.4223 -6.8523
22.2443 7.3172 -3.5423
12.1532 7.6049 -2.1654
24.0355 24.7712 -5.2038
14.5876 24.9541 -4.3493
-22.4473 27.9033 -5.3425
-34.7126 26.5021 -6.5105
-26.0215 4.4542 -3.9355
-26.1441 -1.8788 -3.9102
-26.2723 -8.5031 -4.1243
-26.4243 -16.3575 -4.6487
-26.6338 -27.1821 -5.7028
-2.4988 -48.6919 -7.3505
11.1482 -13.9922 -2.7094
11.2511 -8.6726 -2.1529
12.7539 -5.6243 -2.1131
40.4702 -7.1128 -6.2276
22.1848 7.0753 -3.5226
12.1387 7.4435 -2.1508
24.4672 24.7628 -5.2488
14.8893 24.9482 -4.3720
-22.4374 28.4127 -5.4012
-34.0546 26.4900 -6.4318
-26.0168 4.6957 -3.9410
-26.1395 -1.6413 -3.9070
-26.0548 -8.1735 -4.0782
-26.4179 -16.0253 -4.6216
-26.6242 -26.6858 -5.6485
-2.9395 -48.6817 -7.3521
11.1432 -14.2483 -2.7392
11.2480 -8.8333 -2.1675
12.7712 -5.7703 -2.1245
38.1921 -7.0687 -5.8867
22.1259 6.8369 -3.5035
12.1245 7.2849 -2.1367
24.9048 24.7544 -5.2949
15.1931 24.9423 -4.3952
-22.4273 28.9355 -5.4619
-33.4100 26.4781 -6.3553
-26.0121 4.9387 -3.9468
-25.9236 -1.3919 -3.8726
-26.2621 -7.9777 -4.0989
-26.2377 -15.5923 -4.5649
-26.3996 -25.9851 -5.5503
-3.3820 -48.6710 -7.3543
11.1381 -14.5111 -2.7701
11.2448 -8.9969 -2.1825
12.7892 -5.9187 -2.1363
36.1429 -7.0291 -5.5806
27.2100 8.1393 -4.2969
16.4745 9.6970 -2.8879
10.3857 10.1382 -2.1887
15.5000 24.9364 -4.4189
-22.4170 29.4680 -5.5242
-32.7827 26.4666 -6.2813
-26.0074 5.1816 -3.9530
-26.1303 -1.1664 -3.9016
-26.2571 -7.7179 -4.0869
-26.1917 -15.2466 -4.5325
-26.6055 -25.7188 -5.5441
-3.8233 -48.6597 -7.3570
11.2416 -9.1621 -2.1978
12.8053 -6.0672 -2.1481
34.3030 -6.9935 -5.3061
27.2192 7.8739 -4.2872
16.5674 9.5505 -2.8891
10.5278 10.0920 -2.1994
15.8115 24.9304 -4.4434
-22.4064 30.0150 -5.5886
-32.1677 26.4553 -6.2093
-25.7925 5.3824 -3.9275
-26.1257 -0.9290 -3.8994
-26.2521 -7.4585 -4.0752
-26.3990 -15.0484 -4.5442
-26.5964 -25.2475 -5.4939
-4.2665 -48.6479 -7.3602
11.2384 -9.3297 -2.2135
12.8218 -6.2175 -2.1602
33.7357 -7.1959 -5.2283
26.9158 7.5232 -4.2287
16.6602 9.4045 -2.8905
9.7870 9.2137 -2.0273
16.1252 24.9243 -4.4685
-4.6318 11.2377 -1.8159
-23.1422 31.5918 -5.8433
-30.6913 25.7093 -5.9690
-25.9980 5.6708 -3.9664
-26.1211 -0.6927 -3.8975
-26.2471 -7.2015 -4.0640
-26.3928 -14.7307 -4.5198
-26.3725 -24.5859 -5.4011
-4.7086 -48.6360 -7.3640
11.2351 -9.5004 -2.2297
12.8390 -6.3703 -2.1727
31.1114 -6.9317 -4.8312
26.3016 7.0950 -4.1221
15.9039 8.7883 -2.7455
10.1682 9.4001 -2.0887
16.4436 24.9181 -4.4943
-23.1310 32.1846 -5.9142
-30.6822 26.1786 -6.0133
-31.6498 15.8821 -5.2776
-25.9932 5.9171 -3.9736
-26.1165 -0.4556 -3.8959
-26.2421 -6.9450 -4.0531
-26.1734 -14.2985 -4.4596
-26.5786 -24.3315 -5.3976
-5.1514 -48.6251 -7.3686
11.2318 -9.6730 -2.2462
12.8568 -6.5245 -2.1856
30.0551 -6.9819 -4.6768
27.3347 7.1094 -4.2740
16.3093 8.8210 -2.8018
10.8612 9.8602 -2.2128
16.7645 24.9119 -4.5206
11.8524 32.3667 -5.1786
-23.1196 32.7896 -5.9870
-30.4071 26.4222 -6.0060
-31.2331 16.0277 -5.2321
-25.9884 6.1634 -3.9812
-26.1120 -0.2197 -3.8946
-26.1663 -6.6726 -4.0317
-26.3807 -14.1039 -4.4727
-26.5700 -23.8861 -5.3514
-5.5963 -48.6136 -7.3737
11.2283 -9.8488 -2.2632
12.6697 -6.5748 -2.1638
28.4436 -6.8801 -4.4357
27.1901 6.8092 -4.2418
16.8971 8.9418 -2.8889
11.0568 9.8564 -2.2345
17.0904 24.9056 -4.5477
11.8343 31.4317 -5.0464
-23.1079 33.4121 -6.0624
-29.8431 26.4107 -5.9418
-30.3072 15.9013 -5.1010
-25.9836 6.4116 -3.9891
-25.8963 0.0169 -3.8622
-26.2323 -6.4377 -4.0326
-26.1615 -13.6843 -4.4142
-26.3468 -23.2586 -5.2636
-6.0403 -48.6015 -7.3793
11.2249 -10.0267 -2.2806
12.3840 -6.5692 -2.1251
27.2690 -6.8573 -4.2620
32.6475 7.8631 -5.0821
16.3497 8.4639 -2.7823
11.1300 9.7426 -2.2315
17.4190 24.8993 -4.5755
11.8100 30.5279 -4.9185
-23.0051 33.9142 -6.1158
-29.2930 26.3995 -5.8797
-28.9379 15.5178 -4.8939
-25.9199 6.6448 -3.9883
-26.1028 0.2528 -3.8931
-26.2274 -6.1849 -4.0229
-26.3688 -13.4897 -4.4281
-26.3385 -22.8297 -5.2200
-6.4867 -48.5889 -7.3855
11.2214 -10.2080 -2.2986
12.1074 -6.5639 -2.0877
26.1790 -6.8362 -4.1012
32.7350 7.5708 -5.0850
16.7608 8.4849 -2.8392
11.0903 9.5317 -2.2063
17.7528 24.8928 -4.6040
11.8008 29.7011 -4.8028
-22.5530 33.9054 -6.0773
-28.7544 26.3886 -5.8193
-29.2083 16.0042 -4.9639
-25.9740 6.9093 -4.0061
-26.0983 0.4885 -3.8928
-26.2226 -5.9343 -4.0135
-26.3629 -13.1877 -4.4066
-26.3304 -22.4093 -5.1777
-6.9321 -48.5758 -7.3921
11.2178 -10.3916 -2.3169
11.8413 -6.5587 -2.0519
25.2364 -6.8342 -3.9631
31.7480 7.0409 -4.9218
16.8407 8.3351 -2.8400
11.0198 9.2993 -2.1756
18.1402 24.9560 -4.6462
11.7853 28.8985 -4.6904
-23.0696 35.3706 -6.3026
-27.3888 25.5966 -5.5898
-28.9248 16.1915 -4.9405
-25.9691 7.1607 -4.0151
-26.0937 0.7252 -3.8928
-26.2177 -5.6838 -4.0046
-26.3571 -12.8873 -4.3857
-26.3223 -21.9941 -5.1363
-7.3801 -48.5621 -7.3994
11.2142 -10.5788 -2.3359
11.5831 -6.5537 -2.0174
24.0443 -6.7460 -3.7854
32.6410 6.9290 -5.0506
16.8324 8.1418 -2.8262
11.0888 9.1867 -2.1729
18.4835 24.9494 -4.6763
11.7705 28.1326 -4.5835
-23.0559 36.0573 -6.3879
-26.8874 25.5869 -5.5346
-4.8361 2.7648 -0.8303
-25.9643 7.4123 -4.0245
-26.0891 0.9609 -3.8931
-26.0010 -5.3914 -3.9637
-26.1384 -12.4891 -4.3301
-26.5289 -21.7628 -5.1377
-7.8273 -48.5479 -7.4071
11.2106 -10.7684 -2.3552
11.3345 -6.5489 -1.9843
23.3576 -6.7816 -3.6868
32.4770 6.5881 -5.0160
16.8240 7.9509 -2.8128
10.8745 8.8447 -2.1153
18.8298 24.9427 -4.7071
11.8230 27.5537 -4.5068
-23.0419 36.7655 -6.4763
-26.3940 25.5774 -5.4807
-4.7915 2.7972 -0.8269
-25.9593 7.6661 -4.0343
-26.0845 1.1976 -3.8938
-26.2081 -5.1870 -3.9877
-26.1327 -12.1966 -4.3104
-26.5211 -21.3570 -5.0981
-8.2771 -48.5331 -7.4155
11.2068 -10.9619 -2.3751
11.2901 -6.6606 -1.9870
13.7376 -4.1240 -2.1742
38.2593 7.4019 -5.8987
16.8158 7.7620 -2.7997
11.5003 9.1823 -2.2209
19.0812 24.8064 -4.7141
11.6529 26.4943 -4.3509
-23.0275 37.4908 -6.5675
-25.9120 25.5680 -5.4285
-4.7975 2.8592 -0.8324
-25.9544 7.9202 -4.0445
-26.0800 1.4336 -3.8948
-25.9915 -4.9006 -3.9477
-26.1666 -11.9258 -4.2978
-26.5134 -20.9589 -5.0597
-8.7262 -48.5177 -7.4243
11.2030 -11.1580 -2.3955
11.2874 -6.7972 -1.9972
13.2709 -4.1150 -2.1062
38.0719 7.0080 -5.8600
16.9418 7.6346 -2.8092
11.6042 9.0942 -2.2251
19.4832 24.8593 -4.7579
11.7297 26.0260 -4.2916
-2.1579 36.4251 -5.4638
-23.0126 38.2397 -6.6622
-25.4373 25.5588 -5.3775
-29.2759 17.8091 -5.1075
-25.7397 8.1105 -4.0222
-26.0754 1.6705 -3.8961
-26.1986 -4.6941 -3.9724
-26.1215 -11.6204 -4.2727
-26.4912 -20.5539 -5.0193
-9.0479 -47.8134 -7.3282
11.1991 -11.3576 -2.4165
11.2847 -6.9353 -2.0078
12.6560 -4.0500 -2.0143
37.8859 6.6205 -5.8222
16.8907 7.4287 -2.7897
11.2326 8.6403 -2.1390
19.8428 24.8524 -4.7910
11.7173 25.3838 -4.2033
-1.8248 36.3617 -5.4520
-22.8832 38.8140 -6.7262
-24.9730 25.5499 -5.3281
-29.0519 18.0344 -5.0967
-26.0708 1.9068 -3.8977
-26.1938 -4.4495 -3.9652
-26.3289 -11.4289 -4.2893
-26.4983 -20.1786 -4.9856
-9.4945 -47.8056 -7.3393
11.1952 -11.5615 -2.4381
11.2820 -7.0754 -2.0186
12.6299 -4.1683 -2.0161
49.0742 -3.8070 -7.4583
43.2460 7.1536 -6.6360
16.8400 7.2248 -2.7705
11.5534 8.7215 -2.1850
20.2087 24.8453 -4.8251
11.8199 25.0076 -4.1589
-1.4948 36.3715 -5.4516
-22.5294 39.0181 -6.7262
-24.5156 25.5410 -5.2798
-29.3252 18.5744 -5.1740
-26.0662 2.1442 -3.8997
-26.1891 -4.2048 -3.9584
-26.3234 -11.1440 -4.2715
-26.4909 -19.7960 -4.9499
-9.9453 -47.8106 -7.3531
11.1912 -11.7683 -2.4602
11.2793 -7.2165 -2.0297
12.6381 -4.2980 -2.0236
43.5912 6.8067 -6.6795
17.5270 7.3328 -2.8727
11.4956 8.5159 -2.1596
23.4606 28.3168 -5.5407
12.0949 25.0023 -4.1764
-22.2265 39.3093 -6.7419
-24.0680 25.5323 -5.2330
-26.0616 2.3810 -3.9020
-26.1844 -3.9618 -3.9520
-26.3179 -10.8624 -4.2543
-26.2695 -19.2633 -4.8755
-10.3997 -47.8164 -7.3676
11.1871 -11.9797 -2.4830
11.2765 -7.3597 -2.0411
12.6393 -4.4267 -2.0301
47.6577 6.9995 -7.2929
17.5107 7.1401 -2.8595
11.6270 8.4510 -2.1700
23.4504 27.7876 -5.4789
12.3732 24.9969 -4.1944
-22.2107 40.1261 -6.8475
-23.6798 25.5813 -5.1990
-26.0518 2.6185 -3.9038
-26.1797 -3.7195 -3.9459
-26.3125 -10.5831 -4.2376
-26.4764 -19.0497 -4.8815
-10.8545 -47.8228 -7.3828
11.1830 -12.1942 -2.5064
11.2737 -7.5040 -2.0527
12.6442 -4.5571 -2.0374
48.8840 6.7290 -7.4712
21.8501 8.6801 -3.5553
12.3536 8.8097 -2.2908
23.4404 27.2721 -5.4192
12.6529 24.9915 -4.2128
-22.2341 41.0388 -6.9690
-23.3278 25.6620 -5.1726
-26.0524 2.8565 -3.9075
-26.1750 -3.4771 -3.9401
-26.0987 -10.2232 -4.1878
-26.2553 -18.5317 -4.8092
11.1787 -12.4138 -2.5305
11.2709 -7.6505 -2.0647
12.6552 -4.6911 -2.0460
22.0427 8.5260 -3.5741
11.5898 8.1075 -2.1356
23.4306 26.7658 -5.3610
12.9361 24.9860 -4.2318
-23.0598 25.8322 -5.1648
-37.6483 25.7994 -6.8031
-26.0478 3.0943 -3.9108
-26.1703 -3.2362 -3.9347
-26.3018 -10.0297 -4.2055
-26.4623 -18.3220 -4.8163
-4.9537 -5.6037 -1.1213
11.1744 -12.6372 -2.1678
11.2680 -7.7986 -1.7623
12.0412 -4.5881 -1.6575
21.4818 8.0855 -2.9443
11.4346 7.8451 -1.7755
23.4186 26.2665 -4.4959
13.2595 25.0505 -3.6126
-22.8409 26.0605 -4.3736
-25.3081 3.2397 -3.2184
-25.4271 -2.9103 -3.2313
-26.0839 -9.6767 -3.5177
-26.3177 -17.8713 -4.0299
-5.0148 -5.5703 -0.9515
11.1700 -12.8650 -2.1894
11.2651 -7.9484 -1.7730
12.0498 -4.7167 -1.6645
22.2332 8.1394 -3.0372
12.1772 8.1935 -1.8793
23.4116 25.7851 -4.4499
13.5481 25.0449 -3.6297
-22.6686 26.3411 -4.3863
-36.1753 25.7667 -5.6013
-25.3036 3.4721 -3.2216
-25.4226 -2.6770 -3.2274
-26.0787 -9.4072 -3.5052
-26.4486 -17.6126 -4.0250
-26.6708 -29.0914 -5.0100
11.1655 -13.0974 -2.2116
11.2622 -8.0999 -1.7840
12.0587 -4.8466 -1.6717
22.2058 7.9022 -3.0238
12.1405 8.0102 -1.8626
23.4024 25.3110 -4.4049
13.8394 25.0392 -3.6472
-22.5486 26.6862 -4.4098
-35.4726 25.7531 -5.5285
-25.2990 3.7049 -3.2251
-25.4181 -2.4442 -3.2237
-26.0735 -9.1396 -3.4930
-26.4419 -17.2649 -3.9998
-26.6604 -28.5569 -4.9589
11.1609 -13.3346 -2.2344
11.2592 -8.2534 -1.7953
12.0700 -4.9784 -1.6794
48.0851 -7.2602 -6.2532
22.1987 7.6741 -3.0134
12.1262 7.8442 -1.8495
23.3934 24.8464 -4.3610
14.1334 25.0336 -3.6651
-22.4843 27.1037 -4.4452
-34.7880 25.7398 -5.4579
-25.2945 3.9383 -3.2288
-25.4136 -2.2119 -3.2204
-26.0684 -8.8737 -3.4812
-26.4352 -16.9214 -3.9751
-26.6503 -28.0333 -4.9092
11.1562 -13.5767 -2.2579
11.2562 -8.4089 -1.8068
12.0821 -5.1118 -1.6875
45.0081 -7.2128 -5.8615
22.1916 7.4475 -3.0033
12.1118 7.6803 -1.8368
23.7545 24.7766 -4.3867
14.3901 24.9579 -3.6733
-22.4537 27.5708 -4.4885
-34.1206 25.7269 -5.3896
-25.2900 4.1724 -3.2329
-25.3369 -1.9745 -3.2081
-26.0633 -8.6097 -3.4698
-26.3424 -16.5278 -3.9382
-26.4250 -27.2974 -4.8216
11.1514 -13.8241 -2.2820
11.2532 -8.5664 -1.8187
12.0939 -5.2464 -1.6957
42.1416 -7.1452 -5.4965
22.1749 7.2193 -2.9923
12.0976 7.5187 -1.8244
24.1805 24.7684 -4.4242
14.6892 24.9521 -3.6922
-22.4440 28.0738 -4.5373
-33.4695 25.7143 -5.3234
-25.2855 4.4069 -3.2372
-25.4046 -1.7486 -3.2144
-26.0582 -8.3472 -3.4587
-26.4222 -16.2467 -3.9277
-26.6306 -27.0163 -4.8139
11.1465 -14.0768 -2.3069
11.2501 -8.7260 -1.8308
12.1045 -5.3817 -1.7040
39.6778 -7.0975 -5.1834
22.1157 6.9794 -2.9759
12.0837 7.3593 -1.8123
24.6138 24.7600 -4.4627
14.9914 24.9462 -3.7116
-22.4341 28.5879 -4.5876
-32.8343 25.7020 -5.2593
-25.2174 4.6306 -3.2336
-25.4001 -1.5176 -3.2119
-26.0531 -8.0865 -3.4480
-26.4157 -15.9151 -3.9049
-26.6210 -26.5222 -4.7682
11.1415 -14.3353 -2.3325
11.2470 -8.8877 -1.8433
12.1156 -5.5185 -1.7125
37.4804 -7.0550 -4.9046
22.8207 6.9753 -3.0623
16.3864 9.7775 -2.4444
25.1250 24.8208 -4.5148
15.2968 24.9403 -3.7315
-22.4239 29.1135 -4.6394
-32.2141 25.6900 -5.1971
-25.2763 4.8781 -3.2466
-25.3957 -1.2868 -3.2096
-26.0481 -7.8273 -3.4376
-26.4094 -15.5873 -3.8827
-26.4975 -25.9256 -4.7035
11.1364 -14.5995 -2.3589
11.2438 -9.0517 -1.8560
12.1270 -5.6567 -1.7212
35.0576 -6.9280 -4.5956
27.3440 8.0880 -3.6595
16.4815 9.6331 -2.4457
10.3998 10.0897 -1.8525
15.6053 24.9344 -3.7519
15.4228 46.8693 -6.2785
-22.4135 29.6510 -4.6927
-31.6086 25.6783 -5.1368
-25.2718 5.1149 -3.2518
-25.3912 -1.0563 -3.2075
-25.4335 -7.3923 -3.3473
-26.2700 -15.1863 -3.8416
-26.6024 -25.5613 -4.6805
11.2406 -9.2180 -1.8692
12.1389 -5.7966 -1.7303
33.7398 -6.9855 -4.4311
26.9052 7.6942 -3.5915
16.3461 9.3566 -2.4131
10.5414 10.0434 -1.8616
15.9173 24.9283 -3.7729
-4.7030 11.2191 -1.5382
-22.4028 30.2012 -4.7478
-31.0167 25.6668 -5.0783
-25.2672 5.3524 -3.2572
-25.3867 -0.8262 -3.2058
-25.5094 -7.1648 -3.3484
-26.3969 -14.9426 -3.8399
-26.5934 -25.0937 -4.6384
11.2373 -9.3867 -1.8826
12.1511 -5.9381 -1.7396
33.7336 -7.3032 -4.4389
26.0984 7.2086 -3.4751
16.4377 9.2124 -2.4144
9.7575 9.1295 -1.7086
16.2326 24.9222 -3.7943
-22.3919 30.7644 -4.8045
-30.4384 25.6556 -5.0215
-25.2626 5.5907 -3.2630
-25.3823 -0.5962 -3.2043
-25.5046 -6.9151 -3.3393
-26.3908 -14.6254 -3.8193
-26.5278 -24.5820 -4.5876
11.2340 -9.5578 -1.8964
12.1638 -6.0813 -1.7493
30.2441 -6.8349 -3.9877
27.6666 7.3729 -3.6751
16.5295 9.0684 -2.4159
10.1346 9.3118 -1.7600
16.5517 24.9160 -3.8164
11.8649 33.0107 -4.4647
-22.3808 31.3413 -4.8630
-29.8724 25.6447 -4.9664
-31.8896 16.1231 -4.5057
-25.2579 5.8298 -3.2690
-25.3779 -0.3665 -3.2030
-25.4998 -6.6668 -3.3304
-26.2689 -14.2488 -3.7826
-26.5758 -24.1832 -4.5574
11.2306 -9.7315 -1.9106
12.1769 -6.2262 -1.7592
28.9108 -6.8091 -3.8199
27.5100 7.0652 -3.6459
16.2201 8.7085 -2.3592
10.8531 9.7923 -1.8694
16.8744 24.9098 -3.8390
11.8462 32.0446 -4.3488
-22.3693 31.9318 -4.9232
-29.3194 25.6340 -4.9129
-31.7345 16.4069 -4.5046
-25.1733 6.0507 -3.2650
-25.3734 -0.1368 -3.2021
-25.4950 -6.4196 -3.3219
-26.1654 -13.8877 -3.7492
-26.5672 -23.7394 -4.5186
11.2272 -9.9079 -1.9252
12.1905 -6.3730 -1.7694
28.0390 -6.8722 -3.7129
27.4411 6.7834 -3.6287
16.7231 8.7846 -2.4209
10.9839 9.7315 -1.8769
17.2010 24.9035 -3.8622
11.8970 31.3078 -4.2636
-4.3891 36.5648 -4.6667
-22.3576 32.5377 -4.9855
-28.7776 25.6235 -4.8609
-29.3618 15.5185 -4.1876
-25.2486 6.3110 -3.2819
-25.3690 0.0928 -3.2014
-25.4903 -6.1737 -3.3137
-26.2947 -13.6527 -3.7496
-26.4867 -23.2399 -4.4686
11.2237 -10.0870 -1.9401
12.2046 -6.5217 -1.7799
26.8933 -6.8500 -3.5693
32.5028 7.7231 -4.2888
16.6364 8.5478 -2.3972
11.0567 9.6188 -1.8745
17.5315 24.8971 -3.8860
11.8116 30.2563 -4.1352
-22.3456 33.1591 -5.0498
-28.2473 25.6132 -4.8104
-29.4759 15.9217 -4.2243
-25.2439 6.5531 -3.2889
-25.3645 0.3223 -3.2009
-25.4855 -5.9289 -3.3058
-26.3668 -13.3887 -3.7422
-26.5504 -22.8743 -4.4439
11.2202 -10.2690 -1.9554
12.0173 -6.5621 -1.7612
25.8328 -6.8295 -3.4367
32.1269 7.3272 -4.2305
16.6287 8.3546 -2.3853
11.1293 9.5065 -1.8723
17.8306 24.8415 -3.9027
11.7955 29.4262 -4.0365
-22.3332 33.7968 -5.1161
-27.7277 25.6032 -4.7614
-29.2208 16.1272 -4.2085
-25.2392 6.7962 -3.2961
-25.3601 0.5518 -3.2007
-25.4808 -5.6855 -3.2982
-26.1479 -12.9815 -3.6940
-26.5423 -22.4520 -4.4080
11.2166 -10.4538 -1.9711
11.7538 -6.5570 -1.7312
25.1259 -6.8865 -3.3508
32.7010 7.1477 -4.2976
16.6211 8.1633 -2.3737
11.2019 9.3944 -1.8703
18.2556 24.9538 -3.9465
11.7802 28.6348 -3.9428
-22.3206 34.4514 -5.1847
-27.2187 25.5933 -4.7137
-28.9351 16.3128 -4.1885
-25.2345 7.0402 -3.3036
-25.3556 0.7811 -3.2008
-25.4761 -5.4429 -3.2909
-26.3552 -12.7885 -3.7066
-26.3197 -21.8582 -4.3376
11.2130 -10.6417 -1.9873
11.4993 -6.5521 -1.7023
14.4079 -4.0894 -1.9263
32.5412 6.8047 -4.2686
17.6394 8.4661 -2.5082
11.2743 9.2827 -1.8684
18.5997 24.9471 -3.9722
11.6529 27.6124 -3.8167
-22.3076 35.1237 -5.2556
-26.7202 25.5837 -4.6674
-4.8156 2.7726 -0.7007
-25.2297 7.2856 -3.3114
-25.3512 1.0107 -3.2012
-25.4714 -5.2013 -3.2839
-26.3495 -12.4924 -3.6895
-26.3118 -21.4523 -4.3038
11.2093 -10.8326 -2.0038
11.2918 -6.5700 -1.6803
14.0663 -4.1304 -1.8856
37.9389 7.5757 -4.9677
17.5116 8.2106 -2.4795
11.3466 9.1711 -1.8667
18.9483 24.9404 -3.9987
11.8197 27.3149 -3.7906
-22.2942 35.8141 -5.3287
-26.2310 25.5742 -4.6223
-4.7845 2.8126 -0.6999
-25.2250 7.5322 -3.3196
-25.3468 1.2403 -3.2018
-25.4668 -4.9607 -3.2772
-26.3438 -12.1989 -3.6728
-26.4701 -21.1855 -4.2978
11.2055 -11.0268 -2.0209
11.2892 -6.7060 -1.6889
13.5782 -4.1209 -1.8251
37.3213 7.1017 -4.8785
16.9289 7.7512 -2.3871
11.0440 8.7624 -1.8040
19.1865 24.7850 -4.0018
11.7382 26.4668 -3.6878
-22.2804 36.5246 -5.4045
-25.7512 25.5649 -4.5785
-29.2234 17.5370 -4.2977
-25.2202 7.7800 -3.3280
-25.3423 1.4701 -3.2027
-25.3815 -4.7061 -3.2604
-26.3382 -11.9081 -3.6566
-26.2965 -20.6588 -4.2387
11.2017 -11.2244 -2.0383
11.2865 -6.8434 -1.6976
13.1205 -4.1121 -1.7685
37.9585 6.8675 -4.9537
16.8837 7.5464 -2.3712
11.7257 9.1317 -1.9019
19.6042 24.8570 -4.0422
11.7254 25.8059 -3.6106
-22.2663 37.2556 -5.4829
-25.2803 25.5558 -4.5358
-29.4059 18.0104 -4.3484
-25.2154 8.0291 -3.3368
-25.3379 1.7000 -3.2039
-25.4575 -4.4823 -3.2647
-26.2060 -11.5641 -3.6233
-26.5033 -20.4365 -4.2418
-9.0103 -46.8478 -6.0890
11.1978 -11.4255 -2.0563
11.2838 -6.9822 -1.7067
12.6902 -4.1037 -1.7155
37.7733 6.4818 -4.9219
16.8331 7.3419 -2.3548
11.6521 8.9062 -1.8769
19.9661 24.8500 -4.0706
11.7132 25.1714 -3.5369
-22.2517 38.0081 -5.5641
-24.8181 25.5469 -4.4943
-25.2105 8.2795 -3.3459
-25.3334 1.9299 -3.2053
-25.4529 -4.2446 -3.2589
-26.1142 -11.2423 -3.5962
-26.4958 -20.0510 -4.2110
-9.3858 -46.5255 -6.0573
11.1939 -11.6302 -2.0748
11.2811 -7.1225 -1.7159
12.1165 -4.0396 -1.6428
49.0851 -3.9577 -6.3310
43.5315 7.0649 -5.6639
17.4722 7.4331 -2.4349
11.4941 8.6217 -1.8390
20.3331 24.8429 -4.0998
11.9126 25.0058 -3.5289
-22.4917 39.2279 -5.7130
-24.3642 25.5381 -4.4540
-25.2056 8.5311 -3.3554
-25.3289 2.1603 -3.2070
-25.4483 -4.0075 -3.2534
-26.1088 -10.9610 -3.5814
-26.4884 -19.6710 -4.1811
-9.8254 -46.5281 -6.0685
11.1898 -11.8387 -2.0937
11.2784 -7.2644 -1.7254
12.0169 -4.1277 -1.6343
43.2236 6.6136 -5.6161
17.4559 7.2402 -2.4235
12.1076 8.9120 -1.9243
23.4571 28.1368 -4.6786
12.1886 25.0005 -3.5439
-22.9872 40.9457 -5.9330
-23.9285 25.5398 -4.4165
-25.1209 8.7566 -3.3545
-25.3245 2.3909 -3.2089
-25.4438 -3.7712 -3.2481
-26.1034 -10.6820 -3.5670
-26.3673 -19.2133 -4.1340
-10.2668 -46.5313 -6.0802
11.1857 -12.0510 -2.1132
11.2756 -7.4079 -1.7351
12.0244 -4.2524 -1.6405
48.8795 7.0276 -6.3427
21.5698 8.7189 -2.9838
11.5103 8.3128 -1.8175
23.4470 27.6126 -4.6270
12.4672 24.9951 -3.5593
-23.5555 25.6021 -4.3904
-25.3200 2.6219 -3.2111
-25.4392 -3.5355 -3.2432
-26.0980 -10.4051 -3.5531
-26.4740 -18.9267 -4.1234
-10.7102 -46.5351 -6.0926
11.1815 -12.2673 -2.1332
11.2728 -7.5527 -1.7451
12.0323 -4.3779 -1.6469
48.8564 6.5735 -6.3321
22.0300 8.6738 -3.0367
11.4816 8.1349 -1.8014
23.5036 27.1768 -4.5898
12.7482 24.9897 -3.5751
-23.2367 25.7188 -4.3744
-25.3155 2.8532 -3.2136
-25.4346 -3.3006 -3.2385
-26.0927 -10.1302 -3.5395
-26.2530 -18.4120 -4.0625
-11.1557 -46.5395 -6.1056
11.1773 -12.4874 -2.1538
11.2699 -7.6995 -1.7553
12.0356 -4.5028 -1.6529
21.7609 8.3411 -2.9892
11.4533 7.9602 -1.7857
23.4939 26.6737 -4.5409
12.9904 24.9050 -3.5800
-22.9801 25.9021 -4.3702
-25.3111 3.0849 -3.2164
-25.4301 -3.0663 -3.2341
-26.0874 -9.8575 -3.5263
-26.4600 -18.2022 -4.0686
-4.9641 -5.5813 -0.9483
11.1729 -12.7123 -2.1749
11.2671 -7.8481 -1.7659
12.0440 -4.6307 -1.6598
21.3208 7.9518 -2.9190
11.4254 7.7884 -1.7705
23.4178 26.1072 -4.4808
13.3551 25.0486 -3.6182
-22.7748 26.1435 -4.3761
-37.8202 26.5956 -5.8309
-25.2264 3.3065 -3.2092
-25.4256 -2.8326 -3.2300
-26.0822 -9.5867 -3.5135
-26.4531 -17.8469 -4.0422
-26.6778 -29.4538 -5.0449
11.1685 -12.9416 -2.1967
11.2642 -7.9985 -1.7767
12.0527 -4.7597 -1.6668
21.2836 7.7193 -2.9044
12.1646 8.1320 -1.8737
23.4085 25.6263 -4.4348
13.6446 25.0430 -3.6354
-4.4998 19.6580 -2.5532
-22.6205 26.4458 -4.3924
-35.9393 25.7621 -5.5768
-25.3021 3.5496 -3.2227
-25.4211 -2.5994 -3.2261
-26.0770 -9.3178 -3.5011
-26.4464 -17.4968 -4.0166
-26.4517 -28.6792 -4.9526
11.1640 -13.1756 -2.2191
11.2612 -8.1507 -1.7877
12.0622 -4.8901 -1.6742
20.9510 7.3847 -2.8499
12.1357 7.9547 -1.8582
23.3994 25.1553 -4.3901
13.9369 25.0374 -3.6531
-22.5273 26.8245 -4.4215
-35.2425 25.7486 -5.5047
-25.2976 3.7823 -3.2263
-25.4166 -2.3672 -3.2226
-26.0718 -9.0512 -3.4890
-26.2259 -17.0118 -3.9593
-26.6570 -28.3820 -4.9423
11.1593 -13.4145 -2.2421
11.2582 -8.3049 -1.7991
12.0740 -5.0226 -1.6821
46.9862 -7.2389 -6.1132
22.1964 7.5986 -3.0100
12.1214 7.7894 -1.8453
23.4742 24.7821 -4.3623
14.1642 24.9125 -3.6538
-22.4626 27.2444 -4.4572
-34.5648 25.7355 -5.4351
-25.2930 4.0159 -3.2301
-25.4121 -2.1350 -3.2193
-26.0667 -8.7860 -3.4774
-26.4330 -16.8082 -3.9671
-26.6470 -27.8617 -4.8930
11.1546 -13.6584 -2.2658
11.2552 -8.4610 -1.8107
12.0862 -5.1565 -1.6902
45.0054 -7.3514 -5.8640
22.2147 7.3809 -3.0035
12.1071 7.6263 -1.8326
23.8955 24.7739 -4.3991
14.4894 24.9560 -3.6796
-22.4505 27.7364 -4.5045
-33.9028 25.7227 -5.3675
-25.2885 4.2501 -3.2343
-25.4076 -1.9032 -3.2163
-26.0616 -8.5224 -3.4660
-26.4265 -16.4702 -3.9433
-26.5552 -27.2674 -4.8303
11.1498 -13.9076 -2.2902
11.2521 -8.6192 -1.8227
12.0974 -5.2913 -1.6984
41.2891 -7.1287 -5.3881
22.1551 7.1391 -2.9868
12.0930 7.4653 -1.8203
24.3240 24.7656 -4.4369
14.7895 24.9501 -3.6986
-22.4407 28.2431 -4.5538
-33.2570 25.7102 -5.3019
-25.2840 4.4850 -3.2387
-25.4031 -1.6719 -3.2135
-26.0565 -8.2605 -3.4551
-26.4200 -16.1360 -3.9201
-26.6274 -26.8510 -4.7986
11.1449 -14.1622 -2.3154
11.2490 -8.7796 -1.8349
