ply
format ascii 1.0
element vertex 2095
property float32 x
property float32 y
property float32 z
end_header
9.6575 12.2405 2.6085
6.8910 15.1582 2.7908
3.0633 16.3361 2.7908
-0.9281 16.5662 2.7908
-4.5882 14.9752 2.6384
-7.7011 12.8866 2.5321
-11.6268 11.7527 2.7908
-14.0923 8.6289 2.7908
-15.7457 5.0102 2.7908
-16.4934 1.1018 2.7908
-16.2919 -2.8748 2.7908
-15.1503 -6.6934 2.7908
-13.1309 -10.1354 2.7908
-10.3455 -13.0019 2.7908
-6.9510 -15.1249 2.7908
-1.6159 -8.4258 1.4358
0.8652 -16.6825 2.7908
2.4907 -8.2529 1.4380
8.0657 -13.6290 2.6384
9.0694 -9.2481 2.1561
9.1056 -5.6315 1.7812
11.6902 -3.7786 2.0439
8.9361 -0.6388 1.4910
15.6473 2.6846 2.6444
14.2169 6.1991 2.5864
10.0511 7.6801 2.1126
9.6857 12.0503 2.5864
7.0284 15.0962 2.7908
3.2112 16.3088 2.7908
-0.7782 16.5750 2.7908
-4.4527 15.0169 2.6384
-8.3595 14.2804 2.7908
-11.5202 11.8578 2.7908
-14.0137 8.7575 2.7908
-15.6997 5.1525 2.7908
-16.4824 1.2509 2.7908
-16.3166 -2.7272 2.7908
-15.2095 -6.5557 2.7908
-13.2213 -10.0155 2.7908
-10.4620 -12.9069 2.7908
-7.0871 -15.0603 2.7908
-1.6922 -8.4113 1.4360
0.7141 -16.6886 2.7908
2.4153 -8.2732 1.4377
7.9417 -13.7008 2.6384
9.0662 -9.4137 2.1755
9.1034 -5.7447 1.7909
11.4489 -3.8153 2.0076
8.9370 -0.7201 1.4922
15.6717 2.5430 2.6444
14.2731 6.0705 2.5864
10.2371 7.6765 2.1369
9.7950 11.9630 2.5864
7.1653 15.0330 2.7908
3.3589 16.2801 2.7908
-0.6282 16.5824 2.7908
-4.3168 15.0574 2.6384
-8.2302 14.3561 2.7908
-11.4127 11.9619 2.7908
-13.9341 8.8827 2.7908
-15.6523 5.2942 2.7908
-16.4701 1.4000 2.7908
-16.3400 -2.5793 2.7908
-15.2675 -6.4174 2.7908
-13.3106 -9.8949 2.7908
-10.5777 -12.8108 2.7908
-7.2227 -14.9945 2.7908
-1.7684 -8.3962 1.4362
0.5630 -16.6933 2.7908
2.3398 -8.2928 1.4375
7.8171 -13.7715 2.6384
9.0629 -9.5824 2.1955
9.1012 -5.8591 1.8009
11.3810 -3.9075 2.0019
8.9378 -0.8017 1.4934
15.6947 2.4010 2.6444
14.3282 5.9413 2.5864
10.4273 7.6728 2.1619
9.9034 11.8747 2.5864
7.3014 14.9687 2.7908
3.5062 16.2502 2.7908
-0.4782 16.5884 2.7908
-4.1807 15.0966 2.6384
-8.1004 14.4308 2.7908
-11.1455 11.8954 2.7516
-13.8533 9.0086 2.7908
-15.6037 5.4357 2.7908
-16.4564 1.5490 2.7908
-16.3621 -2.4312 2.7908
-15.3242 -6.2787 2.7908
-13.3988 -9.7734 2.7908
-10.6926 -12.7137 2.7908
-7.3576 -14.9275 2.7908
-1.8444 -8.3804 1.4364
0.4119 -16.6967 2.7908
2.2642 -8.3118 1.4373
7.6919 -13.8412 2.6384
9.0596 -9.7542 2.2161
9.1323 -5.9967 1.8177
8.8357 -3.1233 1.5590
8.9387 -0.8834 1.4948
15.7164 2.2593 2.6444
14.4232 5.8286 2.5938
12.8332 9.2654 2.6430
10.0111 11.7854 2.5864
7.4371 14.9031 2.7908
3.6534 16.2189 2.7908
-0.3281 16.5931 2.7908
-4.0441 15.1347 2.6384
-7.9698 14.5039 2.7908
-11.1950 12.1671 2.7908
-13.7714 9.1337 2.7908
-15.5538 5.5767 2.7908
-16.4413 1.6979 2.7908
-16.3829 -2.2829 2.7908
-15.3797 -6.1394 2.7908
-13.4859 -9.6512 2.7908
-10.8065 -12.6156 2.7908
-7.4919 -14.8593 2.7908
-1.9203 -8.3639 1.4366
0.2608 -16.6987 2.7908
2.1884 -8.3302 1.4370
7.5660 -13.9096 2.6384
9.0562 -9.9292 2.2372
9.1300 -6.1140 1.8282
8.7339 -3.1763 1.5461
8.9171 -0.9627 1.4926
15.7369 2.1171 2.6444
14.4347 5.6818 2.5864
12.9174 9.1495 2.6430
10.1180 11.6951 2.5864
7.5561 14.8046 2.7849
3.8003 16.1862 2.7908
-0.1779 16.5964 2.7908
-3.9072 15.1715 2.6384
-7.8385 14.5760 2.7908
-11.0847 12.2683 2.7908
-13.6883 9.2581 2.7908
-15.5026 5.7172 2.7908
-16.4250 1.8466 2.7908
-16.4023 -2.1345 2.7908
-15.4339 -5.9996 2.7908
-13.5719 -9.5281 2.7908
-10.9195 -12.5164 2.7908
-7.6255 -14.7899 2.7908
-1.9961 -8.3468 1.4368
0.1097 -16.6993 2.7908
2.1125 -8.3479 1.4368
7.4397 -13.9768 2.6384
9.0197 -10.0704 2.2506
9.1277 -6.2328 1.8390
8.5003 -3.1787 1.5098
8.8907 -1.0413 1.4896
15.7561 1.9747 2.6445
14.4862 5.5513 2.5864
9.8620 6.8521 2.0050
9.9732 11.3190 2.5229
7.5568 14.4808 2.7366
3.9469 16.1522 2.7908
-0.0277 16.5984 2.7908
-3.7699 15.2070 2.6384
-7.7066 14.6472 2.7908
-10.9735 12.3685 2.7908
-13.6041 9.3818 2.7908
-15.4501 5.8573 2.7908
-16.4072 1.9951 2.7908
-16.4204 -1.9858 2.7908
-15.4868 -5.8594 2.7908
-13.6568 -9.4044 2.7908
-4.9572 -5.5794 1.2541
-7.7585 -14.7192 2.7908
-2.0717 -8.3291 1.4370
-0.0412 -16.6986 2.7908
2.0366 -8.3649 1.4366
7.3126 -14.0429 2.6384
9.0162 -10.2516 2.2729
9.1254 -6.3530 1.8500
8.2775 -3.1811 1.4752
8.9412 -1.1293 1.4997
15.7740 1.8321 2.6445
14.5366 5.4202 2.5864
13.0828 8.9155 2.6431
10.4671 11.6650 2.6209
7.5573 14.1677 2.6900
4.0932 16.1170 2.7908
0.1226 16.5990 2.7908
-3.6323 15.2414 2.6384
-7.5740 14.7169 2.7908
-9.7007 11.1353 2.4926
-13.5188 9.5047 2.7908
-15.3964 5.9969 2.7908
-16.3882 2.1435 2.7908
-16.4371 -1.8370 2.7908
-15.5385 -5.7187 2.7908
-12.3854 -8.3646 2.5156
-5.0434 -5.5740 1.2632
-7.8906 -14.6475 2.7908
-2.1470 -8.3108 1.4372
-0.1923 -16.6965 2.7908
1.9604 -8.3813 1.4364
7.1849 -14.1079 2.6384
9.0456 -10.4747 2.3041
9.1230 -6.4747 1.8614
8.0645 -3.1833 1.4423
8.9421 -1.2117 1.5016
15.7905 1.6893 2.6445
14.5857 5.2887 2.5864
13.1638 8.7974 2.6431
10.6559 11.6613 2.6415
7.5631 13.8747 2.6471
4.2392 16.0804 2.7908
0.2728 16.5983 2.7908
-3.4944 15.2745 2.6384
-7.4408 14.7854 2.7908
-9.5198 11.1295 2.4718
-13.4324 9.6268 2.7908
-15.3415 6.1360 2.7908
-16.3678 2.2918 2.7908
-16.4525 -1.6881 2.7908
-15.5889 -5.5776 2.7908
-12.3810 -8.1998 2.4997
-11.2529 -12.2131 2.7908
-8.0223 -14.5745 2.7908
-2.2224 -8.2918 1.4374
-0.3434 -16.6930 2.7908
1.8841 -8.3971 1.4362
7.0567 -14.1717 2.6384
9.0420 -10.6640 2.3278
9.0874 -6.5738 1.8662
7.7901 -3.1567 1.3983
8.9430 -1.2944 1.5036
15.8058 1.5464 2.6445
14.6337 5.1567 2.5864
13.2438 8.6785 2.6432
10.7659 11.5697 2.6425
7.6637 13.7616 2.6384
4.3849 16.0424 2.7908
0.4231 16.5962 2.7908
-3.3561 15.3063 2.6384
-7.3070 14.8528 2.7908
-9.3419 11.1238 2.4516
-13.3449 9.7481 2.7908
-15.2853 6.2746 2.7908
-16.3461 2.4395 2.7908
-16.4665 -1.5394 2.7908
-15.6379 -5.4363 2.7908
-12.3767 -8.0367 2.4842
-11.3622 -12.1100 2.7908
-8.1533 -14.5003 2.7908
-4.3825 -15.7790 2.7423
-0.2540 -8.5750 1.4340
1.8077 -8.4122 1.4360
6.9853 -14.3524 2.6603
9.0382 -10.8573 2.3521
9.0850 -6.6982 1.8781
7.6419 -3.1775 1.3768
8.9438 -1.3772 1.5058
15.8197 1.4034 2.6445
14.6804 5.0243 2.5864
13.3228 8.5589 2.6432
10.8708 11.4725 2.6425
7.7885 13.6925 2.6385
4.5302 16.0032 2.7908
0.5733 16.5927 2.7908
-3.2176 15.3369 2.6384
-7.1726 14.9190 2.7908
-9.1668 11.1182 2.4319
-13.2565 9.8685 2.7908
-15.2280 6.4125 2.7908
-16.3231 2.5873 2.7908
-16.4793 -1.3902 2.7908
-15.6857 -5.2942 2.7908
-12.3725 -7.8757 2.4691
-11.4706 -12.0059 2.7908
-8.2837 -14.4249 2.7908
-4.5189 -15.7168 2.7387
-0.3316 -8.5720 1.4341
1.7312 -8.4266 1.4358
6.9900 -14.6986 2.7128
9.0166 -11.0328 2.3724
9.0825 -6.8241 1.8903
7.6153 -3.2475 1.3773
8.9447 -1.4603 1.5081
15.8324 1.2603 2.6445
14.7259 4.8915 2.5864
13.4006 8.4386 2.6432
10.9750 11.3745 2.6425
7.9127 13.6225 2.6385
4.6751 15.9624 2.7908
0.7235 16.5879 2.7908
-3.0789 15.3663 2.6384
-7.0378 14.9839 2.7908
-8.9948 11.1126 2.4127
-13.1668 9.9882 2.7908
-15.1693 6.5500 2.7908
-16.2988 2.7349 2.7908
-16.4906 -1.2409 2.7908
-15.7323 -5.1518 2.7908
-12.3683 -7.7166 2.4543
-11.5781 -11.9008 2.7908
-8.4133 -14.3484 2.7908
-4.6579 -15.6651 2.7371
-0.4092 -8.5684 1.4341
1.6546 -8.4404 1.4356
7.0004 -15.0707 2.7698
8.9975 -11.2151 2.3941
9.1133 -6.9771 1.9098
9.4243 -4.1201 1.7111
8.9455 -1.5437 1.5105
15.8438 1.1170 2.6445
14.7703 4.7583 2.5864
13.4774 8.3175 2.6433
11.0782 11.2754 2.6425
8.0363 13.5514 2.6385
4.8197 15.9207 2.7908
0.8734 16.5818 2.7908
-2.9401 15.3942 2.6384
-6.9022 15.0477 2.7908
-8.8252 11.1072 2.3940
-13.0761 10.1072 2.7908
-15.1094 6.6871 2.7908
-16.2731 2.8823 2.7908
-16.5007 -1.0916 2.7908
-15.7776 -5.0090 2.7908
-12.3642 -7.5594 2.4400
-11.6846 -11.7948 2.7908
-8.5423 -14.2707 2.7908
-4.7998 -15.6234 2.7375
-0.4867 -8.5641 1.4342
1.5778 -8.4536 1.4355
6.9156 -15.2478 2.7908
9.0265 -11.4622 2.4294
9.1108 -7.1069 1.9227
9.1864 -4.1155 1.6746
8.9464 -1.6273 1.5130
15.8538 0.9736 2.6446
14.8134 4.6246 2.5864
13.5530 8.1958 2.6433
11.1805 11.1755 2.6425
8.1590 13.4792 2.6385
4.9637 15.8776 2.7908
1.0235 16.5742 2.7908
-2.8772 15.8417 2.7104
-6.7660 15.1102 2.7908
-8.6582 11.1018 2.3758
-12.9843 10.2253 2.7908
-15.0482 6.8236 2.7908
-16.2461 3.0295 2.7908
-16.5094 -0.9421 2.7908
-15.8216 -4.8657 2.7908
-12.3601 -7.4041 2.4260
-11.7901 -11.6878 2.7908
-8.6705 -14.1918 2.7908
-4.9452 -15.5927 2.7400
-0.5641 -8.5591 1.4342
1.5010 -8.4661 1.4353
6.7771 -15.3090 2.7908
9.0224 -11.6728 2.4567
9.1083 -7.2384 1.9360
9.1669 -4.2068 1.6779
8.9473 -1.7113 1.5157
15.8625 0.8301 2.6446
14.8553 4.4906 2.5864
13.6274 8.0736 2.6433
11.2817 11.0748 2.6425
8.2813 13.4059 2.6385
5.1076 15.8331 2.7908
1.1735 16.5654 2.7908
-2.8149 16.3390 2.7908
-6.2673 14.3428 2.6384
-8.4936 11.0965 2.3580
-12.8914 10.3426 2.7908
-14.9859 6.9595 2.7908
-16.2177 3.1763 2.7908
-16.5167 -0.7926 2.7908
-15.8643 -4.7221 2.7908
-12.3561 -7.2505 2.4123
-11.8947 -11.5799 2.7908
-8.7980 -14.1118 2.7908
-5.0946 -15.5731 2.7448
-0.6416 -8.5535 1.4343
1.4241 -8.4779 1.4351
6.6379 -15.3690 2.7908
9.0183 -11.8882 2.4848
9.1057 -7.3717 1.9495
9.1650 -4.3068 1.6846
8.9482 -1.7954 1.5185
15.8699 0.6869 2.6446
14.8959 4.3565 2.5864
13.7008 7.9505 2.6434
11.3823 10.9730 2.6425
8.4040 13.3330 2.6389
5.2510 15.7873 2.7908
1.3235 16.5551 2.7908
-2.6671 16.3648 2.7908
-6.1375 14.3999 2.6384
-8.3315 11.0913 2.3407
-12.7975 10.4590 2.7908
-14.9223 7.0949 2.7908
-16.1881 3.3230 2.7908
-16.5227 -0.6430 2.7908
-15.9057 -4.5781 2.7908
-12.3521 -7.0986 2.3990
-11.9982 -11.4710 2.7908
-8.9247 -14.0307 2.7908
-5.2479 -15.5637 2.7516
-0.7189 -8.5472 1.4344
1.3471 -8.4891 1.4350
6.4983 -15.4277 2.7908
8.9811 -12.0644 2.5046
9.1031 -7.5067 1.9635
9.1630 -4.4073 1.6915
8.9491 -1.8799 1.5215
15.8760 0.5433 2.6446
14.9354 4.2217 2.5864
13.7732 7.8267 2.6434
11.4819 10.8702 2.6425
8.5259 13.2590 2.6392
5.3940 15.7402 2.7908
1.4734 16.5436 2.7908
-2.5190 16.3892 2.7908
-4.6572 11.2070 2.0455
-8.1718 11.0862 2.3239
-12.7026 10.5747 2.7908
-14.8575 7.2297 2.7908
-16.1571 3.4693 2.7908
-16.5274 -0.4934 2.7908
-15.9458 -4.4338 2.7908
-12.3482 -6.9484 2.3861
-12.1008 -11.3612 2.7908
-9.0507 -13.9484 2.7908
-5.4061 -15.5661 2.7607
-0.7962 -8.5403 1.4344
1.2700 -8.4997 1.4349
6.3584 -15.4850 2.7908
8.9767 -12.2887 2.5344
9.1004 -7.6439 1.9778
9.1276 -4.4924 1.6924
8.9499 -1.9648 1.5246
15.8809 0.3996 2.6446
14.9736 4.0865 2.5864
13.8443 7.7023 2.6434
9.8828 9.1881 2.2551
8.6473 13.1839 2.6396
5.5367 15.6919 2.7908
1.6232 16.5306 2.7908
-2.3707 16.4123 2.7908
-5.8763 14.5100 2.6384
-8.0143 11.0812 2.3074
-12.6066 10.6894 2.7908
-14.7915 7.3640 2.7908
-16.1249 3.6154 2.7908
-16.5307 -0.3438 2.7908
-15.9846 -4.2891 2.7908
-12.3443 -6.7999 2.3735
-12.2024 -11.2505 2.7908
-9.1760 -13.8649 2.7908
-5.5699 -15.5813 2.7724
-0.8734 -8.5327 1.4345
1.2458 -8.8861 1.4982
3.2101 -8.0238 1.4409
9.0052 -12.5648 2.5745
9.0645 -7.7548 1.9852
9.1257 -4.5945 1.6997
8.9011 -2.0387 1.5193
8.0497 0.1297 1.3402
15.0978 3.9740 2.6014
13.9144 7.5772 2.6435
9.9417 9.0766 2.2496
8.7679 13.1076 2.6399
5.6788 15.6421 2.7908
1.7728 16.5163 2.7908
-2.2222 16.4340 2.7908
-5.7450 14.5633 2.6384
-7.8589 11.0762 2.2914
-12.5095 10.8033 2.7908
-14.7243 7.4976 2.7908
-16.0913 3.7612 2.7908
-16.5327 -0.1942 2.7908
-16.0220 -4.1440 2.7908
-12.5809 -6.7825 2.4072
-12.3029 -11.1389 2.7908
-9.3002 -13.7806 2.7908
-5.7403 -15.6114 2.7871
-0.9505 -8.5244 1.4346
1.2428 -9.4880 1.5978
3.1365 -8.0502 1.4406
8.9983 -12.7982 2.6056
9.0618 -7.8955 2.0002
9.1237 -4.6974 1.7072
8.9293 -2.1304 1.5273
8.0232 0.0566 1.3356
15.3826 3.9004 2.6442
13.9833 7.4514 2.6435
10.1203 9.0731 2.2712
8.8879 13.0302 2.6402
5.8206 15.5912 2.7908
1.9224 16.5007 2.7908
-2.0735 16.4544 2.7908
-5.6133 14.6154 2.6384
-7.7547 11.1417 2.2903
-12.4115 10.9163 2.7908
-14.6559 7.6306 2.7908
-16.0564 3.9066 2.7908
-16.5333 -0.0445 2.7908
-16.0582 -3.9989 2.7908
-12.8447 -6.7757 2.4460
-12.4023 -11.0266 2.7908
-9.4239 -13.6949 2.7908
-5.8888 -15.5786 2.7908
-1.0277 -8.5156 1.4347
1.2393 -10.1756 1.7118
3.0627 -8.0761 1.4402
8.9568 -12.9873 2.6276
9.0590 -8.0385 2.0156
9.1551 -4.8189 1.7212
13.3139 -3.3041 2.2823
8.9296 -0.0178 1.4864
15.4180 3.7613 2.6442
14.0511 7.3251 2.6435
10.3025 9.0696 2.2934
9.0072 12.9518 2.6405
5.9619 15.5390 2.7908
2.0718 16.4837 2.7908
-1.9246 16.4735 2.7908
-5.4810 14.6664 2.6384
-7.7483 11.3502 2.3185
-12.3124 11.0285 2.7908
-14.5863 7.7630 2.7908
-16.0202 4.0515 2.7908
-16.5326 0.1048 2.7908
-16.0930 -3.8533 2.7908
-14.7241 -7.5975 2.7908
-12.5008 -10.9133 2.7908
-9.5469 -13.6081 2.7908
-6.0291 -15.5236 2.7908
-1.1047 -8.5060 1.4349
1.2353 -10.9688 1.8434
2.9887 -8.1013 1.4399
8.8750 -13.1213 2.6384
9.0894 -8.2136 2.0388
9.1530 -4.9241 1.7291
13.2836 -3.4245 2.2823
8.9305 -0.0986 1.4866
15.4522 3.6218 2.6442
14.1177 7.1981 2.6436
10.4883 9.0660 2.3163
9.1258 12.8722 2.6409
6.1027 15.4854 2.7908
2.2210 16.4654 2.7908
-1.7755 16.4912 2.7908
-5.3483 14.7161 2.6384
-7.7327 11.5504 2.3449
-12.2125 11.1395 2.7908
-14.5156 7.8945 2.7908
-15.9827 4.1963 2.7908
-16.5305 0.2546 2.7908
-16.1266 -3.7073 2.7908
-14.7915 -7.4636 2.7908
-12.5983 -10.7990 2.7908
-9.6690 -13.5203 2.7908
-6.1689 -15.4673 2.7908
-1.1816 -8.4958 1.4350
1.2306 -11.8940 1.9970
2.9145 -8.1258 1.4396
8.7556 -13.2006 2.6384
9.0865 -8.3617 2.0551
9.1510 -5.0303 1.7372
13.2522 -3.5446 2.2823
8.9313 -0.1794 1.4869
15.4851 3.4820 2.6443
14.1832 7.0705 2.6436
12.0602 10.2356 2.6427
9.2436 12.7915 2.6412
6.2430 15.4306 2.7908
2.3701 16.4456 2.7908
-1.6262 16.5076 2.7908
-5.2154 14.7645 2.6384
-7.6091 11.5911 2.3391
-12.1115 11.2499 2.7908
-14.4437 8.0256 2.7908
-15.9439 4.3408 2.7908
-16.5271 0.4042 2.7908
-16.1588 -3.5610 2.7908
-14.8577 -7.3290 2.7908
-12.6947 -10.6839 2.7908
-9.7903 -13.4313 2.7908
-6.3082 -15.4098 2.7908
-1.2585 -8.4850 1.4351
1.5691 -16.6358 2.7908
2.8401 -8.1497 1.4393
8.6355 -13.2788 2.6384
9.0836 -8.5121 2.0719
9.1489 -5.1375 1.7456
12.7529 -3.5350 2.2017
8.9322 -0.2603 1.4874
15.5167 3.3419 2.6443
14.2475 6.9423 2.6436
12.1533 10.1268 2.6427
9.3608 12.7098 2.6415
6.3828 15.3745 2.7908
2.5188 16.4247 2.7908
-1.4771 16.5226 2.7908
-5.0818 14.8119 2.6384
-7.5100 11.6689 2.3409
-12.0094 11.3593 2.7908
-14.3705 8.1561 2.7908
-15.9038 4.4849 2.7908
-16.5224 0.5537 2.7908
-16.1898 -3.4145 2.7908
-14.9227 -7.1938 2.7908
-12.7901 -10.5679 2.7908
-9.9108 -13.3412 2.7908
-6.4470 -15.3510 2.7908
-1.3353 -8.4735 1.4352
1.4184 -16.6483 2.7908
2.7655 -8.1730 1.4390
8.5146 -13.3558 2.6384
9.0807 -8.6649 2.0890
9.1468 -5.2458 1.7542
12.2874 -3.5260 2.1267
8.9330 -0.3413 1.4879
15.5471 3.2015 2.6443
14.3106 6.8135 2.6436
11.2817 9.2291 2.4348
9.4770 12.6270 2.6418
6.5219 15.3173 2.7908
2.6675 16.4023 2.7908
-1.3276 16.5363 2.7908
-4.9478 14.8580 2.6384
-7.4373 11.7892 2.3513
-11.9064 11.4678 2.7908
-4.7955 2.7794 0.9361
-15.8625 4.6286 2.7908
-16.5163 0.7032 2.7908
-16.2194 -3.2676 2.7908
-14.9864 -7.0581 2.7908
-12.8845 -10.4511 2.7908
-10.0305 -13.2501 2.7908
-6.5852 -15.2910 2.7908
-1.4120 -8.4614 1.4354
1.2676 -16.6595 2.7908
2.6908 -8.1957 1.4387
8.3931 -13.4318 2.6384
9.0445 -8.7882 2.0990
9.1447 -5.3551 1.7630
11.8525 -3.5176 2.0569
8.9339 -0.4223 1.4886
15.5761 3.0611 2.6443
14.3725 6.6844 2.6437
11.2829 9.0609 2.4172
9.5927 12.5431 2.6422
6.6607 15.2587 2.7908
2.8160 16.3786 2.7908
-1.1779 16.5487 2.7908
-4.8133 14.9030 2.6384
-7.4311 12.0191 2.3835
-11.8024 11.5754 2.7908
-4.7814 2.8294 0.9384
-15.8198 4.7720 2.7908
-16.5088 0.8527 2.7908
-16.2477 -3.1206 2.7908
-15.0489 -6.9218 2.7908
-12.9778 -10.3334 2.7908
-10.1493 -13.1579 2.7908
-6.7229 -15.2297 2.7908
-1.4885 -8.4486 1.4355
1.1168 -16.6692 2.7908
2.6159 -8.2177 1.4384
8.2709 -13.5067 2.6384
9.0415 -8.9457 2.1170
9.1426 -5.4655 1.7721
11.7457 -3.6018 2.0439
8.9347 -0.5034 1.4894
15.6039 2.9199 2.6443
14.4334 6.5542 2.6437
9.8553 7.7685 2.0960
9.6605 12.3972 2.6296
6.7993 15.1987 2.7908
2.9646 16.3535 2.7908
-1.0279 16.5597 2.7908
-4.6782 14.9468 2.6384
-7.7062 12.7204 2.5086
-11.6972 11.6823 2.7908
-14.1443 8.5433 2.7908
-15.7759 4.9147 2.7908
-16.5001 1.0018 2.7908
-16.2746 -2.9735 2.7908
-15.1101 -6.7852 2.7908
-13.0698 -10.2151 2.7908
-10.2671 -13.0648 2.7908
-6.8597 -15.1673 2.7908
-1.5649 -8.4352 1.4357
0.9661 -16.6776 2.7908
2.5409 -8.2390 1.4382
8.1483 -13.5803 2.6384
9.0384 -9.1056 2.1355
9.1070 -5.5565 1.7749
11.7128 -3.7078 2.0439
8.9355 -0.5845 1.4903
15.6303 2.7790 2.6444
14.1787 6.2847 2.5864
9.9293 7.6825 2.0968
9.6560 12.1632 2.5982
6.9368 15.1377 2.7908
3.1125 16.3271 2.7908
-0.8783 16.5693 2.7908
-4.5432 14.9892 2.6384
-7.6985 12.9707 2.5440
-11.5915 11.7878 2.7908
-14.0663 8.6713 2.7908
-15.7306 5.0575 2.7908
-16.4899 1.1514 2.7908
-16.3003 -2.8257 2.7908
-15.1702 -6.6476 2.7908
-13.1611 -10.0955 2.7908
-10.3844 -12.9703 2.7908
-6.9965 -15.1035 2.7908
-1.6414 -8.4211 1.4359
0.8148 -16.6847 2.7908
2.4656 -8.2597 1.4379
8.0245 -13.6530 2.6384
9.0683 -9.3029 2.1625
9.1049 -5.6691 1.7844
11.6788 -3.8138 2.0439
8.9364 -0.6659 1.4914
15.6556 2.6373 2.6444
14.2358 6.1562 2.5864
10.1128 7.6789 2.1206
9.7223 12.0213 2.5864
7.0742 15.0752 2.7908
3.2606 16.2993 2.7908
-0.7286 16.5776 2.7908
-4.4078 15.0304 2.6384
-8.3169 14.3055 2.7908
-11.4848 11.8923 2.7908
-13.9876 8.7981 2.7908
-15.6841 5.1994 2.7908
-16.4785 1.3003 2.7908
-16.3245 -2.6782 2.7908
-15.2289 -6.5099 2.7908
-13.2510 -9.9756 2.7908
-10.5005 -12.8751 2.7908
-7.1321 -15.0386 2.7908
-1.7175 -8.4064 1.4360
0.6640 -16.6903 2.7908
2.3903 -8.2798 1.4377
7.9005 -13.7244 2.6384
9.0651 -9.4693 2.1821
9.1027 -5.7825 1.7942
11.3825 -3.8312 1.9980
8.9372 -0.7472 1.4926
15.6795 2.4959 2.6444
14.2915 6.0277 2.5864
10.2999 7.6753 2.1451
9.8311 11.9337 2.5864
7.2106 15.0119 2.7908
3.4079 16.2703 2.7908
-0.5783 16.5845 2.7908
-4.2716 15.0706 2.6384
-8.1871 14.3810 2.7908
-11.2316 11.8432 2.7552
-13.9073 8.9247 2.7908
-15.6362 5.3414 2.7908
-16.4657 1.4497 2.7908
-16.3475 -2.5300 2.7908
-15.2865 -6.3712 2.7908
-13.3401 -9.8545 2.7908
-10.6161 -12.7785 2.7908
-7.2677 -14.9723 2.7908
-1.7937 -8.3910 1.4362
0.5127 -16.6946 2.7908
2.3146 -8.2992 1.4374
7.7754 -13.7949 2.6384
9.0618 -9.6393 2.2023
9.1004 -5.8975 1.8042
9.0173 -3.1264 1.5877
8.9381 -0.8289 1.4939
15.7021 2.3537 2.6444
14.3461 5.8986 2.5864
12.7763 9.3424 2.6430
9.9392 11.8452 2.5864
7.3464 14.9470 2.7908
3.5550 16.2399 2.7908
-0.4285 16.5901 2.7908
-4.1355 15.1094 2.6384
-8.0572 14.4551 2.7908
-11.1304 11.9509 2.7567
-13.8263 9.0501 2.7908
-15.5873 5.4824 2.7908
-16.4515 1.5983 2.7908
-16.3691 -2.3821 2.7908
-15.3427 -6.2326 2.7908
-13.4278 -9.7330 2.7908
-10.7304 -12.6813 2.7908
-7.4021 -14.9050 2.7908
-1.8696 -8.3750 1.4364
0.3618 -16.6975 2.7908
2.2391 -8.3180 1.4372
7.6502 -13.8640 2.6384
9.0585 -9.8118 2.2230
9.1315 -6.0355 1.8211
8.7758 -3.1317 1.5501
15.8104 -1.6104 2.6447
15.7234 2.2119 2.6444
14.4222 5.7776 2.5905
12.8614 9.2268 2.6430
10.0468 11.7554 2.5864
7.4822 14.8807 2.7908
3.7024 16.2081 2.7908
-0.2780 16.5944 2.7908
-3.9985 15.1471 2.6384
-7.9261 14.5280 2.7908
-11.1583 12.2010 2.7908
-13.7438 9.1753 2.7908
-15.5368 5.6236 2.7908
-16.4360 1.7474 2.7908
-16.3895 -2.2334 2.7908
-15.3979 -6.0929 2.7908
-13.5147 -9.6102 2.7908
-10.8442 -12.5826 2.7908
-7.5365 -14.8363 2.7908
-1.9456 -8.3583 1.4366
0.2104 -16.6991 2.7908
2.1631 -8.3362 1.4369
7.5239 -13.9321 2.6384
9.0550 -9.9883 2.2444
9.1293 -6.1532 1.8317
8.6553 -3.1771 1.5338
8.9174 -0.9898 1.4931
15.7434 2.0699 2.6444
14.4519 5.6386 2.5864
9.8491 6.9319 2.0109
9.9085 11.3836 2.5240
7.5563 14.6960 2.7687
3.8489 16.1751 2.7908
-0.1281 16.5972 2.7908
-3.8617 15.1834 2.6384
-7.7949 14.5998 2.7908
-11.0480 12.3016 2.7908
-13.6605 9.2992 2.7908
-15.4853 5.7637 2.7908
-16.4192 1.8959 2.7908
-16.4084 -2.0852 2.7908
-15.4515 -5.9532 2.7908
-13.6002 -9.4872 2.7908
-4.9462 -5.6354 1.2599
-7.6697 -14.7666 2.7908
-2.0212 -8.3410 1.4368
0.0595 -16.6992 2.7908
2.0873 -8.3536 1.4367
7.3974 -13.9989 2.6384
9.0185 -10.1304 2.2580
9.1270 -6.2727 1.8426
8.4249 -3.1795 1.4980
8.9423 -1.0747 1.4988
15.7622 1.9272 2.6445
14.5031 5.5076 2.5864
9.9000 6.8344 2.0085
10.3429 11.6674 2.6075
7.5570 14.3752 2.7209
3.9957 16.1406 2.7908
0.0224 16.5987 2.7908
-3.7240 15.2186 2.6384
-7.6625 14.6705 2.7908
-10.9363 12.4017 2.7908
-13.5758 9.4228 2.7908
-15.4324 5.9039 2.7908
-16.4010 2.0446 2.7908
-16.4261 -1.9362 2.7908
-15.5042 -5.8126 2.7908
-13.6849 -9.3629 2.7908
-4.9777 -5.5686 1.2551
-7.8027 -14.6954 2.7908
-2.0969 -8.3231 1.4371
-0.0913 -16.6980 2.7908
2.0113 -8.3704 1.4365
7.2704 -14.0646 2.6384
9.0150 -10.3125 2.2804
9.1246 -6.3932 1.8538
8.2058 -3.1818 1.4641
8.9415 -1.1566 1.5003
15.7796 1.7848 2.6445
14.5530 5.3767 2.5864
13.1098 8.8764 2.6431
10.5293 11.6638 2.6276
7.5575 14.0664 2.6750
4.1416 16.1050 2.7908
0.1724 16.5989 2.7908
-3.5866 15.2525 2.6384
-7.5299 14.7397 2.7908
-9.6404 11.1334 2.4857
-13.4903 9.5452 2.7908
-15.3784 6.0430 2.7908
-16.3816 2.1927 2.7908
-16.4424 -1.7877 2.7908
-15.5553 -5.6720 2.7908
-12.3839 -8.3096 2.5103
-11.1795 -12.2813 2.7908
-7.9346 -14.6233 2.7908
-2.1722 -8.3045 1.4373
-0.2427 -16.6954 2.7908
1.9350 -8.3866 1.4363
7.1439 -14.1326 2.6391
9.0444 -10.5374 2.3119
9.1223 -6.5156 1.8652
7.9957 -3.1840 1.4317
8.9424 -1.2392 1.5023
15.7958 1.6417 2.6445
14.6018 5.2448 2.5864
13.1906 8.7578 2.6432
10.6954 11.6339 2.6425
7.5802 13.8068 2.6384
4.2878 16.0679 2.7908
0.3229 16.5977 2.7908
-3.4483 15.2852 2.6384
-7.3963 14.8080 2.7908
-9.4602 11.1276 2.4650
-13.4034 9.6673 2.7908
-15.3229 6.1823 2.7908
-16.3607 2.3411 2.7908
-16.4573 -1.6385 2.7908
-15.6052 -5.5310 2.7908
-12.3796 -8.1455 2.4945
-11.2892 -12.1791 2.7908
-8.0658 -14.5501 2.7908
-2.2473 -8.2853 1.4375
-0.2609 -11.0694 1.8508
1.8588 -8.4022 1.4361
7.0140 -14.1926 2.6384
9.0407 -10.7277 2.3357
9.0866 -6.6149 1.8701
7.6833 -3.1403 1.3808
8.9432 -1.3218 1.5043
15.8106 1.4991 2.6445
14.6493 5.1129 2.5864
13.2701 8.6389 2.6432
10.8008 11.5376 2.6425
7.7051 13.7388 2.6384
4.4331 16.0296 2.7908
0.4729 16.5952 2.7908
-3.3103 15.3166 2.6384
-7.2625 14.8749 2.7908
-9.2836 11.1219 2.4450
-13.3157 9.7882 2.7908
-15.2664 6.3204 2.7908
-16.3386 2.4888 2.7908
-16.4709 -1.4896 2.7908
-15.6540 -5.3890 2.7908
-12.3753 -7.9828 2.4791
-11.3985 -12.0754 2.7908
-8.1969 -14.4753 2.7908
-4.4276 -15.7568 2.7409
-0.2799 -8.5741 1.4341
1.7822 -8.4171 1.4359
6.9868 -14.4662 2.6776
9.0370 -10.9226 2.3603
9.0841 -6.7399 1.8821
7.6422 -3.2046 1.3786
8.9441 -1.4049 1.5065
15.8241 1.3557 2.6445
14.6957 4.9801 2.5864
13.3488 8.5189 2.6432
10.9057 11.4400 2.6425
7.8300 13.6693 2.6385
4.5785 15.9898 2.7908
0.6234 16.5913 2.7908
-3.1714 15.3468 2.6384
-7.1276 14.9408 2.7908
-9.1091 11.1163 2.4254
-13.2269 9.9082 2.7908
-15.2086 6.4581 2.7908
-16.3152 2.6363 2.7908
-16.4832 -1.3407 2.7908
-15.7013 -5.2471 2.7908
-12.3711 -7.8228 2.4641
-11.5064 -11.9712 2.7908
-8.3267 -14.3997 2.7908
-4.5647 -15.6987 2.7380
-0.3573 -8.5709 1.4341
1.7058 -8.4313 1.4357
6.9934 -14.8202 2.7314
9.0001 -11.0804 2.3768
9.0817 -6.8662 1.8944
11.3621 -4.8857 2.0575
8.9450 -1.4879 1.5089
15.8363 1.2128 2.6445
14.7408 4.8474 2.5864
13.4262 8.3985 2.6433
11.0093 11.3417 2.6425
7.9538 13.5991 2.6385
4.7231 15.9489 2.7908
0.7733 16.5860 2.7908
-3.0328 15.3758 2.6384
-6.9927 15.0053 2.7908
-8.9380 11.1108 2.4064
-13.1367 10.0279 2.7908
-15.1494 6.5958 2.7908
-16.2903 2.7841 2.7908
-16.4941 -1.1911 2.7908
-15.7475 -5.1042 2.7908
-12.3670 -7.6640 2.4495
-11.6137 -11.8656 2.7908
-8.4564 -14.3226 2.7908
-4.7051 -15.6509 2.7372
-0.4350 -8.5670 1.4341
1.6290 -8.4449 1.4356
7.0040 -15.1983 2.7894
8.9962 -11.2830 2.4028
9.1125 -7.0202 1.9141
9.3439 -4.1186 1.6987
8.9458 -1.5715 1.5113
15.8472 1.0692 2.6446
14.7848 4.7138 2.5864
13.5027 8.2770 2.6433
11.1124 11.2422 2.6425
8.0773 13.5274 2.6385
4.8673 15.9066 2.7908
0.9231 16.5794 2.7908
-2.8990 15.4300 2.6430
-6.8571 15.0685 2.7908
-8.7696 11.1054 2.3879
-13.0458 10.1464 2.7908
-15.0893 6.7324 2.7908
-16.2643 2.9311 2.7908
-16.5037 -1.0420 2.7908
-15.7923 -4.9616 2.7908
-12.3629 -7.5077 2.4353
-11.7197 -11.7594 2.7908
-8.5848 -14.2447 2.7908
-4.8480 -15.6132 2.7383
-0.5124 -8.5625 1.4342
1.5524 -8.4578 1.4354
6.8698 -15.2682 2.7908
9.0252 -11.5315 2.4383
9.1100 -7.1503 1.9271
9.1682 -4.1405 1.6735
8.9467 -1.6551 1.5139
15.8568 0.9261 2.6446
14.8274 4.5803 2.5864
13.5778 8.1553 2.6433
11.2142 11.1421 2.6425
8.1998 13.4549 2.6385
5.0117 15.8629 2.7908
1.0735 16.5714 2.7908
-2.8659 16.0549 2.7453
-6.3535 14.3045 2.6384
-8.6031 11.1000 2.3698
-12.9535 10.2645 2.7908
-15.0276 6.8690 2.7908
-16.2368 3.0785 2.7908
-16.5120 -0.8923 2.7908
-15.8359 -4.8179 2.7908
-12.3588 -7.3527 2.4214
-11.8251 -11.6519 2.7908
-8.7131 -14.1653 2.7908
-4.9948 -15.5855 2.7415
-0.5900 -8.5573 1.4342
1.4754 -8.4701 1.4352
6.7307 -15.3292 2.7908
9.0211 -11.7441 2.4660
9.1074 -7.2826 1.9404
9.1663 -4.2401 1.6801
8.9476 -1.7393 1.5166
15.8651 0.7823 2.6446
14.8689 4.4464 2.5864
13.6519 8.0329 2.6434
11.3152 11.0411 2.6425
8.3220 13.3819 2.6387
5.1551 15.8181 2.7908
1.2233 16.5621 2.7908
-2.7660 16.3477 2.7908
-6.2243 14.3620 2.6384
-8.4397 11.0948 2.3523
-12.8604 10.3813 2.7908
-14.9649 7.0045 2.7908
-16.2081 3.2250 2.7908
-16.5189 -0.7430 2.7908
-15.8781 -4.6744 2.7908
-12.3548 -7.2000 2.4079
-11.9291 -11.5439 2.7908
-8.8401 -14.0851 2.7908
-5.1448 -15.5682 2.7467
-0.6672 -8.5514 1.4343
1.3986 -8.4817 1.4351
6.5917 -15.3886 2.7908
9.0169 -11.9607 2.4943
9.1048 -7.4164 1.9541
9.1643 -4.3401 1.6869
8.9485 -1.8235 1.5195
15.8721 0.6390 2.6446
14.9092 4.3116 2.5864
13.7251 7.9093 2.6434
11.4156 10.9388 2.6425
8.4447 13.3085 2.6390
5.2987 15.7718 2.7908
1.3735 16.5514 2.7908
-2.6178 16.3731 2.7908
-6.0941 14.4186 2.6384
-8.2780 11.0896 2.3351
-12.7660 10.4977 2.7908
-14.9008 7.1399 2.7908
-16.1779 3.3718 2.7908
-16.5244 -0.5932 2.7908
-15.9192 -4.5300 2.7908
-12.3508 -7.0484 2.3947
-12.0325 -11.4345 2.7908
-8.9668 -14.0034 2.7908
-5.3000 -15.5627 2.7543
-0.7447 -8.5449 1.4344
1.3214 -8.4927 1.4349
6.4516 -15.4470 2.7908
8.9797 -12.1387 2.5145
9.1022 -7.5520 1.9682
9.1417 -4.4309 1.6900
8.9493 -1.9080 1.5225
15.8778 0.4957 2.6446
14.9482 4.1769 2.5864
13.7969 7.7855 2.6434
11.5147 10.8359 2.6425
8.5662 13.2342 2.6393
5.4414 15.7243 2.7908
1.5231 16.5394 2.7908
-2.4699 16.3970 2.7908
-4.6267 11.2285 2.0469
-8.1193 11.0845 2.3184
-12.6709 10.6128 2.7908
-14.8358 7.2743 2.7908
-16.1466 3.5178 2.7908
-16.5286 -0.4439 2.7908
-15.9588 -4.3858 2.7908
-12.3469 -6.8990 2.3819
-12.1346 -11.3246 2.7908
-9.0923 -13.9209 2.7908
-5.4597 -15.5695 2.7643
-0.8219 -8.5378 1.4345
1.2477 -8.5248 1.4385
6.3115 -15.5039 2.7908
9.0082 -12.4101 2.5538
9.0995 -7.6901 1.9826
9.1270 -4.5264 1.6948
8.9502 -1.9932 1.5256
15.8822 0.3517 2.6446
14.9861 4.0414 2.5864
13.8678 7.6606 2.6435
9.8817 9.1317 2.2485
8.6876 13.1586 2.6397
5.5841 15.6754 2.7908
1.6731 16.5260 2.7908
-2.3212 16.4197 2.7908
-5.8326 14.5279 2.6384
-7.9623 11.0795 2.3020
-12.5743 10.7275 2.7908
-14.7692 7.4086 2.7908
-16.1138 3.6640 2.7908
-16.5315 -0.2939 2.7908
-15.9972 -4.2408 2.7908
-12.4092 -6.7869 2.3821
-12.2360 -11.2134 2.7908
-9.2176 -13.8369 2.7908
-5.6256 -15.5901 2.7771
-0.8989 -8.5300 1.4346
1.2449 -9.0771 1.5298
3.1858 -8.0326 1.4408
9.0035 -12.6423 2.5848
9.0636 -7.8012 1.9901
9.1250 -4.6285 1.7022
8.9287 -2.0732 1.5251
8.0500 0.1055 1.3402
15.2709 3.9706 2.6292
13.9374 7.5356 2.6435
10.0005 9.0754 2.2567
8.8078 13.0821 2.6400
5.7259 15.6254 2.7908
1.8224 16.5113 2.7908
-2.1729 16.4409 2.7908
-5.7014 14.5807 2.6384
-7.8079 11.0745 2.2862
-12.4772 10.8409 2.7908
-14.7017 7.5417 2.7908
-16.0798 3.8094 2.7908
-16.5330 -0.1446 2.7908
-16.0342 -4.0959 2.7908
-12.6675 -6.7803 2.4199
-12.3360 -11.1017 2.7908
-9.3416 -13.7521 2.7908
-5.7949 -15.6146 2.7908
-0.9763 -8.5216 1.4347
1.2417 -9.7068 1.6341
3.1119 -8.0589 1.4404
8.9957 -12.8769 2.6161
9.0609 -7.9429 2.0053
9.1230 -4.7320 1.7097
8.9022 -2.1523 1.5238
15.8869 0.0642 2.6446
15.3946 3.8541 2.6442
14.0060 7.4094 2.6435
10.1806 9.0719 2.2785
8.9277 13.0042 2.6403
5.8677 15.5739 2.7908
1.9722 16.4952 2.7908
-2.0238 16.4610 2.7908
-5.5692 14.6325 2.6384
-7.7526 11.2106 2.2996
-12.3786 10.9538 2.7908
-14.6328 7.6748 2.7908
-16.0444 3.9550 2.7908
-16.5332 0.0054 2.7908
-16.0699 -3.9507 2.7908
-12.9342 -6.7734 2.4592
-12.4350 -10.9892 2.7908
-9.4648 -13.6663 2.7908
-5.9354 -15.5605 2.7908
-1.0532 -8.5125 1.4348
1.2380 -10.4257 1.7532
3.0382 -8.0845 1.4401
8.9527 -13.0652 2.6379
9.0581 -8.0863 2.0208
9.1544 -4.8537 1.7238
13.3040 -3.3440 2.2823
8.9299 -0.0446 1.4865
15.4295 3.7151 2.6442
14.0733 7.2831 2.6435
10.3636 9.0684 2.3009
9.0466 12.9255 2.6406
6.0086 15.5214 2.7908
2.1213 16.4778 2.7908
-1.8752 16.4795 2.7908
-5.4371 14.6830 2.6384
-7.7462 11.4205 2.3281
-12.2794 11.0655 2.7908
-14.5630 7.8067 2.7908
-16.0079 4.0998 2.7908
-16.5321 0.1547 2.7908
-16.1044 -3.8046 2.7908
-14.7468 -7.5530 2.7908
-12.5334 -10.8753 2.7908
-9.5877 -13.5790 2.7908
-6.0758 -15.5050 2.7908
-1.1304 -8.5027 1.4349
1.2338 -11.2610 1.8919
2.9640 -8.1095 1.4398
8.8353 -13.1478 2.6384
9.0884 -8.2627 2.0442
9.1524 -4.9594 1.7318
13.2732 -3.4645 2.2823
8.9308 -0.1255 1.4867
15.4633 3.5752 2.6442
14.1397 7.1556 2.6436
11.9976 10.3076 2.6427
9.1651 12.8454 2.6410
6.1495 15.4673 2.7908
2.2708 16.4590 2.7908
-1.7257 16.4968 2.7908
-5.3040 14.7324 2.6384
-7.6884 11.5595 2.3420
-12.1792 11.1762 2.7908
-14.4919 7.9380 2.7908
-15.9700 4.2442 2.7908
-16.5295 0.3042 2.7908
-16.1374 -3.6588 2.7908
-14.8136 -7.4190 2.7908
-12.6304 -10.7609 2.7908
-9.7093 -13.4909 2.7908
-6.2152 -15.4484 2.7908
-1.2071 -8.4923 1.4350
1.6698 -16.6267 2.7908
2.8898 -8.1338 1.4395
8.7159 -13.2266 2.6384
9.0856 -8.4112 2.0606
9.1503 -5.0657 1.7400
13.0829 -3.5414 2.2550
8.9316 -0.2062 1.4871
15.4957 3.4356 2.6443
14.2046 7.0281 2.6436
12.0912 10.1996 2.6427
9.2825 12.7645 2.6413
6.2894 15.4122 2.7908
2.4195 16.4389 2.7908
-1.5767 16.5128 2.7908
-5.1709 14.7805 2.6384
-7.5735 11.6130 2.3388
-12.0776 11.2864 2.7908
-14.4194 8.0693 2.7908
-15.9307 4.3888 2.7908
-16.5257 0.4540 2.7908
-16.1693 -3.5122 2.7908
-14.8795 -7.2840 2.7908
-12.7267 -10.6453 2.7908
-9.8306 -13.4014 2.7908
-6.3546 -15.3904 2.7908
-1.2841 -8.4812 1.4351
1.5190 -16.6401 2.7908
2.8153 -8.1576 1.4392
8.5953 -13.3046 2.6384
9.0826 -8.5627 2.0775
9.1482 -5.1735 1.7485
12.5942 -3.5319 2.1761
8.9325 -0.2873 1.4875
15.5270 3.2951 2.6443
14.2687 6.8994 2.6436
12.1841 10.0903 2.6427
9.3997 12.6822 2.6416
6.4288 15.3558 2.7908
2.5681 16.4174 2.7908
-1.4276 16.5273 2.7908
-5.0374 14.8273 2.6384
-7.4825 11.7032 2.3432
-11.9754 11.3954 2.7908
-4.8331 2.7623 0.9402
-15.8903 4.5326 2.7908
-16.5205 0.6033 2.7908
-16.1997 -3.3658 2.7908
-14.9439 -7.1489 2.7908
-12.8215 -10.5293 2.7908
-9.9506 -13.3112 2.7908
-6.4929 -15.3313 2.7908
-1.3607 -8.4696 1.4353
1.3685 -16.6522 2.7908
2.7408 -8.1806 1.4389
8.4744 -13.3811 2.6384
9.0797 -8.7162 2.0948
9.1461 -5.2819 1.7571
12.1400 -3.5231 2.1030
8.9333 -0.3681 1.4881
15.5568 3.1549 2.6443
14.3313 6.7707 2.6437
11.2821 9.1728 2.4289
9.5156 12.5991 2.6419
6.5682 15.2979 2.7908
2.7170 16.3946 2.7908
-1.2777 16.5406 2.7908
-4.9030 14.8732 2.6384
-7.4220 11.8440 2.3577
-11.8718 11.5038 2.7908
-4.7887 2.7948 0.9365
-15.8484 4.6765 2.7908
-16.5139 0.7531 2.7908
-16.2290 -3.2186 2.7908
-15.0074 -7.0127 2.7908
-12.9157 -10.4119 2.7908
-10.0702 -13.2195 2.7908
-6.6312 -15.2707 2.7908
-1.4375 -8.4572 1.4354
1.2174 -16.6629 2.7908
2.6658 -8.2031 1.4386
8.3524 -13.4569 2.6384
9.0435 -8.8404 2.1049
9.1440 -5.3918 1.7660
11.7672 -3.5309 2.0439
8.9341 -0.4493 1.4889
15.5854 3.0144 2.6443
14.3928 6.6414 2.6437
11.2833 9.0057 2.4114
9.6309 12.5151 2.6423
6.7066 15.2390 2.7908
2.8652 16.3704 2.7908
-1.1283 16.5525 2.7908
-4.7687 14.9176 2.6384
-7.7112 12.5562 2.4854
-11.7677 11.6109 2.7908
-4.7913 2.8547 0.9420
-15.8054 4.8194 2.7908
-16.5061 0.9022 2.7908
-16.2568 -3.0718 2.7908
-15.0694 -6.8765 2.7908
-13.0085 -10.2942 2.7908
-10.1885 -13.1271 2.7908
-6.7684 -15.2092 2.7908
-1.5139 -8.4442 1.4356
1.0668 -16.6722 2.7908
2.5910 -8.2248 1.4384
8.2302 -13.5312 2.6384
9.0404 -8.9985 2.1231
9.1419 -5.5024 1.7752
11.7349 -3.6370 2.0439
8.9350 -0.5303 1.4897
15.6128 2.8731 2.6443
14.1400 6.3699 2.5864
9.8543 7.7200 2.0908
9.6590 12.3188 2.6190
6.8450 15.1786 2.7908
3.0138 16.3449 2.7908
-0.9782 16.5630 2.7908
-4.6334 14.9610 2.6384
-7.7036 12.8028 2.5202
-11.6622 11.7174 2.7908
-14.1183 8.5862 2.7908
-15.7609 4.9625 2.7908
-16.4968 1.0519 2.7908
-16.2833 -2.9241 2.7908
-15.1303 -6.7392 2.7908
-13.1005 -10.1752 2.7908
-10.3064 -13.0333 2.7908
-6.9055 -15.1461 2.7908
-1.5905 -8.4305 1.4358
0.9155 -16.6801 2.7908
2.5157 -8.2460 1.4381
8.1074 -13.6045 2.6384
9.0373 -9.1593 2.1418
9.1063 -5.5937 1.7780
11.7016 -3.7429 2.0439
8.9358 -0.6114 1.4907
15.6388 2.7321 2.6444
14.1977 6.2423 2.5864
9.9895 7.6813 2.1046
9.6545 12.0867 2.5879
6.9823 15.1172 2.7908
3.1615 16.3181 2.7908
-0.8286 16.5722 2.7908
-4.4983 15.0031 2.6384
-7.6959 13.0554 2.5560
-11.5561 11.8226 2.7908
-14.0403 8.7144 2.7908
-15.7153 5.1047 2.7908
-16.4863 1.2008 2.7908
-16.3085 -2.7767 2.7908
-15.1898 -6.6019 2.7908
-13.1911 -10.0558 2.7908
-10.4231 -12.9388 2.7908
-7.0416 -15.0821 2.7908
-1.6667 -8.4163 1.4359
0.7648 -16.6867 2.7908
2.4406 -8.2665 1.4378
7.9834 -13.6768 2.6384
9.0672 -9.3578 2.1689
9.1041 -5.7066 1.7876
11.5727 -3.8177 2.0273
8.9367 -0.6929 1.4918
15.6637 2.5903 2.6444
14.2544 6.1136 2.5864
10.1745 7.6777 2.1287
9.7585 11.9923 2.5864
7.1196 15.0542 2.7908
3.3096 16.2898 2.7908
-0.6783 16.5800 2.7908
-4.3623 15.0440 2.6384
-8.2735 14.3309 2.7908
-11.4487 11.9272 2.7908
-13.9608 8.8406 2.7908
-15.6683 5.2470 2.7908
-16.4743 1.3503 2.7908
-16.3324 -2.6286 2.7908
-15.2483 -6.4636 2.7908
-13.2809 -9.9352 2.7908
-10.5393 -12.8429 2.7908
-7.1770 -15.0168 2.7908
-1.7427 -8.4014 1.4361
0.6140 -16.6919 2.7908
2.3653 -8.2863 1.4376
7.8592 -13.7478 2.6384
9.0640 -9.5252 2.1887
9.1019 -5.8204 1.7975
11.3818 -3.8690 1.9999
8.9375 -0.7742 1.4930
15.6871 2.4489 2.6444
14.3098 5.9849 2.5864
10.3630 7.6741 2.1534
9.8671 11.9045 2.5864
7.2558 14.9904 2.7908
3.4568 16.2604 2.7908
-0.5285 16.5865 2.7908
-4.2264 15.0836 2.6384
-8.1441 14.4060 2.7908
-11.1800 11.8599 2.7513
-13.8805 8.9665 2.7908
-15.6201 5.3883 2.7908
-16.4611 1.4991 2.7908
-16.3549 -2.4809 2.7908
-15.3053 -6.3253 2.7908
-13.3693 -9.8142 2.7908
-10.6542 -12.7464 2.7908
-7.3124 -14.9501 2.7908
-1.8189 -8.3857 1.4363
0.4626 -16.6957 2.7908
2.2895 -8.3055 1.4373
7.7339 -13.8179 2.6384
9.0607 -9.6962 2.2091
9.1330 -5.9576 1.8142
8.9332 -3.1273 1.5746
8.9384 -0.8560 1.4943
15.7094 2.3066 2.6444
14.3642 5.8552 2.5864
12.8049 9.3038 2.6430
9.9753 11.8153 2.5864
7.3919 14.9250 2.7908
3.6044 16.2294 2.7908
-0.3781 16.5917 2.7908
-4.0897 15.1221 2.6384
-8.0134 14.4795 2.7908
-11.2316 12.1332 2.7908
-13.7988 9.0921 2.7908
-15.5705 5.5297 2.7908
-16.4465 1.6482 2.7908
-16.3760 -2.3329 2.7908
-15.3611 -6.1864 2.7908
-13.4567 -9.6925 2.7908
-10.7682 -12.6487 2.7908
-7.4467 -14.8824 2.7908
-1.8947 -8.3695 1.4365
0.3117 -16.6982 2.7908
2.2140 -8.3241 1.4371
7.6085 -13.8867 2.6384
9.0573 -9.8698 2.2300
9.1308 -6.0744 1.8246
8.7635 -3.1570 1.5496
8.8895 -0.9324 1.4875
15.7302 2.1648 2.6444
14.4212 5.7271 2.5871
12.8893 9.1884 2.6430
10.0823 11.7255 2.5864
7.5269 14.8586 2.7908
3.7511 16.1973 2.7908
-0.2282 16.5955 2.7908
-3.9531 15.1593 2.6384
-7.8826 14.5522 2.7908
-11.1218 12.2345 2.7908
-13.7163 9.2165 2.7908
-15.5199 5.6701 2.7908
-16.4306 1.7967 2.7908
-16.3959 -2.1842 2.7908
-15.4158 -6.0465 2.7908
-13.5432 -9.5695 2.7908
-10.8817 -12.5498 2.7908
-7.5808 -14.8133 2.7908
-1.9707 -8.3526 1.4367
0.1603 -16.6993 2.7908
2.1379 -8.3420 1.4369
7.4819 -13.9545 2.6384
9.0208 -10.0107 2.2433
9.1285 -6.1930 1.8353
8.5770 -3.1779 1.5217
8.9177 -1.0172 1.4936
15.7499 2.0222 2.6445
14.4692 5.5948 2.5864
9.8452 6.8846 2.0058
9.9297 11.3385 2.5206
7.5566 14.5876 2.7525
3.8981 16.1637 2.7908
-0.0777 16.5979 2.7908
-3.8157 15.1953 2.6384
-7.7511 14.6233 2.7908
-11.0111 12.3349 2.7908
-13.6326 9.3402 2.7908
-15.4680 5.8101 2.7908
-16.4134 1.9451 2.7908
-16.4144 -2.0359 2.7908
-15.4691 -5.9068 2.7908
-13.6283 -9.4462 2.7908
-4.9478 -5.6032 1.2560
-7.7138 -14.7432 2.7908
-2.0462 -8.3352 1.4369
0.0082 -14.6603 2.7908
1.8563 -7.5253 1.4734
6.8278 -13.0159 2.7908
9.0174 -10.1908 2.5816
9.1262 -6.3129 2.1042
8.3503 -3.1803 1.6941
8.9409 -1.1021 1.7084
13.5337 1.6129 2.5864
12.7438 4.7951 2.5864
11.4589 7.8590 2.6427
9.2311 10.3494 2.6415
3.5314 6.6681 1.4395
3.5530 14.1666 2.7908
0.0642 14.5825 2.7908
-3.2315 13.3824 2.6384
-6.3291 12.2079 2.6384
-9.5789 10.9292 2.7908
-11.9076 8.3185 2.7908
-13.5490 5.2303 2.7908
-14.4101 1.8405 2.7908
-14.4415 -1.6583 2.7908
-13.6396 -5.0670 2.7908
-12.0483 -8.1904 2.7908
-4.9989 -5.5588 1.4300
-6.8914 -12.8859 2.7908
-1.9195 -7.5240 1.4806
-0.0953 -11.2263 2.1373
1.7841 -7.5249 1.4702
6.7095 -13.0766 2.7908
9.0138 -10.3744 2.6074
9.1238 -6.4341 2.1170
8.1342 -3.1826 1.6560
8.9418 -1.1844 1.7105
13.5481 1.4904 2.5864
12.7872 4.6798 2.5864
11.5301 7.7554 2.6427
9.3259 10.2672 2.6418
3.5908 6.6343 1.4391
3.6812 14.1347 2.7908
0.1962 14.5821 2.7908
-3.1104 13.4118 2.6384
-6.2186 12.2652 2.6384
-9.4799 11.0157 2.7908
-11.8320 8.4260 2.7908
-13.5011 5.3527 2.7908
-14.3927 1.9708 2.7908
-14.4554 -1.5275 2.7908
-13.6844 -4.9431 2.7908
-12.1213 -8.0806 2.7908
-9.8530 -10.7590 2.7908
-7.0073 -12.8223 2.7908
-1.9921 -7.5237 1.4841
-0.1952 -11.1303 2.1194
1.7123 -7.5245 1.4671
6.5907 -13.1363 2.7908
9.0256 -10.5799 2.6384
9.1142 -6.5515 2.1284
7.8015 -3.1341 1.5940
8.9427 -1.2669 1.7128
13.5615 1.3679 2.5864
12.8296 4.5641 2.5864
11.6005 7.6512 2.6427
9.4198 10.1839 2.6420
7.0803 12.8034 2.7908
3.8092 14.1017 2.7908
0.3281 14.5806 2.7908
-2.9891 13.4399 2.6384
-6.1076 12.3214 2.6384
-9.3800 11.1014 2.7908
-11.7553 8.5329 2.7908
-13.4521 5.4747 2.7908
-14.3740 2.1009 2.7908
-14.4682 -1.3966 2.7908
-13.7280 -4.8189 2.7908
-12.1933 -7.9702 2.7908
-9.9494 -10.6688 2.7908
-7.1226 -12.7576 2.7908
-2.0650 -7.5234 1.4878
-0.2530 -9.5150 1.8123
1.6407 -7.5241 1.4642
6.4713 -13.1948 2.7908
8.9293 -10.6608 2.6384
9.0858 -6.6566 2.1358
7.6187 -3.1410 1.5624
8.9435 -1.3497 1.7152
13.5737 1.2451 2.5864
12.8709 4.4481 2.5864
11.6700 7.5464 2.6428
9.5131 10.0999 2.6423
7.1963 12.7396 2.7908
3.9369 14.0675 2.7908
0.4601 14.5779 2.7908
-2.9324 13.7719 2.6981
-5.9961 12.3767 2.6384
-9.2794 11.1861 2.7908
-11.6778 8.6390 2.7908
-13.4019 5.5963 2.7908
-14.3542 2.2309 2.7908
-14.4799 -1.2655 2.7908
-13.7705 -4.6942 2.7908
-12.2643 -7.8591 2.7908
-10.0450 -10.5777 2.7908
-7.2373 -12.6918 2.7908
-2.1383 -7.5230 1.4915
-0.2706 -7.5907 1.4463
1.5694 -7.5237 1.4613
6.3514 -13.2523 2.7908
8.8323 -10.7409 2.6384
9.0833 -6.7819 2.1496
7.6425 -3.2320 1.5732
8.9444 -1.4327 1.7178
13.5848 1.1223 2.5864
12.9111 4.3316 2.5864
11.7385 7.4410 2.6428
9.6056 10.0150 2.6425
7.3117 12.6748 2.7908
2.1071 7.2750 1.4469
0.5920 14.5739 2.7908
-2.9041 14.2720 2.7907
-5.8840 12.4310 2.6384
-9.1780 11.2700 2.7908
-11.5993 8.7445 2.7908
-13.3507 5.7173 2.7908
-14.3332 2.3608 2.7908
-14.4903 -1.1344 2.7908
-13.8118 -4.5692 2.7908
-12.3343 -7.7474 2.7908
-10.1397 -10.4858 2.7908
-7.3514 -12.6250 2.7908
-2.2120 -7.5227 1.4955
-0.3393 -7.5877 1.4463
1.4985 -7.5233 1.4586
6.2310 -13.3087 2.7908
8.7345 -10.8200 2.6384
9.0809 -6.9089 2.1637
11.3613 -4.9263 2.3478
8.9453 -1.5160 1.7205
13.5948 0.9994 2.5864
12.9503 4.2148 2.5864
11.8061 7.3350 2.6428
9.6966 9.9283 2.6426
7.4265 12.6087 2.7908
2.1726 7.2548 1.4467
0.7239 14.5688 2.7908
-2.7750 14.2991 2.7908
-5.7715 12.4842 2.6384
-9.0759 11.3529 2.7908
-11.5198 8.8492 2.7908
-13.2985 5.8379 2.7908
-14.3110 2.4903 2.7908
-14.4996 -1.0032 2.7908
-13.8521 -4.4438 2.7908
-12.4033 -7.6351 2.7908
-10.2336 -10.3930 2.7908
-7.4649 -12.5572 2.7908
-4.2546 -14.0000 2.7908
-0.4079 -7.5841 1.4463
1.4277 -7.5229 1.4561
6.1101 -13.3640 2.7908
8.6360 -10.8983 2.6384
9.1116 -7.0634 2.1862
9.2644 -4.1171 1.9221
8.9461 -1.5995 1.7233
13.6037 0.8764 2.5864
12.9884 4.0977 2.5864
11.8727 7.2283 2.6429
9.7866 9.8408 2.6426
7.4980 12.4707 2.7750
2.2380 7.2341 1.4464
0.8558 14.5625 2.7908
-2.6457 14.3243 2.7908
-5.6585 12.5365 2.6384
-8.9731 11.4349 2.7908
-11.4394 8.9533 2.7908
-13.2451 5.9581 2.7908
-14.2877 2.6197 2.7908
-14.5077 -0.8719 2.7908
-13.8912 -4.3181 2.7908
-12.4713 -7.5221 2.7908
-10.3267 -10.2994 2.7908
-7.5778 -12.4884 2.7908
-4.3809 -13.9601 2.7908
-0.4765 -7.5799 1.4464
1.3573 -7.5225 1.4536
5.9887 -13.4181 2.7908
8.5368 -10.9757 2.6384
9.1091 -7.1943 2.2012
9.1676 -4.1737 1.9098
8.9470 -1.6833 1.7263
13.6114 0.7533 2.5864
13.1300 4.0120 2.6072
11.9383 7.1210 2.6429
9.8758 9.7525 2.6426
7.4992 12.2208 2.7342
2.3030 7.2126 1.4462
0.9876 14.5550 2.7908
-2.5161 14.3484 2.7908
-5.5450 12.5877 2.6384
-8.8694 11.5160 2.7908
-11.3581 9.0566 2.7908
-13.1906 6.0776 2.7908
-14.2632 2.7489 2.7908
-14.5146 -0.7405 2.7908
-13.9291 -4.1921 2.7908
-12.5382 -7.4086 2.7908
-10.4189 -10.2049 2.7908
-7.6900 -12.4186 2.7908
-4.5067 -13.9190 2.7908
-0.5450 -7.5751 1.4464
1.2871 -7.5221 1.4513
5.8668 -13.4712 2.7908
8.4369 -11.0521 2.6384
9.1065 -7.3270 2.2165
9.1656 -4.2734 1.9173
8.9479 -1.7675 1.7295
13.6180 0.6301 2.5864
13.0615 3.8622 2.5864
12.0030 7.0131 2.6429
9.9642 9.6632 2.6426
7.5002 11.9781 2.6948
2.3679 7.1906 1.4459
1.1193 14.5463 2.7908
-2.3862 14.3714 2.7908
-5.4311 12.6379 2.6384
-8.7651 11.5961 2.7908
-11.2759 9.1592 2.7908
-13.1351 6.1968 2.7908
-14.2376 2.8779 2.7908
-14.5203 -0.6091 2.7908
-13.9660 -4.0656 2.7908
-12.6041 -7.2945 2.7908
-10.5102 -10.1097 2.7908
-7.8016 -12.3478 2.7908
-4.6322 -13.8768 2.7908
-0.6136 -7.5698 1.4465
1.2517 -7.7359 1.4904
3.2000 -7.5331 1.5546
8.3363 -11.1276 2.6384
9.1039 -7.4616 2.2323
9.1637 -4.3738 1.9251
8.9488 -1.8519 1.7328
13.6235 0.5069 2.5864
13.0964 3.7441 2.5864
12.0667 6.9046 2.6429
10.0518 9.5733 2.6426
7.5012 11.7420 2.6567
2.4326 7.1679 1.4456
1.2510 14.5364 2.7908
-2.2562 14.3930 2.7908
-4.6960 11.2058 2.3304
-8.6601 11.6753 2.7908
-11.1927 9.2610 2.7908
-13.0785 6.3155 2.7908
-14.2108 3.0066 2.7908
-14.5248 -0.4776 2.7908
-14.0016 -3.9390 2.7908
-12.6690 -7.1797 2.7908
-10.6007 -10.0136 2.7908
-7.9126 -12.2759 2.7908
-4.7572 -13.8335 2.7908
-0.6820 -7.5638 1.4466
1.2494 -8.1908 1.5759
3.1196 -7.5326 1.5487
8.2350 -11.2023 2.6384
9.1013 -7.5981 2.2484
9.1283 -4.4587 1.9261
8.9496 -1.9367 1.7363
13.6279 0.3837 2.5864
13.1302 3.6256 2.5864
12.1294 6.7956 2.6430
9.8838 9.2441 2.5762
7.5552 11.5941 2.6384
2.4970 7.1447 1.4453
1.3826 14.5253 2.7908
-2.1259 14.4136 2.7908
-5.2019 12.7352 2.6384
-8.5543 11.7536 2.7908
-11.1086 9.3621 2.7908
-13.0208 6.4336 2.7908
-14.1828 3.1350 2.7908
-14.5282 -0.3462 2.7908
-14.0362 -3.8119 2.7908
-12.7329 -7.0644 2.7908
-10.6902 -9.9167 2.7908
-8.0228 -12.2031 2.7908
-4.8819 -13.7890 2.7908
-0.7504 -7.5573 1.4466
1.2468 -8.7013 1.6719
3.0399 -7.5322 1.5430
8.1331 -11.2759 2.6384
9.0654 -7.7083 2.2567
9.1263 -4.5605 1.9343
8.9996 -2.0329 1.7495
8.0222 0.1532 1.5221
13.1630 3.5068 2.5864
12.1910 6.6860 2.6430
9.8836 9.0777 2.5545
7.6631 11.5325 2.6394
2.5612 7.1208 1.4450
1.5141 14.5130 2.7908
-1.9955 14.4330 2.7908
-5.0867 12.7823 2.6384
-8.4478 11.8308 2.7908
-11.0236 9.4624 2.7908
-12.9621 6.5511 2.7908
-14.1537 3.2635 2.7908
-14.5304 -0.2147 2.7908
-14.0696 -3.6846 2.7908
-12.7957 -6.9486 2.7908
-10.7789 -9.8190 2.7908
-8.1324 -12.1292 2.7908
-5.0062 -13.7435 2.7908
-0.8188 -7.5502 1.4467
1.2438 -9.2781 1.7806
2.9607 -7.5317 1.5374
8.0304 -11.3488 2.6384
9.0627 -7.8484 2.2737
9.1243 -4.6631 1.9428
8.9290 -2.1020 1.7393
8.0502 0.0809 1.5272
13.1947 3.3877 2.5864
12.2518 6.5758 2.6430
10.0611 9.0742 2.5789
7.7648 11.4569 2.6385
2.6251 7.0963 1.4447
1.6455 14.4996 2.7908
-1.8649 14.4513 2.7908
-4.9710 12.8284 2.6384
-8.3407 11.9073 2.7908
-10.9377 9.5619 2.7908
-12.9024 6.6683 2.7908
-14.1234 3.3912 2.7908
-14.5314 -0.0832 2.7908
-14.1018 -3.5570 2.7908
-12.8574 -6.8322 2.7908
-10.8668 -9.7205 2.7908
-8.2414 -12.0544 2.7908
-5.1301 -13.6968 2.7908
-0.8871 -7.5425 1.4468
1.2405 -9.9352 1.9046
2.8822 -7.5312 1.5320
7.9273 -11.4205 2.6384
9.0599 -7.9906 2.2911
9.1223 -4.7667 1.9514
13.0065 -3.1864 2.5391
8.9294 0.0090 1.6939
13.2253 3.2683 2.5864
12.0476 6.3265 2.5864
10.2421 9.0707 2.6040
7.8687 11.3869 2.6385
2.6888 7.0711 1.4444
1.7767 14.4849 2.7908
-1.7342 14.4686 2.7908
-4.8550 12.8733 2.6384
-8.2329 11.9826 2.7908
-10.8509 9.6607 2.7908
-12.8415 6.7848 2.7908
-14.0920 3.5188 2.7908
-14.5312 0.0484 2.7908
-14.1329 -3.4291 2.7908
-12.9181 -6.7152 2.7908
-10.9537 -9.6212 2.7908
-8.3497 -11.9786 2.7908
-5.2535 -13.6490 2.7908
-0.9552 -7.5343 1.4469
1.2367 -10.6897 2.0471
2.8042 -7.5308 1.5267
7.8234 -11.4914 2.6384
9.0903 -8.1648 2.3174
9.1537 -4.8890 1.9676
12.8158 -3.2629 2.5075
8.9302 -0.0718 1.6941
13.2548 3.1486 2.5864
12.1050 6.2175 2.5864
10.4266 9.0672 2.6298
7.9719 11.3160 2.6385
2.7522 7.0454 1.4441
1.9077 14.4691 2.7908
-1.6032 14.4842 2.7908
-4.7384 12.9173 2.6384
-7.8876 11.7057 2.7095
-10.7632 9.7588 2.7908
-12.7796 6.9008 2.7908
-14.0594 3.6462 2.7908
-14.5298 0.1799 2.7908
-14.1629 -3.3008 2.7908
-12.9778 -6.5977 2.7908
-11.0397 -9.5212 2.7908
-8.4571 -11.9019 2.7908
-5.3764 -13.6001 2.7908
-1.0238 -7.5281 1.4476
1.1839 -11.1137 2.1263
2.7267 -7.5303 1.5216
7.7188 -11.5613 2.6384
9.0875 -8.3120 2.3358
9.1517 -4.9949 1.9768
12.3104 -3.2531 2.4143
8.9310 -0.1527 1.6944
13.2832 3.0286 2.5864
12.1613 6.1081 2.5864
10.5601 9.0169 2.6426
8.0745 11.2442 2.6385
2.8154 7.0191 1.4438
2.0387 14.4521 2.7908
-1.4722 14.4988 2.7908
-4.6215 12.9603 2.6384
-7.7026 11.6575 2.6820
-10.6747 9.8560 2.7908
-12.7167 7.0163 2.7908
-14.0257 3.7733 2.7908
-14.5272 0.3114 2.7908
-14.1917 -3.1725 2.7908
-13.0363 -6.4797 2.7908
-11.1248 -9.4204 2.7908
-8.5640 -11.8242 2.7908
-5.4989 -13.5500 2.7908
-1.0932 -7.5278 1.4494
1.0897 -11.1900 2.1390
2.6497 -7.5299 1.5167
7.6136 -11.6303 2.6384
9.0846 -8.4616 2.3547
9.1496 -5.1017 1.9862
11.8412 -3.2440 2.3279
8.9319 -0.2335 1.6948
13.3106 2.9085 2.5864
12.2166 5.9980 2.5864
10.6419 8.9215 2.6427
8.1765 11.1716 2.6386
2.8784 6.9921 1.4435
2.1696 14.4339 2.7908
-1.3409 14.5123 2.7908
-4.5042 13.0022 2.6384
-7.5932 11.7213 2.6807
-10.5852 9.9524 2.7908
-12.6528 7.1311 2.7908
-13.9909 3.9000 2.7908
-14.5235 0.4428 2.7908
-14.2193 -3.0438 2.7908
-13.0938 -6.3612 2.7908
-11.2090 -9.3188 2.7908
-8.6702 -11.7455 2.7908
-5.6210 -13.4989 2.7908
-1.1628 -7.5275 1.4514
1.2896 -14.6113 2.7908
2.5732 -7.5294 1.5119
7.5078 -11.6983 2.6384
9.0816 -8.6137 2.3741
9.1475 -5.2095 1.9959
11.5802 -3.2853 2.2823
8.9327 -0.3144 1.6954
13.3368 2.7881 2.5864
12.2709 5.8875 2.5864
10.7228 8.8253 2.6427
8.2787 11.0989 2.6388
2.9410 6.9646 1.4431
2.3003 14.4145 2.7908
-1.2096 14.5247 2.7908
-4.3865 13.0430 2.6384
-7.5390 11.8717 2.6993
-10.4950 10.0479 2.7908
-4.8126 2.7700 1.0670
-13.9549 4.0264 2.7908
-14.5186 0.5743 2.7908
-14.2458 -2.9149 2.7908
-13.1503 -6.2421 2.7908
-11.2923 -9.2165 2.7908
-8.7756 -11.6659 2.7908
-5.7426 -13.4466 2.7908
-1.2326 -7.5272 1.4535
1.1572 -14.6216 2.7908
2.4972 -7.5290 1.5073
7.4015 -11.7653 2.6384
9.0787 -8.7681 2.3940
9.1454 -5.3185 2.0059
11.5501 -3.3900 2.2823
8.9336 -0.3954 1.6961
13.3619 2.6674 2.5864
12.3243 5.7765 2.5864
10.8028 8.7284 2.6427
8.3802 11.0254 2.6391
3.0034 6.9364 1.4428
2.4308 14.3940 2.7908
-1.0781 14.5358 2.7908
-4.2686 13.0827 2.6384
-7.6837 12.3448 2.7908
-10.4039 10.1428 2.7908
-4.7818 2.8102 1.0657
-13.9178 4.1526 2.7908
-14.5125 0.7057 2.7908
-14.2711 -2.7857 2.7908
-13.2056 -6.1225 2.7908
-11.3746 -9.1134 2.7908
-8.8803 -11.5853 2.7908
-5.8637 -13.3933 2.7908
-1.3026 -7.5268 1.4558
1.0249 -14.6307 2.7908
2.4217 -7.5285 1.5029
7.2945 -11.8314 2.6384
9.0425 -8.8927 2.4056
9.1433 -5.4285 2.0161
11.5190 -3.4944 2.2823
8.9344 -0.4764 1.6970
13.3860 2.5464 2.5864
12.3766 5.6650 2.5864
9.8562 7.8172 2.3936
8.4810 10.9509 2.6394
3.0655 6.9077 1.4424
2.5610 14.3722 2.7908
-0.9467 14.5457 2.7908
-4.1502 13.1214 2.6384
-7.5719 12.4142 2.7908
-10.3118 10.2368 2.7908
-12.4548 7.4721 2.7908
-13.8796 4.2784 2.7908
-14.5052 0.8370 2.7908
-14.2952 -2.6563 2.7908
-13.2599 -6.0025 2.7908
-11.4560 -9.0096 2.7908
-8.9841 -11.5038 2.7908
-5.9842 -13.3389 2.7908
-1.3727 -7.5265 1.4581
0.8924 -14.6385 2.7908
2.3466 -7.5281 1.4985
7.1869 -11.8965 2.6384
9.0394 -9.0520 2.4265
9.1320 -5.5342 2.0246
11.3876 -3.5673 2.2626
8.9353 -0.5576 1.6980
13.4089 2.4253 2.5864
12.4279 5.5530 2.5864
9.8698 7.6836 2.3798
8.5811 10.8756 2.6397
3.1272 6.8784 1.4421
2.6911 14.3493 2.7908
-0.8150 14.5545 2.7908
-4.0314 13.1590 2.6384
-7.4595 12.4828 2.7908
-10.2190 10.3299 2.7908
-12.3867 7.5846 2.7908
-13.8402 4.4038 2.7908
-14.4967 0.9683 2.7908
-14.3182 -2.5267 2.7908
-13.3131 -5.8821 2.7908
