ply
format ascii 1.0
element vertex 2174
property float32 x
property float32 y
property float32 z
end_header
-9.6990 -4.3230 2.7908
-8.3928 -6.5224 2.7908
-6.2378 -7.8928 2.6384
-4.4170 -9.6953 2.7908
-1.4189 -7.5331 2.0056
0.5882 -10.6630 2.7908
2.3009 -7.5348 2.0568
5.4793 -9.1895 2.7908
7.1098 -7.2027 2.6384
8.6392 -5.3045 2.6420
9.6617 -3.0887 2.6434
10.1166 -0.6908 2.6433
9.9827 1.7451 2.6431
9.2669 4.0753 2.6424
8.0058 6.1568 2.6388
3.3615 4.2088 1.4090
2.2695 4.9144 1.4176
2.0239 10.4494 2.7908
-0.5316 10.6181 2.7908
-3.0174 10.0606 2.7601
-5.0954 8.6420 2.6384
-7.4143 7.5834 2.7908
-9.0092 5.5893 2.7908
-10.0838 3.2734 2.7908
-10.5767 0.7682 2.7908
-10.4592 -1.7833 2.7908
-9.7373 -4.2351 2.7908
-8.4511 -6.4461 2.7908
-6.3086 -7.8358 2.6384
-4.5042 -9.6546 2.7908
-1.4895 -7.5328 2.0091
0.4918 -10.6675 2.7908
2.2266 -7.5343 2.0511
5.3956 -9.2385 2.7908
7.0441 -7.2668 2.6384
8.5903 -5.3823 2.6419
9.6334 -3.1762 2.6435
10.1101 -0.7825 2.6433
9.9983 1.6546 2.6431
9.3041 3.9914 2.6425
8.0621 6.0846 2.6389
3.3987 4.1772 1.4086
2.3137 4.8929 1.4174
2.1186 10.4311 2.7908
-0.4353 10.6229 2.7908
-2.9587 10.2005 2.7908
-5.0170 8.6881 2.6384
-7.3453 7.6505 2.7908
-8.9582 5.6708 2.7908
-10.0536 3.3647 2.7908
-10.5691 0.8641 2.7908
-10.4747 -1.6884 2.7908
-9.7750 -4.1465 2.7908
-8.5089 -6.3689 2.7908
-6.3791 -7.7779 2.6384
-4.5910 -9.6131 2.7908
-1.5602 -7.5324 2.0127
0.3954 -10.6711 2.7908
2.1526 -7.5339 2.0457
5.3118 -9.2866 2.7908
7.0130 -7.3666 2.6516
8.5409 -5.4593 2.6418
9.6044 -3.2631 2.6435
10.1028 -0.8738 2.6433
10.0131 1.5642 2.6431
9.3405 3.9075 2.6426
8.1175 6.0121 2.6391
3.4355 4.1453 1.4082
2.3574 4.8711 1.4171
2.2129 10.4120 2.7908
-0.3393 10.6269 2.7908
-2.8665 10.2272 2.7908
-4.9384 8.7333 2.6384
-7.2760 7.7166 2.7908
-8.9066 5.7515 2.7908
-10.0228 3.4554 2.7908
-10.5607 0.9595 2.7908
-10.4893 -1.5936 2.7908
-9.8118 -4.0578 2.7908
-8.5657 -6.2915 2.7908
-6.4488 -7.7196 2.6384
-4.6778 -9.5706 2.7908
-1.6315 -7.5321 2.0166
0.2987 -10.6737 2.7908
2.0788 -7.5335 2.0405
5.2273 -9.3341 2.7908
7.0040 -7.4920 2.6739
8.4906 -5.5362 2.6416
8.9377 -3.1272 2.4677
10.0946 -0.9654 2.6433
10.0272 1.4734 2.6431
9.3762 3.8230 2.6428
8.1725 5.9389 2.6393
3.4721 4.1130 1.4078
2.4011 4.8488 1.4168
1.6119 7.2597 1.9497
-0.2429 10.6300 2.7908
-2.7738 10.2532 2.7908
-4.8591 8.7780 2.6384
-7.2058 7.7824 2.7908
-8.8542 5.8321 2.7908
-9.9910 3.5462 2.7908
-10.5514 1.0553 2.7908
-10.5030 -1.4987 2.7908
-9.8477 -3.9689 2.7908
-8.6219 -6.2136 2.7908
-6.5180 -7.6607 2.6384
-4.7638 -9.5275 2.7908
-1.7028 -7.5318 2.0207
0.2022 -10.6756 2.7908
2.0057 -7.5330 2.0354
5.1426 -9.3807 2.7908
6.9964 -7.6207 2.6972
8.4398 -5.6124 2.6415
8.9406 -3.2192 2.4764
8.8895 -0.9312 2.3298
10.0403 1.3829 2.6432
9.4110 3.7384 2.6429
8.2266 5.8654 2.6394
3.5083 4.0805 1.4074
2.4445 4.8262 1.4166
1.6103 6.9552 1.8716
-0.1469 10.6322 2.7908
-2.6811 10.2782 2.7908
-4.7798 8.8218 2.6384
-7.1354 7.8473 2.7908
-8.8012 5.9120 2.7908
-9.9585 3.6363 2.7908
-10.5413 1.1505 2.7908
-10.5159 -1.4034 2.7908
-9.8830 -3.8793 2.7908
-8.6775 -6.1349 2.7908
-6.5869 -7.6010 2.6384
-4.8498 -9.4835 2.7908
-1.7747 -7.5315 2.0249
0.1054 -10.6765 2.7908
1.9326 -7.5326 2.0306
5.0572 -9.4266 2.7908
6.9886 -7.7520 2.7212
8.3881 -5.6883 2.6414
9.5124 -3.5228 2.6435
8.9177 -1.0160 2.3395
10.0527 1.2918 2.6432
9.4452 3.6532 2.6430
8.2802 5.7911 2.6396
3.5442 4.0475 1.4070
2.4877 4.8031 1.4163
1.6089 6.6731 1.7995
-0.0505 10.6335 2.7908
-2.5879 10.3024 2.7908
-4.7000 8.8649 2.6384
-7.0643 7.9116 2.7908
-8.7475 5.9913 2.7908
-9.9252 3.7262 2.7908
-10.5303 1.2457 2.7908
-10.5279 -1.3083 2.7908
-9.9173 -3.7897 2.7908
-8.7322 -6.0561 2.7908
-4.9457 -5.6040 1.9608
-4.9351 -9.4389 2.7908
-1.8466 -7.5312 2.0293
0.0069 -8.2047 2.3433
1.8607 -7.5345 2.2144
4.5496 -8.6677 2.7908
6.4925 -7.3342 2.7908
7.6219 -5.2701 2.6393
8.6693 -3.3002 2.6418
9.2089 -1.1338 2.6430
9.2080 1.0984 2.6427
8.6673 3.2621 2.6409
7.6230 5.2290 2.6385
3.2665 3.6626 1.4022
2.3081 4.3588 1.4107
1.6076 6.4113 1.8927
0.0423 9.7355 2.7908
-2.2837 9.4543 2.7908
-4.2295 8.1562 2.6384
-6.0529 6.9045 2.6384
-7.9600 5.5590 2.7908
-9.0573 3.4946 2.7908
-9.6318 1.2282 2.7908
-9.6504 -1.1104 2.7908
-9.1113 -3.3873 2.7908
-8.0445 -5.4718 2.7908
-4.9955 -5.5581 2.1415
-4.3445 -8.1292 2.6384
-1.9195 -7.5332 2.2228
-0.0666 -8.1145 2.3177
1.7884 -7.5341 2.2095
4.4709 -8.7083 2.7908
6.4258 -7.3925 2.7908
7.5735 -5.3386 2.6392
8.6388 -3.3783 2.6418
9.1983 -1.2171 2.6430
9.2179 1.0151 2.6427
8.6970 3.1838 2.6410
7.6703 5.1600 2.6385
3.2987 3.6321 1.4018
2.3471 4.3371 1.4105
1.6063 6.1692 1.8254
0.1304 9.7352 2.7908
-2.1981 9.4749 2.7908
-4.1556 8.1943 2.6384
-5.9903 6.9592 2.6384
-7.9094 5.6309 2.7908
-9.0253 3.5764 2.7908
-9.6202 1.3154 2.7908
-9.6599 -1.0230 2.7908
-9.1414 -3.3047 2.7908
-8.0934 -5.3986 2.7908
-6.2161 -6.7915 2.6384
-4.4177 -8.0892 2.6384
-1.9922 -7.5329 2.2280
-0.1392 -8.0646 2.3038
1.7165 -7.5337 2.2048
4.3918 -8.7481 2.7908
6.3586 -7.4502 2.7908
7.5245 -5.4066 2.6391
8.6077 -3.4563 2.6417
9.1870 -1.3002 2.6429
9.2270 0.9318 2.6427
8.7260 3.1052 2.6411
7.7170 5.0906 2.6385
3.3307 3.6013 1.4014
2.3859 4.3150 1.4102
1.6052 5.9437 1.7628
0.2185 9.7340 2.7908
-2.1125 9.4937 2.7908
-4.0814 8.2318 2.6384
-5.9272 7.0132 2.6384
-7.8582 5.7026 2.7908
-8.9925 3.6580 2.7908
-9.6078 1.4024 2.7908
-9.6685 -0.9355 2.7908
-9.1706 -3.2217 2.7908
-8.1417 -5.3249 2.7908
-6.2771 -6.7347 2.6384
-4.4905 -8.0486 2.6384
-2.0652 -7.5326 2.2334
-0.2114 -8.0359 2.2961
1.6448 -7.5332 2.2003
4.3124 -8.7873 2.7908
6.2908 -7.5073 2.7908
7.4749 -5.4741 2.6389
7.6223 -3.1409 2.3479
9.1749 -1.3833 2.6429
9.2353 0.8483 2.6428
8.7543 3.0263 2.6412
7.7630 5.0208 2.6385
3.3623 3.5701 1.4010
2.4245 4.2926 1.4099
1.6041 5.7331 1.7045
0.3066 9.7320 2.7908
-2.0264 9.5141 2.7908
-4.0068 8.2687 2.6384
-5.8636 7.0667 2.6384
-7.8063 5.7732 2.7908
-8.9590 3.7392 2.7908
-9.5946 1.4893 2.7908
-9.6764 -0.8479 2.7908
-9.1992 -3.1385 2.7908
-8.1892 -5.2508 2.7908
-6.3375 -6.6774 2.6384
-4.5630 -8.0073 2.6384
-2.1386 -7.5323 2.2391
-0.2667 -7.5408 2.1554
1.5735 -7.5328 2.1960
4.2326 -8.8257 2.7908
6.2225 -7.5637 2.7908
7.4246 -5.5412 2.6388
7.6424 -3.2304 2.3630
9.1620 -1.4662 2.6429
9.2429 0.7647 2.6428
8.7818 2.9472 2.6413
7.8084 4.9505 2.6385
3.3937 3.5387 1.4006
2.4628 4.2698 1.4097
1.6031 5.5360 1.6501
0.3946 9.7292 2.7908
-1.9403 9.5318 2.7908
-3.9319 8.3048 2.6384
-5.7995 7.1196 2.6384
-7.7538 5.8437 2.7908
-8.9248 3.8202 2.7908
-9.5806 1.5760 2.7908
-9.6835 -0.7603 2.7908
-9.2269 -3.0550 2.7908
-8.2362 -5.1763 2.7908
-6.3974 -6.6195 2.6384
-4.6351 -7.9653 2.6384
-2.2124 -7.5320 2.2449
-0.3350 -7.5404 2.1561
1.5024 -7.5324 2.1919
4.1524 -8.8634 2.7908
6.1537 -7.6195 2.7908
7.3738 -5.6078 2.6387
8.5100 -3.6882 2.6415
9.1484 -1.5490 2.6429
9.2498 0.6811 2.6428
8.8087 2.8678 2.6414
7.8533 4.8800 2.6386
3.4248 3.5070 1.4003
2.5010 4.2467 1.4094
1.6022 5.3510 1.5991
0.4827 9.7256 2.7908
-1.8540 9.5495 2.7908
-3.8567 8.3403 2.6384
-5.7349 7.1720 2.6384
-7.7007 5.9137 2.7908
-8.8899 3.9008 2.7908
-9.5659 1.6627 2.7908
-9.6898 -0.6726 2.7908
-9.2539 -2.9713 2.7908
-8.2824 -5.1014 2.7908
-6.4568 -6.5611 2.6384
-4.7068 -7.9227 2.6384
-2.4590 -8.0998 2.4208
-0.4034 -7.5401 2.1571
1.4316 -7.5320 2.1880
4.0720 -8.9003 2.7908
6.0844 -7.6747 2.7908
7.3223 -5.6739 2.6386
8.4761 -3.7650 2.6414
9.1340 -1.6318 2.6428
9.2558 0.5974 2.6429
8.8347 2.7881 2.6414
7.8978 4.8091 2.6387
3.4555 3.4751 1.3999
2.5389 4.2232 1.4091
1.6013 5.1771 1.5514
0.5707 9.7212 2.7908
-1.7676 9.5662 2.7908
-3.7812 8.3751 2.6384
-5.6699 7.2237 2.6384
-7.6469 5.9833 2.7908
-8.8542 3.9811 2.7908
-9.5503 1.7492 2.7908
-9.6953 -0.5848 2.7908
-9.2802 -2.8873 2.7908
-8.3279 -5.0261 2.7908
-6.5157 -6.5021 2.6384
-4.7781 -7.8795 2.6384
-2.9191 -9.3114 2.7908
-0.4718 -7.5398 2.1582
1.3610 -7.5316 2.1843
3.9912 -8.9365 2.7908
6.0146 -7.7293 2.7908
7.2703 -5.7396 2.6384
8.4414 -3.8414 2.6413
9.1189 -1.7143 2.6428
9.2611 0.5137 2.6429
8.8601 2.7083 2.6415
7.9417 4.7379 2.6388
3.4860 3.4428 1.3995
2.5766 4.1993 1.4088
1.6005 5.0133 1.5065
0.6587 9.7160 2.7908
-1.6810 9.5822 2.7908
-3.7053 8.4092 2.6384
-5.6044 7.2749 2.6384
-7.5925 6.0523 2.7908
-8.8178 4.0611 2.7908
-9.5340 1.8355 2.7908
-9.7000 -0.4970 2.7908
-9.3057 -2.8031 2.7908
-8.3728 -4.9503 2.7908
-6.5740 -6.4426 2.6384
-4.8489 -7.8356 2.6384
-3.0031 -9.2842 2.7908
-0.5403 -7.5394 2.1595
1.2907 -7.5312 2.1808
3.9101 -8.9720 2.7908
5.9443 -7.7832 2.7908
7.2180 -5.8051 2.6384
8.4060 -3.9174 2.6412
9.1029 -1.7967 2.6428
9.2656 0.4299 2.6429
8.8848 2.6281 2.6416
7.9849 4.6662 2.6389
3.5161 3.4103 1.3991
2.6140 4.1751 1.4085
1.5997 4.8586 1.4642
0.7466 9.7101 2.7908
-1.5942 9.5973 2.7908
-3.6291 8.4427 2.6384
-5.5384 7.3255 2.6384
-7.5375 6.1208 2.7908
-8.7807 4.1407 2.7908
-9.5169 1.9218 2.7908
-9.7039 -0.4092 2.7908
-9.3304 -2.7187 2.7908
-8.4169 -4.8742 2.7908
-6.6318 -6.3826 2.6384
-4.9195 -7.7911 2.6384
-3.0869 -9.2563 2.7908
-0.6089 -7.5391 2.1610
1.2517 -7.7230 2.2330
3.2064 -7.5429 2.3372
5.8736 -7.8365 2.7908
7.1651 -5.8701 2.6384
8.3700 -3.9932 2.6411
9.0863 -1.8790 2.6427
9.2694 0.3460 2.6429
8.9087 2.5478 2.6417
8.0274 4.5941 2.6391
3.5459 3.3775 1.3987
2.6512 4.1506 1.4082
1.5989 4.7123 1.4244
0.8345 9.7033 2.7908
-1.5074 9.6117 2.7908
-3.5527 8.4754 2.6384
-5.4720 7.3755 2.6384
-7.4819 6.1889 2.7908
-8.7429 4.2201 2.7908
-9.4991 2.0078 2.7908
-9.7071 -0.3214 2.7908
-9.3544 -2.6341 2.7908
-8.4604 -4.7976 2.7908
-6.6890 -6.3221 2.6384
-4.9896 -7.7459 2.6384
-3.1703 -9.2276 2.7908
-0.6776 -7.5388 2.1626
1.2256 -8.0206 2.3159
3.1259 -7.5423 2.3283
5.8023 -7.8892 2.7908
7.1116 -5.9346 2.6384
8.3332 -4.0685 2.6410
9.0689 -1.9611 2.6427
9.2724 0.2622 2.6430
8.9318 2.4672 2.6417
8.0693 4.5217 2.6392
3.5754 3.3444 1.3982
2.6882 4.1257 1.4079
1.6302 4.6652 1.4145
0.9223 9.6957 2.7908
-1.4204 9.6253 2.7908
-3.4759 8.5075 2.6384
-5.4051 7.4249 2.6384
-7.4257 6.2565 2.7908
-8.7043 4.2990 2.7908
-9.4804 2.0937 2.7908
-9.7094 -0.2335 2.7908
-9.3776 -2.5492 2.7908
-8.5032 -4.7207 2.7908
-6.7457 -6.2610 2.6384
-5.0592 -7.7001 2.6384
-3.2536 -9.1982 2.7908
-0.7464 -7.5385 2.1645
1.1545 -8.0419 2.3190
3.0460 -7.5418 2.3196
5.7306 -7.9412 2.7908
7.0603 -6.0009 2.6395
8.2958 -4.1436 2.6409
9.0507 -2.0430 2.6427
8.0222 0.1542 2.2861
8.9543 2.3864 2.6418
8.1105 4.4489 2.6393
7.1968 6.6108 2.7908
2.7249 4.1005 1.4076
1.6722 4.6498 1.4143
1.0101 9.6874 2.7908
-1.3332 9.6381 2.7908
-3.3989 8.5389 2.6384
-5.3378 7.4737 2.6384
-7.3688 6.3235 2.7908
-8.6651 4.3776 2.7908
-9.4610 2.1794 2.7908
-9.7109 -0.1456 2.7908
-9.4001 -2.4642 2.7908
-8.5453 -4.6434 2.7908
-6.8018 -6.1995 2.6384
-5.1285 -7.6537 2.6384
-3.3365 -9.1679 2.7908
-0.8153 -7.5381 2.1665
1.0853 -8.0791 2.3269
2.9667 -7.5413 2.3112
5.6583 -7.9925 2.7908
7.0436 -6.0974 2.6537
8.2576 -4.2183 2.6409
9.0318 -2.1248 2.6426
8.0502 0.0819 2.2937
8.9759 2.3055 2.6419
8.1510 4.3756 2.6394
7.2566 6.5455 2.7908
2.7614 4.0749 1.4073
1.7140 4.6341 1.4141
1.0977 9.6782 2.7908
-1.2460 9.6502 2.7908
-3.3215 8.5695 2.6384
-5.2701 7.5218 2.6384
-7.3114 6.3900 2.7908
-8.6251 4.4559 2.7908
-9.4408 2.2649 2.7908
-9.7117 -0.0577 2.7908
-9.4217 -2.3789 2.7908
-8.5867 -4.5657 2.7908
-6.8574 -6.1374 2.6384
-5.1973 -7.6067 2.6384
-3.4192 -9.1370 2.7908
-0.8843 -7.5378 2.1687
1.0183 -8.1377 2.3411
2.8881 -7.5408 2.3030
5.5857 -8.0432 2.7908
7.0373 -6.2041 2.6725
8.2188 -4.2927 2.6408
9.0121 -2.2064 2.6426
9.2767 0.0105 2.6430
8.9969 2.2243 2.6420
8.1909 4.3020 2.6395
7.3158 6.4801 2.7908
2.7977 4.0490 1.4069
1.7557 4.6179 1.4139
1.1854 9.6683 2.7908
-1.1587 9.6614 2.7908
-3.2440 8.5995 2.6384
-5.2019 7.5694 2.6384
-7.2533 6.4560 2.7908
-8.5845 4.5338 2.7908
-9.4199 2.3503 2.7908
-9.7117 0.0303 2.7908
-9.4426 -2.2935 2.7908
-8.6274 -4.4876 2.7908
-7.3117 -6.4258 2.7908
-5.2658 -7.5590 2.6384
-3.5016 -9.1053 2.7908
-0.9535 -7.5375 2.1711
0.9553 -8.2374 2.3673
2.8099 -7.5403 2.2950
5.5126 -8.0932 2.7908
7.0310 -6.3125 2.6917
8.1793 -4.3667 2.6407
8.9917 -2.2878 2.6425
9.2766 -0.0734 2.6430
9.0171 2.1429 2.6420
8.2302 4.2281 2.6396
7.3411 6.3848 2.7782
2.8337 4.0228 1.4066
1.7972 4.6014 1.4137
1.2728 9.6576 2.7908
-1.0712 9.6718 2.7908
-3.1661 8.6288 2.6384
-5.1333 7.6163 2.6384
-7.1947 6.5215 2.7908
-8.5431 4.6114 2.7908
-9.3981 2.4354 2.7908
-9.7108 0.1182 2.7908
-9.4628 -2.2078 2.7908
-8.6674 -4.4092 2.7908
-7.3692 -6.3592 2.7908
-5.3337 -7.5108 2.6384
-3.5837 -9.0729 2.7908
-1.0228 -7.5372 2.1737
1.0382 -9.7208 2.7908
2.7323 -7.5398 2.2873
5.4390 -8.1425 2.7908
7.0245 -6.4224 2.7114
8.1392 -4.4403 2.6406
8.9705 -2.3690 2.6425
9.2758 -0.1574 2.6430
9.0366 2.0613 2.6421
8.2687 4.1538 2.6398
7.3421 6.2700 2.7569
2.8694 3.9962 1.4063
1.8386 4.5845 1.4135
1.3602 9.6461 2.7908
-0.9837 9.6815 2.7908
-3.0880 8.6572 2.6384
-5.0642 7.6627 2.6384
-7.1354 6.5864 2.7908
-8.5010 4.6886 2.7908
-9.3757 2.5204 2.7908
-9.7092 0.2061 2.7908
-9.4821 -2.1221 2.7908
-8.7066 -4.3305 2.7908
-7.4262 -6.2920 2.7908
-5.4012 -7.4619 2.6384
-3.6655 -9.0397 2.7908
-1.0923 -7.5368 2.1764
0.9502 -9.7294 2.7908
2.6552 -7.5394 2.2799
5.3650 -8.1912 2.7908
7.0179 -6.5339 2.7316
8.0983 -4.5136 2.6405
8.9486 -2.4501 2.6425
9.2741 -0.2412 2.6430
9.0553 1.9797 2.6421
8.3065 4.0791 2.6399
7.3430 6.1567 2.7362
2.9048 3.9693 1.4060
1.8798 4.5672 1.4133
1.4475 9.6337 2.7908
-0.8960 9.6904 2.7908
-3.0615 8.8352 2.6840
-4.9948 7.7084 2.6384
-7.0756 6.6509 2.7908
-8.4583 4.7654 2.7908
-9.3524 2.6051 2.7908
-9.7068 0.2939 2.7908
-9.5007 -2.0361 2.7908
-8.7452 -4.2514 2.7908
-7.4825 -6.2243 2.7908
-5.4683 -7.4124 2.6384
-3.7470 -9.0057 2.7908
-1.1620 -7.5365 2.1794
0.8621 -9.7372 2.7908
2.5786 -7.5389 2.2727
5.2906 -8.2392 2.7908
7.0112 -6.6471 2.7523
8.0569 -4.5864 2.6404
8.9260 -2.5308 2.6424
9.2717 -0.3250 2.6430
9.0732 1.8977 2.6422
8.3437 4.0041 2.6400
7.3439 6.0452 2.7159
2.9401 3.9421 1.4056
1.9209 4.5494 1.4131
1.5347 9.6206 2.7908
-0.8083 9.6984 2.7908
-3.0462 9.0550 2.7422
-4.9249 7.7534 2.6384
-7.0153 6.7147 2.7908
-4.8124 2.7689 1.5961
-9.3284 2.6897 2.7908
-9.7036 0.3818 2.7908
-9.5185 -1.9500 2.7908
-8.7830 -4.1719 2.7908
-7.5383 -6.1560 2.7908
-5.5349 -7.3623 2.6384
-3.8282 -8.9711 2.7908
-1.2319 -7.5362 2.1825
0.7739 -9.7443 2.7908
2.5025 -7.5384 2.2657
5.2158 -8.2865 2.7908
7.0043 -6.7618 2.7735
8.0147 -4.6589 2.6403
8.9026 -2.6114 2.6424
9.2686 -0.4090 2.6430
9.0904 1.8157 2.6423
8.3802 3.9287 2.6401
7.3448 5.9352 2.6961
2.9750 3.9145 1.4053
1.9617 4.5314 1.4129
1.6218 9.6067 2.7908
-0.7205 9.7057 2.7908
-3.0168 9.2435 2.7908
-4.8547 7.7979 2.6384
-6.5745 6.4079 2.6384
-4.7812 2.8089 1.5941
-9.3036 2.7740 2.7908
-9.6996 0.4696 2.7908
-9.5356 -1.8637 2.7908
-8.8202 -4.0921 2.7908
-7.5934 -6.0873 2.7908
-5.6011 -7.3116 2.6384
-3.9090 -8.9357 2.7908
-1.3019 -7.5359 2.1858
0.6857 -9.7505 2.7908
2.4269 -7.5379 2.2589
5.1404 -8.3332 2.7908
6.9861 -6.8675 2.7908
7.9718 -4.7310 2.6402
8.8785 -2.6918 2.6423
9.2646 -0.4929 2.6430
9.1069 1.7334 2.6423
8.4160 3.8530 2.6402
7.3455 5.8266 2.6768
3.0097 3.8867 1.4049
2.0024 4.5129 1.4126
1.7087 9.5921 2.7908
-0.6327 9.7122 2.7908
-2.9331 9.2707 2.7908
-4.7840 7.8417 2.6384
-6.5164 6.4673 2.6384
-8.3259 4.9933 2.7908
-9.2781 2.8581 2.7908
-9.6948 0.5574 2.7908
-9.5518 -1.7772 2.7908
-8.8566 -4.0119 2.7908
-7.6479 -6.0181 2.7908
-5.6668 -7.2603 2.6384
-3.9895 -8.8996 2.7908
-1.3722 -7.5356 2.1893
0.5975 -9.7559 2.7908
2.3517 -7.5375 2.2524
5.0647 -8.3791 2.7908
6.9236 -6.9303 2.7908
7.9283 -4.8027 2.6401
8.8536 -2.7720 2.6422
9.2599 -0.5767 2.6430
9.1226 1.6510 2.6424
8.4511 3.7770 2.6403
7.3463 5.7200 2.6581
3.0441 3.8585 1.4046
2.0429 4.4940 1.4124
1.7955 9.5766 2.7908
-0.5448 9.7179 2.7908
-2.8491 9.2972 2.7908
-4.7129 7.8849 2.6384
-6.4576 6.5264 2.6384
-8.2804 5.0685 2.7908
-9.2518 2.9420 2.7908
-9.6892 0.6451 2.7908
-9.5673 -1.6907 2.7908
-8.8922 -3.9315 2.7908
-7.7017 -5.9485 2.7908
-5.7320 -7.2084 2.6384
-4.0697 -8.8628 2.7908
-1.4427 -7.5353 2.1930
0.5091 -9.7606 2.7908
2.2769 -7.5370 2.2461
4.9886 -8.4244 2.7908
6.8605 -6.9925 2.7908
7.8842 -4.8740 2.6399
8.8280 -2.8519 2.6422
9.2545 -0.6604 2.6430
9.1376 1.5686 2.6424
8.4855 3.7007 2.6404
7.3555 5.6209 2.6428
3.0782 3.8300 1.4042
2.0832 4.4748 1.4122
1.8822 9.5604 2.7908
-0.4569 9.7228 2.7908
-2.7650 9.3230 2.7908
-4.6415 7.9274 2.6384
-6.3984 6.5844 2.6384
-8.2342 5.1433 2.7908
-9.2247 3.0256 2.7908
-9.6828 0.7327 2.7908
-9.5820 -1.6040 2.7908
-8.9272 -3.8508 2.7908
-7.7550 -5.8783 2.7908
-5.7968 -7.1560 2.6384
-4.1496 -8.8252 2.7908
-1.5134 -7.5350 2.1969
0.4208 -9.7644 2.7908
2.2026 -7.5366 2.2400
4.9120 -8.4690 2.7908
6.7969 -7.0542 2.7908
7.8394 -4.9449 2.6398
8.8017 -2.9316 2.6421
9.2482 -0.7440 2.6430
9.1518 1.4859 2.6425
8.5192 3.6240 2.6405
7.3942 5.5452 2.6384
3.1121 3.8012 1.4039
2.1234 4.4552 1.4119
1.9687 9.5433 2.7908
-0.3688 9.7269 2.7908
-2.6805 9.3479 2.7908
-4.5696 7.9693 2.6384
-6.3386 6.6422 2.6384
-8.1874 5.2176 2.7908
-9.1969 3.1089 2.7908
-9.6757 0.8203 2.7908
-9.5959 -1.5172 2.7908
-8.9614 -3.7697 2.7908
-7.8076 -5.8076 2.7908
-5.8611 -7.1029 2.6384
-4.2291 -8.7869 2.7908
-1.5844 -7.5347 2.2010
0.3324 -9.7674 2.7908
2.1286 -7.5361 2.2341
4.8351 -8.5129 2.7908
6.7326 -7.1153 2.7908
7.7940 -5.0154 2.6397
8.7747 -3.0111 2.6421
9.2412 -0.8278 2.6430
9.1652 1.4030 2.6425
8.5523 3.5469 2.6406
7.4443 5.4783 2.6384
3.1457 3.7721 1.4035
2.1633 4.4352 1.4117
2.0550 9.5255 2.7908
-0.2809 9.7302 2.7908
-2.5960 9.3721 2.7908
-4.4975 8.0105 2.6384
-6.2784 6.6993 2.6384
-8.1399 5.2915 2.7908
-9.1684 3.1920 2.7908
-9.6677 0.9079 2.7908
-9.6090 -1.4302 2.7908
-8.9949 -3.6883 2.7908
-7.8596 -5.7365 2.7908
-5.9249 -7.0493 2.6384
-4.3083 -8.7479 2.7908
-1.6557 -7.5343 2.2053
0.2440 -9.7697 2.7908
2.0551 -7.5357 2.2284
4.7577 -8.5561 2.7908
6.6679 -7.1758 2.7908
7.7479 -5.0855 2.6396
8.7469 -3.0903 2.6420
9.2334 -0.9113 2.6430
9.1779 1.3202 2.6426
8.5846 3.4698 2.6407
7.5036 5.4180 2.6419
3.1790 3.7426 1.4032
2.2030 4.4149 1.4114
1.6113 7.1543 2.1002
-0.1928 9.7327 2.7908
-2.5111 9.3955 2.7908
-4.4249 8.0511 2.6384
-6.2176 6.7560 2.6384
-8.0917 5.3651 2.7908
-9.1391 3.2749 2.7908
-9.6590 0.9954 2.7908
-9.6213 -1.3431 2.7908
-9.0276 -3.6066 2.7908
-7.9109 -5.6649 2.7908
-5.9882 -6.9951 2.6384
-4.3871 -8.7082 2.7908
-1.7273 -7.5340 2.2098
0.1556 -9.7711 2.7908
1.9819 -7.5352 2.2230
4.6800 -8.5985 2.7908
6.6026 -7.2357 2.7908
7.7013 -5.1550 2.6395
8.7184 -3.1691 2.6419
8.9171 -0.9615 2.5548
9.1898 1.2372 2.6426
8.6162 3.3922 2.6408
7.5427 5.3431 2.6384
3.2120 3.7129 1.4028
2.2426 4.3942 1.4112
1.6098 6.8574 2.0172
-0.1047 9.7345 2.7908
-2.4260 9.4182 2.7908
-4.3519 8.0910 2.6384
-6.1563 6.8122 2.6384
-8.0429 5.4382 2.7908
-9.1090 3.3575 2.7908
-9.6495 1.0828 2.7908
-9.6329 -1.2559 2.7908
-9.0596 -3.5246 2.7908
-7.9615 -5.5929 2.7908
-6.0511 -6.9403 2.6384
-4.2217 -8.1944 2.6384
-1.7991 -7.5337 2.2145
0.0671 -9.7717 2.7908
1.9090 -7.5348 2.2177
4.6020 -8.6402 2.7908
6.5369 -7.2949 2.7908
7.6539 -5.2242 2.6394
8.6892 -3.2477 2.6419
8.8906 -1.0401 2.5498
9.2009 1.1540 2.6426
8.6471 3.3143 2.6409
7.5911 5.2748 2.6385
3.2448 3.6829 1.4024
2.2819 4.3731 1.4109
1.6084 6.5831 1.9406
-0.0166 9.7354 2.7908
-2.3408 9.4401 2.7908
-4.2786 8.1303 2.6384
-6.0945 6.8677 2.6384
-7.9934 5.5108 2.7908
-9.0783 3.4398 2.7908
-9.6391 1.1701 2.7908
-9.6437 -1.1687 2.7908
-9.0909 -3.4424 2.7908
-8.0116 -5.5204 2.7908
-4.9547 -5.5800 2.1384
-4.2955 -8.1555 2.6384
-1.8713 -7.5334 2.2194
-0.0177 -8.1674 2.3327
1.8367 -7.5344 2.2127
4.5235 -8.6813 2.7908
6.4705 -7.3536 2.7908
7.6059 -5.2929 2.6393
8.6592 -3.3261 2.6418
9.2055 -1.1614 2.6430
9.2113 1.0707 2.6427
8.6773 3.2362 2.6410
7.6388 5.2061 2.6385
3.2772 3.6525 1.4020
2.3211 4.3516 1.4107
1.6072 6.3288 1.8698
0.0715 9.7355 2.7908
-2.2553 9.4612 2.7908
-4.2049 8.1689 2.6384
-6.0322 6.9227 2.6384
-7.9432 5.5830 2.7908
-9.0467 3.5219 2.7908
-9.6280 1.2573 2.7908
-9.6536 -1.0813 2.7908
-9.1214 -3.3598 2.7908
-8.0609 -5.4475 2.7908
-5.0344 -5.5675 2.1510
-4.3688 -8.1160 2.6384
-1.9436 -7.5331 2.2245
-0.0908 -8.0950 2.3122
1.7645 -7.5339 2.2079
4.4447 -8.7216 2.7908
6.4036 -7.4117 2.7908
7.5573 -5.3612 2.6391
8.6286 -3.4043 2.6417
9.1947 -1.2447 2.6429
9.2210 0.9875 2.6427
8.7067 3.1577 2.6411
7.6859 5.1370 2.6385
3.3094 3.6219 1.4017
2.3600 4.3298 1.4104
1.6059 6.0924 1.8041
0.1597 9.7348 2.7908
-2.1696 9.4815 2.7908
-4.1309 8.2069 2.6384
-5.9693 6.9772 2.6384
-7.8924 5.6548 2.7908
-9.0145 3.6036 2.7908
-9.6161 1.3444 2.7908
-9.6628 -0.9938 2.7908
-9.1512 -3.2770 2.7908
-8.1095 -5.3742 2.7908
-6.2364 -6.7728 2.6384
-4.4419 -8.0758 2.6384
-2.0164 -7.5328 2.2298
-0.1632 -8.0531 2.3007
1.6926 -7.5335 2.2033
4.3655 -8.7612 2.7908
6.3361 -7.4692 2.7908
7.5081 -5.4291 2.6390
8.5972 -3.4821 2.6417
9.1831 -1.3278 2.6429
9.2299 0.9040 2.6428
8.7355 3.0790 2.6411
7.7324 5.0675 2.6385
3.3412 3.5909 1.4013
2.3988 4.3076 1.4101
1.6048 5.8720 1.7430
0.2478 9.7334 2.7908
-2.0838 9.5011 2.7908
-4.0566 8.2442 2.6384
-5.9060 7.0311 2.6384
-7.8410 5.7259 2.7908
-8.9815 3.6851 2.7908
-9.6035 1.4312 2.7908
-9.6712 -0.9065 2.7908
-9.1802 -3.1941 2.7908
-8.1575 -5.3004 2.7908
-6.2972 -6.7158 2.6384
-4.5146 -8.0350 2.6384
-2.0896 -7.5325 2.2353
-0.2354 -8.0299 2.2947
1.6211 -7.5331 2.1988
4.2859 -8.8001 2.7908
6.2682 -7.5261 2.7908
7.4582 -5.4965 2.6389
7.6419 -3.1759 2.3569
9.1707 -1.4108 2.6429
9.2380 0.8205 2.6428
8.7635 3.0000 2.6412
7.7782 4.9974 2.6385
3.3728 3.5597 1.4009
2.4373 4.2850 1.4098
1.6038 5.6660 1.6860
0.3359 9.7311 2.7908
-1.9978 9.5199 2.7908
-3.9819 8.2808 2.6384
-5.8423 7.0844 2.6384
-7.7890 5.7967 2.7908
-8.9478 3.7661 2.7908
-9.5901 1.5181 2.7908
-9.6788 -0.8188 2.7908
-9.2085 -3.1108 2.7908
-8.2049 -5.2262 2.7908
-6.3575 -6.6582 2.6384
-4.5870 -7.9934 2.6384
-2.1631 -7.5322 2.2410
-0.2894 -7.5407 2.1556
1.5498 -7.5327 2.1946
4.2060 -8.8383 2.7908
6.1997 -7.5823 2.7908
7.4078 -5.5634 2.6388
7.6153 -3.2460 2.3576
9.1576 -1.4937 2.6429
9.2453 0.7369 2.6428
8.7908 2.9208 2.6413
7.8234 4.9270 2.6385
3.4041 3.5282 1.4005
2.4756 4.2621 1.4096
1.6028 5.4730 1.6327
0.4240 9.7281 2.7908
-1.9116 9.5379 2.7908
-3.9070 8.3167 2.6384
-5.7781 7.1370 2.6384
-7.7363 5.8670 2.7908
-8.9133 3.8469 2.7908
-9.5758 1.6048 2.7908
-9.6857 -0.7312 2.7908
-9.2360 -3.0272 2.7908
-8.2516 -5.1515 2.7908
-6.4172 -6.6001 2.6384
-4.6589 -7.9513 2.6384
-2.2370 -7.5319 2.2469
-0.3577 -7.5403 2.1564
1.4788 -7.5323 2.1906
4.1257 -8.8757 2.7908
6.1307 -7.6380 2.7908
7.3567 -5.6299 2.6386
8.4988 -3.7138 2.6414
9.1437 -1.5766 2.6429
9.2519 0.6533 2.6428
8.8174 2.8413 2.6414
7.8682 4.8564 2.6386
3.4350 3.4964 1.4001
2.5136 4.2389 1.4093
1.6019 5.2918 1.5829
0.5119 9.7242 2.7908
-1.8254 9.5552 2.7908
-3.8317 8.3519 2.6384
-5.7134 7.1892 2.6384
-7.6829 5.9369 2.7908
-8.8781 3.9275 2.7908
-9.5608 1.6914 2.7908
-9.6917 -0.6434 2.7908
-9.2627 -2.9434 2.7908
-8.2976 -5.0764 2.7908
-6.4764 -6.5415 2.6384
-4.7305 -7.9084 2.6384
-2.5001 -8.1471 2.4372
-0.4261 -7.5400 2.1574
1.4081 -7.5319 2.1867
4.0451 -8.9124 2.7908
6.0612 -7.6930 2.7908
7.3050 -5.6958 2.6385
8.4646 -3.7904 2.6413
9.1290 -1.6593 2.6428
9.2577 0.5695 2.6429
8.8433 2.7615 2.6415
7.9125 4.7854 2.6387
3.4657 3.4644 1.3997
2.5514 4.2153 1.4090
1.6010 5.1217 1.5362
0.5999 9.7196 2.7908
-1.7389 9.5716 2.7908
-3.7560 8.3865 2.6384
-5.6482 7.2408 2.6384
-7.6289 6.0062 2.7908
-8.8422 4.0077 2.7908
-9.5450 1.7779 2.7908
-9.6969 -0.5557 2.7908
-9.2888 -2.8593 2.7908
-8.3429 -5.0009 2.7908
-6.5351 -6.4824 2.6384
-4.8017 -7.8650 2.6384
-2.9471 -9.3025 2.7908
-0.4946 -7.5397 2.1586
1.3376 -7.5315 2.1831
3.9642 -8.9484 2.7908
5.9913 -7.7473 2.7908
7.2530 -5.7615 2.6384
8.4297 -3.8667 2.6413
9.1136 -1.7418 2.6428
9.2627 0.4857 2.6429
8.8684 2.6816 2.6416
7.9561 4.7142 2.6388
3.4960 3.4321 1.3993
2.5890 4.1914 1.4087
1.6002 4.9609 1.4922
0.6879 9.7141 2.7908
-1.6522 9.5873 2.7908
-3.6800 8.4204 2.6384
-5.5825 7.2918 2.6384
-7.5743 6.0751 2.7908
-8.8056 4.0876 2.7908
-9.5284 1.8642 2.7908
-9.7014 -0.4678 2.7908
-9.3140 -2.7751 2.7908
-8.3875 -4.9250 2.7908
-6.5933 -6.4227 2.6384
-4.8725 -7.8209 2.6384
-3.0310 -9.2750 2.7908
-0.5632 -7.5393 2.1600
1.2673 -7.5311 2.1797
3.8830 -8.9837 2.7908
5.9208 -7.8011 2.7908
7.2004 -5.8266 2.6384
8.3941 -3.9427 2.6412
9.0975 -1.8240 2.6428
9.2670 0.4021 2.6429
8.8928 2.6015 2.6416
7.9990 4.6423 2.6390
3.5260 3.3994 1.3989
2.6264 4.1670 1.4084
1.5994 4.8091 1.4508
0.7758 9.7079 2.7908
-1.5654 9.6022 2.7908
-3.6038 8.4536 2.6384
-5.5164 7.3422 2.6384
-7.5191 6.1435 2.7908
-8.7682 4.1672 2.7908
-9.5111 1.9504 2.7908
-9.7051 -0.3800 2.7908
-9.3385 -2.6906 2.7908
-8.4315 -4.8487 2.7908
-6.6509 -6.3625 2.6384
-4.9428 -7.7761 2.6384
-3.1147 -9.2468 2.7908
-0.6318 -7.5390 2.1615
1.2510 -7.8685 2.2740
3.1795 -7.5427 2.3342
5.8498 -7.8541 2.7908
7.1474 -5.8915 2.6384
8.3579 -4.0182 2.6411
9.0806 -1.9062 2.6427
9.2705 0.3183 2.6429
8.9164 2.5211 2.6417
8.0414 4.5701 2.6391
3.5557 3.3665 1.3985
2.6635 4.1424 1.4081
1.6020 4.6753 1.4146
0.8637 9.7009 2.7908
-1.4785 9.6163 2.7908
-3.5272 8.4862 2.6384
-5.4498 7.3920 2.6384
-7.4633 6.2114 2.7908
-8.7301 4.2464 2.7908
-9.4929 2.0364 2.7908
-9.7079 -0.2921 2.7908
-9.3622 -2.6058 2.7908
-8.4748 -4.7720 2.7908
-6.7079 -6.3018 2.6384
-5.0128 -7.7307 2.6384
-3.1981 -9.2179 2.7908
-0.7005 -7.5387 2.1632
1.2017 -8.0261 2.3164
3.0993 -7.5422 2.3254
5.7786 -7.9065 2.7908
7.0938 -5.9559 2.6384
8.3209 -4.0935 2.6410
9.0629 -1.9883 2.6427
9.2732 0.2344 2.6430
8.9394 2.4404 2.6418
8.0830 4.4976 2.6392
3.5851 3.3334 1.3981
2.7004 4.1174 1.4078
1.6441 4.6601 1.4144
0.9515 9.6931 2.7908
-1.3914 9.6297 2.7908
-3.4503 8.5180 2.6384
-5.3828 7.4411 2.6384
-7.4068 6.2788 2.7908
-8.6914 4.3252 2.7908
-9.4740 2.1222 2.7908
-9.7100 -0.2042 2.7908
-9.3852 -2.5209 2.7908
-8.5173 -4.6950 2.7908
-6.7644 -6.2406 2.6384
-5.0824 -7.6847 2.6384
-3.2813 -9.1882 2.7908
-0.7692 -7.5383 2.1651
1.1314 -8.0523 2.3210
3.0197 -7.5417 2.3168
5.7067 -7.9583 2.7908
7.0548 -6.0328 2.6442
8.2832 -4.1685 2.6409
9.0445 -2.0702 2.6427
8.0497 0.1306 2.2938
8.9615 2.3596 2.6418
8.1240 4.4246 2.6393
7.2167 6.5892 2.7908
2.7371 4.0920 1.4075
1.6861 4.6447 1.4143
1.0392 9.6844 2.7908
-1.3042 9.6422 2.7908
-3.3732 8.5491 2.6384
-5.3153 7.4897 2.6384
-7.3498 6.3456 2.7908
-8.6519 4.4038 2.7908
-9.4544 2.2079 2.7908
-9.7113 -0.1163 2.7908
-9.4074 -2.4358 2.7908
-8.5592 -4.6175 2.7908
-6.8204 -6.1789 2.6384
-5.1514 -7.6382 2.6384
-3.3640 -9.1578 2.7908
-0.8382 -7.5380 2.1672
1.0629 -8.0957 2.3307
2.9406 -7.5412 2.3084
5.6343 -8.0094 2.7908
7.0415 -6.1326 2.6599
8.2448 -4.2431 2.6408
9.0253 -2.1519 2.6426
8.0232 0.0575 2.2859
8.9830 2.2785 2.6419
8.1644 4.3512 2.6395
7.2763 6.5238 2.7908
2.7735 4.0664 1.4072
1.7279 4.6288 1.4141
1.1269 9.6750 2.7908
-1.2170 9.6540 2.7908
-3.2957 8.5796 2.6384
-5.2474 7.5377 2.6384
-7.2921 6.4121 2.7908
-8.6117 4.4819 2.7908
-9.4339 2.2934 2.7908
-9.7118 -0.0284 2.7908
-9.4287 -2.3506 2.7908
-8.6003 -4.5399 2.7908
-6.8757 -6.1168 2.6384
-5.2201 -7.5909 2.6384
-3.4466 -9.1266 2.7908
-0.9073 -7.5377 2.1695
0.9968 -8.1642 2.3479
2.8620 -7.5407 2.3003
5.5615 -8.0599 2.7908
7.0353 -6.2400 2.6788
8.2058 -4.3173 2.6407
9.0054 -2.2335 2.6426
9.2768 -0.0173 2.6430
9.0037 2.1973 2.6420
8.2040 4.2775 2.6396
7.3353 6.4579 2.7908
2.8097 4.0403 1.4068
1.7696 4.6125 1.4139
1.2145 9.6648 2.7908
-1.1296 9.6649 2.7908
-3.2180 8.6094 2.6384
-5.1791 7.5851 2.6384
-7.2338 6.4779 2.7908
-8.5708 4.5597 2.7908
-9.4128 2.3785 2.7908
-9.7115 0.0594 2.7908
-9.4494 -2.2651 2.7908
-8.6407 -4.4617 2.7908
-7.3308 -6.4037 2.7908
-5.2883 -7.5431 2.6384
-3.5289 -9.0946 2.7908
-0.9765 -7.5374 2.1719
0.9367 -8.2957 2.3832
2.7841 -7.5402 2.2925
5.4882 -8.1097 2.7908
7.0289 -6.3489 2.6982
8.1661 -4.3912 2.6406
8.9848 -2.3148 2.6425
9.2764 -0.1013 2.6430
9.0237 2.1158 2.6420
8.2430 4.2034 2.6397
7.3414 6.3463 2.7711
2.8456 4.0140 1.4065
1.8110 4.5958 1.4137
1.3019 9.6538 2.7908
-1.0421 9.6751 2.7908
-3.1401 8.6384 2.6384
-5.1103 7.6318 2.6384
-7.1751 6.5431 2.7908
-8.5292 4.6370 2.7908
-9.3908 2.4636 2.7908
-9.7104 0.1473 2.7908
-9.4693 -2.1794 2.7908
-8.6805 -4.3831 2.7908
-7.3882 -6.3369 2.7908
-5.3562 -7.4946 2.6384
-3.6109 -9.0619 2.7908
-1.0459 -7.5371 2.1746
1.0090 -9.7237 2.7908
2.7066 -7.5397 2.2848
5.4145 -8.1588 2.7908
7.0224 -6.4593 2.7180
8.1257 -4.4647 2.6405
8.9634 -2.3960 2.6425
9.2753 -0.1853 2.6430
9.0429 2.0342 2.6421
8.2814 4.1290 2.6398
7.3424 6.2320 2.7500
2.8812 3.9873 1.4062
1.8524 4.5787 1.4135
1.3893 9.6420 2.7908
-0.9545 9.6845 2.7908
-3.0714 8.6932 2.6466
-5.0412 7.6779 2.6384
-7.1157 6.6079 2.7908
-8.4869 4.7141 2.7908
-9.3680 2.5485 2.7908
-9.7085 0.2352 2.7908
-9.4884 -2.0935 2.7908
-8.7195 -4.3042 2.7908
-7.4450 -6.2695 2.7908
-5.4236 -7.4455 2.6384
-3.6926 -9.0285 2.7908
-1.1155 -7.5367 2.1774
0.9209 -9.7321 2.7908
2.6297 -7.5392 2.2775
5.3403 -8.2073 2.7908
7.0157 -6.5714 2.7384
8.0846 -4.5379 2.6404
8.9412 -2.4770 2.6424
9.2734 -0.2692 2.6430
9.0613 1.9524 2.6422
8.3190 4.0542 2.6399
7.3433 6.1194 2.7293
2.9166 3.9603 1.4058
1.8935 4.5613 1.4132
1.4764 9.6295 2.7908
-0.8670 9.6931 2.7908
-3.0565 8.9070 2.7030
-4.9716 7.7234 2.6384
-7.0557 6.6721 2.7908
-8.4440 4.7907 2.7908
-9.3445 2.6332 2.7908
-9.7058 0.3231 2.7908
-9.5067 -2.0075 2.7908
-8.7579 -4.2250 2.7908
-7.5011 -6.2016 2.7908
-5.4905 -7.3958 2.6384
-3.7740 -8.9943 2.7908
-1.1852 -7.5364 2.1804
0.8328 -9.7397 2.7908
2.5532 -7.5387 2.2703
5.2657 -8.2551 2.7908
7.0089 -6.6851 2.7593
8.0429 -4.6106 2.6403
8.9183 -2.5577 2.6424
9.2708 -0.3530 2.6430
9.0791 1.8704 2.6422
8.3560 3.9790 2.6400
7.3442 6.0085 2.7093
2.9517 3.9330 1.4055
1.9344 4.5435 1.4130
1.5636 9.6161 2.7908
-0.7792 9.7009 2.7908
-3.0409 9.1299 2.7621
-4.9016 7.7683 2.6384
-6.9951 6.7358 2.7908
-4.7947 2.7780 1.5929
-9.3202 2.7177 2.7908
-9.7023 0.4110 2.7908
-9.5243 -1.9213 2.7908
-8.7955 -4.1454 2.7908
-7.5567 -6.1332 2.7908
-5.5570 -7.3455 2.6384
-3.8551 -8.9594 2.7908
-1.2551 -7.5361 2.1836
0.7446 -9.7464 2.7908
2.4773 -7.5383 2.2634
5.1907 -8.3022 2.7908
7.0020 -6.8005 2.7807
8.0005 -4.6830 2.6402
8.8947 -2.6383 2.6423
9.2673 -0.4369 2.6430
9.0960 1.7884 2.6423
8.3922 3.9037 2.6401
7.3450 5.8991 2.6897
2.9865 3.9053 1.4052
1.9752 4.5253 1.4128
1.6506 9.6020 2.7908
-0.6914 9.7079 2.7908
-2.9890 9.2527 2.7908
-4.8312 7.8125 2.6384
-6.5553 6.4277 2.6384
-4.7788 2.8269 1.5961
-9.2952 2.8020 2.7908
-9.6981 0.4988 2.7908
-9.5410 -1.8350 2.7908
-8.8323 -4.0655 2.7908
-7.6116 -6.0644 2.7908
-5.6230 -7.2946 2.6384
-3.9358 -8.9238 2.7908
-1.3253 -7.5358 2.1870
0.6563 -9.7524 2.7908
2.4018 -7.5378 2.2567
5.1152 -8.3486 2.7908
6.9654 -6.8885 2.7908
7.9574 -4.7550 2.6401
8.8703 -2.7186 2.6423
9.2632 -0.5208 2.6430
9.1122 1.7060 2.6423
8.4278 3.8277 2.6402
7.3458 5.7908 2.6705
3.0212 3.8773 1.4048
2.0159 4.5066 1.4126
1.7377 9.5870 2.7908
-0.6034 9.7142 2.7908
-2.9051 9.2797 2.7908
-4.7603 7.8562 2.6384
-6.4968 6.4870 2.6384
-8.3109 5.0182 2.7908
-9.2695 2.8858 2.7908
-9.6930 0.5864 2.7908
-9.5570 -1.7486 2.7908
-8.8684 -3.9854 2.7908
-7.6658 -5.9951 2.7908
-5.6885 -7.2432 2.6384
-4.0161 -8.8875 2.7908
-1.3955 -7.5355 2.1905
0.5682 -9.7576 2.7908
2.3269 -7.5373 2.2503
5.0395 -8.3942 2.7908
6.9028 -6.9510 2.7908
7.9138 -4.8264 2.6400
8.8452 -2.7985 2.6422
9.2582 -0.6044 2.6430
9.1277 1.6237 2.6424
8.4626 3.7517 2.6403
7.3476 5.6848 2.6523
3.0555 3.8491 1.4045
2.0563 4.4877 1.4123
1.8243 9.5713 2.7908
-0.5156 9.7196 2.7908
-2.8212 9.3059 2.7908
-4.6892 7.8991 2.6384
-6.4380 6.5457 2.6384
-8.2651 5.0934 2.7908
-9.2429 2.9698 2.7908
-9.6872 0.6743 2.7908
-9.5723 -1.6619 2.7908
-8.9040 -3.9047 2.7908
-7.7196 -5.9251 2.7908
-5.7537 -7.1910 2.6384
-4.0964 -8.8503 2.7908
-1.4662 -7.5352 2.1943
0.4797 -9.7619 2.7908
2.2521 -7.5369 2.2440
4.9631 -8.4393 2.7908
6.8394 -7.0132 2.7908
7.8693 -4.8977 2.6399
8.8194 -2.8785 2.6422
9.2525 -0.6883 2.6430
9.1424 1.5409 2.6424
8.4969 3.6751 2.6404
7.3604 5.5895 2.6384
3.0896 3.8204 1.4041
2.0967 4.4683 1.4121
1.9111 9.5548 2.7908
-0.4278 9.7242 2.7908
-2.7371 9.3313 2.7908
-4.6178 7.9413 2.6384
-6.3787 6.6036 2.6384
-8.2188 5.1679 2.7908
-9.2156 3.0532 2.7908
-9.6805 0.7618 2.7908
-9.5867 -1.5753 2.7908
-8.9386 -3.8239 2.7908
-7.7725 -5.8549 2.7908
-5.8182 -7.1384 2.6384
-4.1760 -8.8126 2.7908
-1.5369 -7.5349 2.1983
0.3915 -9.7655 2.7908
2.1780 -7.5364 2.2380
4.8866 -8.4836 2.7908
6.7756 -7.0745 2.7908
7.8244 -4.9683 2.6398
8.7928 -2.9580 2.6421
9.2460 -0.7718 2.6430
9.1563 1.4584 2.6425
8.5303 3.5984 2.6405
7.4109 5.5230 2.6384
3.1233 3.7915 1.4038
2.1367 4.4486 1.4119
1.9974 9.5375 2.7908
-0.3396 9.7281 2.7908
-2.6524 9.3560 2.7908
-4.5457 7.9831 2.6384
-6.3186 6.6613 2.6384
-8.1717 5.2423 2.7908
-9.1875 3.1366 2.7908
-9.6731 0.8495 2.7908
-9.6003 -1.4882 2.7908
-8.9726 -3.7426 2.7908
-7.8250 -5.7840 2.7908
-5.8824 -7.0851 2.6384
-4.2555 -8.7740 2.7908
-1.6082 -7.5345 2.2024
0.3029 -9.7683 2.7908
2.1041 -7.5360 2.2322
4.8093 -8.5273 2.7908
6.7111 -7.1355 2.7908
7.7787 -5.0388 2.6397
8.7655 -3.0375 2.6420
9.2387 -0.8556 2.6430
9.1695 1.3754 2.6425
8.5630 3.5215 2.6406
7.4608 5.4563 2.6384
3.1568 3.7623 1.4034
2.1765 4.4285 1.4116
2.0836 9.5195 2.7908
-0.2517 9.7311 2.7908
-2.5679 9.3799 2.7908
-4.4735 8.0240 2.6384
-6.2583 6.7182 2.6384
-8.1240 5.3160 2.7908
-9.1588 3.2195 2.7908
-9.6649 0.9369 2.7908
-9.6132 -1.4014 2.7908
-9.0058 -3.6612 2.7908
-7.8766 -5.7129 2.7908
-5.9459 -7.0314 2.6384
-4.3344 -8.7348 2.7908
-1.6794 -7.5342 2.2068
0.2147 -9.7702 2.7908
2.0308 -7.5355 2.2266
4.7320 -8.5702 2.7908
6.6463 -7.1957 2.7908
7.7325 -5.1086 2.6396
8.7375 -3.1165 2.6420
9.2307 -0.9390 2.6430
9.1819 1.2926 2.6426
8.5952 3.4440 2.6407
7.5102 5.3883 2.6384
3.1900 3.7328 1.4030
2.2162 4.4080 1.4114
1.6108 7.0526 2.0717
-0.1634 9.7334 2.7908
-2.4828 9.4031 2.7908
-4.4006 8.0645 2.6384
-6.1972 6.7748 2.6384
-8.0755 5.3895 2.7908
-9.1292 3.3025 2.7908
-9.6559 1.0245 2.7908
-9.6253 -1.3141 2.7908
-9.0384 -3.5793 2.7908
-7.9278 -5.6410 2.7908
-6.0092 -6.9769 2.6384
-4.4133 -8.6948 2.7908
-1.7512 -7.5339 2.2114
0.1261 -9.7714 2.7908
1.9575 -7.5351 2.2212
4.6540 -8.6125 2.7908
6.5807 -7.2555 2.7908
7.6856 -5.1779 2.6395
8.7088 -3.1952 2.6419
8.9174 -0.9886 2.5557
9.1936 1.2097 2.6426
8.6265 3.3664 2.6408
7.5588 5.3206 2.6384
3.2229 3.7030 1.4027
2.2557 4.3872 1.4111
1.6094 6.7641 1.9911
-0.0755 9.7348 2.7908
-2.3978 9.4255 2.7908
-4.3277 8.1041 2.6384
-6.1359 6.8306 2.6384
-8.0266 5.4623 2.7908
-9.0989 3.3848 2.7908
-9.6461 1.1117 2.7908
-9.6365 -1.2270 2.7908
-9.0701 -3.4974 2.7908
-7.9782 -5.5689 2.7908
-4.9455 -5.6380 2.1490
-4.2462 -8.1816 2.6384
-1.8230 -7.5336 2.2161
0.0320 -8.2593 2.3589
1.8850 -7.5347 2.2161
4.5759 -8.6540 2.7908
6.5148 -7.3145 2.7908
7.6380 -5.2471 2.6393
8.6793 -3.2739 2.6418
9.2123 -1.1059 2.6430
9.2045 1.1264 2.6427
8.6572 3.2883 2.6409
7.6071 5.2520 2.6385
3.2556 3.6728 1.4023
2.2950 4.3660 1.4108
1.6080 6.4962 1.9164
0.0128 9.7355 2.7908
-2.3123 9.4472 2.7908
-4.2541 8.1433 2.6384
-6.0738 6.8861 2.6384
-7.9767 5.5349 2.7908
-9.0678 3.4672 2.7908
-9.6355 1.1991 2.7908
-9.6471 -1.1395 2.7908
-9.1012 -3.4149 2.7908
-8.0281 -5.4961 2.7908
-4.9737 -5.5676 2.1394
-4.3200 -8.1424 2.6384
-1.8954 -7.5333 2.2211
-0.0420 -8.1384 2.3244
1.8127 -7.5342 2.2111
4.4974 -8.6947 2.7908
6.4483 -7.3729 2.7908
7.5899 -5.3156 2.6392
8.6492 -3.3521 2.6418
9.2020 -1.1891 2.6430
9.2146 1.0431 2.6427
8.6871 3.2102 2.6410
7.6545 5.1833 2.6385
3.2879 3.6424 1.4019
2.3340 4.3444 1.4106
1.6067 6.2486 1.8474
0.1008 9.7354 2.7908
-2.2269 9.4680 2.7908
-4.1805 8.1816 2.6384
-6.0114 6.9408 2.6384
-7.9265 5.6069 2.7908
-9.0361 3.5490 2.7908
-9.6242 1.2861 2.7908
-9.6568 -1.0523 2.7908
-9.1314 -3.3324 2.7908
-8.0771 -5.4232 2.7908
-6.1956 -6.8105 2.6384
-4.3932 -8.1027 2.6384
-1.9678 -7.5330 2.2262
-0.1149 -8.0785 2.3076
1.7405 -7.5338 2.2063
4.4183 -8.7349 2.7908
6.3811 -7.4309 2.7908
7.5410 -5.3839 2.6391
8.6182 -3.4302 2.6417
9.1909 -1.2724 2.6429
9.2240 0.9596 2.6427
8.7164 3.1315 2.6411
7.7015 5.1139 2.6385
3.3200 3.6116 1.4015
2.3730 4.3224 1.4103
1.6056 6.0173 1.7832
0.1890 9.7344 2.7908
-2.1410 9.4885 2.7908
-4.1062 8.2194 2.6384
-5.9483 6.9952 2.6384
-7.8753 5.6785 2.7908
-9.0035 3.6308 2.7908
-9.6120 1.3734 2.7908
-9.6657 -0.9647 2.7908
-9.1608 -3.2497 2.7908
-8.1255 -5.3498 2.7908
-6.2566 -6.7539 2.6384
-4.4660 -8.0624 2.6384
-2.0406 -7.5327 2.2316
-0.1871 -8.0436 2.2982
1.6689 -7.5334 2.2018
4.3391 -8.7742 2.7908
6.3136 -7.4881 2.7908
7.4916 -5.4515 2.6390
7.6869 -3.1403 2.3648
9.1790 -1.3554 2.6429
9.2326 0.8764 2.6428
8.7449 3.0528 2.6412
7.7476 5.0443 2.6385
3.3517 3.5806 1.4012
2.4115 4.3002 1.4100
1.6045 5.8022 1.7236
0.2770 9.7327 2.7908
-2.0553 9.5071 2.7908
-4.0319 8.2564 2.6384
-5.8850 7.0488 2.6384
-7.8238 5.7495 2.7908
-8.9704 3.7120 2.7908
-9.5991 1.4602 2.7908
-9.6739 -0.8773 2.7908
-9.1897 -3.1664 2.7908
-8.1734 -5.2757 2.7908
-6.3173 -6.6966 2.6384
-4.5388 -8.0212 2.6384
-2.1140 -7.5324 2.2372
-0.2439 -7.5409 2.1551
1.5973 -7.5330 2.1974
4.2593 -8.8129 2.7908
6.2454 -7.5449 2.7908
7.4415 -5.5188 2.6389
7.6422 -3.2031 2.3599
9.1664 -1.4385 2.6429
9.2405 0.7927 2.6428
8.7727 2.9736 2.6413
7.7933 4.9741 2.6385
3.3833 3.5492 1.4008
2.4501 4.2775 1.4097
1.6035 5.6003 1.6678
0.3653 9.7302 2.7908
-1.9690 9.5260 2.7908
-3.9569 8.2928 2.6384
-5.8209 7.1020 2.6384
-7.7716 5.8200 2.7908
-8.9364 3.7929 2.7908
-9.5854 1.5468 2.7908
-9.6812 -0.7898 2.7908
-9.2176 -3.0831 2.7908
-8.2204 -5.2015 2.7908
-6.3773 -6.6390 2.6384
-4.6109 -7.9795 2.6384
-2.1875 -7.5321 2.2430
-0.3120 -7.5405 2.1558
1.5263 -7.5326 2.1933
4.1794 -8.8508 2.7908
6.1769 -7.6008 2.7908
7.3909 -5.5855 2.6387
8.5213 -3.6624 2.6415
9.1530 -1.5213 2.6429
9.2476 0.7092 2.6428
8.7997 2.8944 2.6413
7.8383 4.9037 2.6385
3.4144 3.5177 1.4004
2.4882 4.2545 1.4095
1.6025 5.4117 1.6159
0.4532 9.7269 2.7908
-1.8830 9.5437 2.7908
-3.8819 8.3285 2.6384
-5.7566 7.1545 2.6384
-7.7186 5.8903 2.7908
-8.9017 3.8738 2.7908
-9.5709 1.6337 2.7908
-9.6878 -0.7019 2.7908
-9.2450 -2.9993 2.7908
-8.2670 -5.1265 2.7908
-6.4370 -6.5807 2.6384
-4.6828 -7.9371 2.6384
-2.4233 -8.0700 2.4097
-0.3805 -7.5402 2.1567
1.4552 -7.5321 2.1893
4.0989 -8.8880 2.7908
6.1076 -7.6564 2.7908
7.3396 -5.6519 2.6386
8.4875 -3.7394 2.6414
9.1389 -1.6042 2.6428
9.2539 0.6253 2.6429
8.8261 2.8147 2.6414
7.8831 4.8328 2.6386
3.4453 3.4858 1.4000
2.5263 4.2311 1.4092
1.6016 5.2345 1.5671
0.5410 9.7228 2.7908
-1.7967 9.5607 2.7908
-3.8066 8.3635 2.6384
-5.6918 7.2064 2.6384
-7.6651 5.9599 2.7908
-8.8663 3.9541 2.7908
-9.5556 1.7201 2.7908
-9.6935 -0.6144 2.7908
-9.2714 -2.9156 2.7908
-8.3127 -5.0514 2.7908
-6.4959 -6.5220 2.6384
-4.7541 -7.8941 2.6384
-2.8908 -9.3204 2.7908
-0.4488 -7.5399 2.1578
1.3847 -7.5317 2.1855
4.0184 -8.9245 2.7908
6.0381 -7.7111 2.7908
7.2878 -5.7176 2.6385
8.4531 -3.8157 2.6413
9.1240 -1.6866 2.6428
9.2594 0.5418 2.6429
8.8517 2.7351 2.6415
7.9270 4.7618 2.6388
3.4758 3.4537 1.3996
2.5640 4.2074 1.4089
1.6007 5.0671 1.5212
0.6292 9.7178 2.7908
-1.7100 9.5769 2.7908
-3.7307 8.3979 2.6384
-5.6263 7.2578 2.6384
-7.6108 6.0293 2.7908
-8.8301 4.0344 2.7908
-9.5396 1.8067 2.7908
-9.6985 -0.5264 2.7908
-9.2972 -2.8313 2.7908
-8.3579 -4.9757 2.7908
-6.5546 -6.4626 2.6384
-4.8253 -7.8503 2.6384
-2.9751 -9.2934 2.7908
-0.5174 -7.5395 2.1590
1.3141 -7.5313 2.1819
3.9372 -8.9603 2.7908
5.9678 -7.7653 2.7908
7.2355 -5.7833 2.6384
8.4179 -3.8921 2.6412
9.1083 -1.7693 2.6428
9.2642 0.4578 2.6429
8.8765 2.6552 2.6416
7.9704 4.6904 2.6389
3.5060 3.4213 1.3992
2.6014 4.1833 1.4086
1.5999 4.9097 1.4782
0.7170 9.7122 2.7908
-1.6234 9.5923 2.7908
-3.6548 8.4315 2.6384
-5.5606 7.3085 2.6384
-7.5561 6.0979 2.7908
-8.7933 4.1140 2.7908
-9.5228 1.8928 2.7908
-9.7027 -0.4387 2.7908
-9.3222 -2.7471 2.7908
-8.4022 -4.8998 2.7908
-6.6124 -6.4028 2.6384
-4.8958 -7.8061 2.6384
-3.0588 -9.2658 2.7908
-0.5859 -7.5392 2.1605
1.2525 -7.5816 2.1932
3.2335 -7.5430 2.3403
5.8973 -7.8187 2.7908
7.1829 -5.8483 2.6384
8.3821 -3.9678 2.6411
9.0920 -1.8514 2.6428
9.2682 0.3741 2.6429
8.9007 2.5747 2.6417
8.0132 4.6183 2.6390
3.5360 3.3885 1.3988
2.6388 4.1589 1.4083
1.5992 4.7604 1.4375
0.8051 9.7056 2.7908
-1.5364 9.6070 2.7908
-3.5783 8.4646 2.6384
-5.4942 7.3588 2.6384
-7.5006 6.1662 2.7908
-8.7556 4.1936 2.7908
-9.5051 1.9791 2.7908
-9.7061 -0.3507 2.7908
-9.3465 -2.6623 2.7908
-8.4460 -4.8232 2.7908
-6.6700 -6.3423 2.6384
-4.9662 -7.7611 2.6384
-3.1425 -9.2373 2.7908
-0.6547 -7.5389 2.1621
1.2498 -8.0167 2.3158
3.1526 -7.5425 2.3312
5.8261 -7.8717 2.7908
7.1297 -5.9129 2.6384
8.3457 -4.0432 2.6411
9.0748 -1.9334 2.6427
9.2715 0.2904 2.6429
8.9241 2.4944 2.6417
8.0553 4.5461 2.6391
3.5655 3.3556 1.3984
2.6758 4.1341 1.4080
1.6160 4.6703 1.4146
0.8928 9.6984 2.7908
-1.4496 9.6208 2.7908
-3.5018 8.4968 2.6384
-5.4276 7.4083 2.6384
-7.4446 6.2338 2.7908
-8.7174 4.2725 2.7908
-9.4868 2.0649 2.7908
-9.7087 -0.2630 2.7908
-9.3699 -2.5777 2.7908
-8.4889 -4.7465 2.7908
-6.7267 -6.2816 2.6384
-5.0359 -7.7156 2.6384
-3.2257 -9.2081 2.7908
-0.7233 -7.5386 2.1638
1.1781 -8.0332 2.3174
3.0727 -7.5420 2.3225
5.7546 -7.9238 2.7908
7.0757 -5.9772 2.6384
8.3084 -4.1185 2.6410
9.0569 -2.0156 2.6427
9.2739 0.2064 2.6430
8.9468 2.4135 2.6418
8.0968 4.4733 2.6393
3.5949 3.3223 1.3980
2.7127 4.1090 1.4077
1.6581 4.6550 1.4144
0.9807 9.6903 2.7908
-1.3624 9.6339 2.7908
-3.4246 8.5285 2.6384
-5.3603 7.4574 2.6384
-7.3879 6.3011 2.7908
-8.6783 4.3515 2.7908
-9.4676 2.1508 2.7908
-9.7105 -0.1749 2.7908
-9.3927 -2.4926 2.7908
-8.5314 -4.6692 2.7908
-6.7832 -6.2201 2.6384
-5.1055 -7.6692 2.6384
-3.3086 -9.1782 2.7908
-0.7921 -7.5382 2.1658
1.1084 -8.0646 2.3236
2.9934 -7.5415 2.3140
5.6827 -7.9753 2.7908
7.0492 -6.0647 2.6489
8.2705 -4.1932 2.6409
9.0382 -2.0973 2.6426
8.0256 0.1061 2.2868
8.9687 2.3327 2.6419
8.1375 4.4003 2.6394
7.2365 6.5676 2.7908
2.7492 4.0836 1.4074
1.7000 4.6394 1.4142
1.0683 9.6814 2.7908
-1.2753 9.6461 2.7908
-3.3475 8.5593 2.6384
-5.2928 7.5057 2.6384
-7.3307 6.3677 2.7908
-8.6386 4.4297 2.7908
-9.4477 2.2363 2.7908
-9.7115 -0.0871 2.7908
-9.4145 -2.4075 2.7908
-8.5729 -4.5918 2.7908
-6.8388 -6.1583 2.6384
-5.1743 -7.6225 2.6384
-3.3915 -9.1474 2.7908
-0.8612 -7.5379 2.1680
1.0405 -8.1150 2.3354
2.9143 -7.5410 2.3057
5.6101 -8.0263 2.7908
7.0394 -6.1682 2.6662
8.2319 -4.2679 2.6408
9.0188 -2.1791 2.6426
9.2766 0.0386 2.6430
8.9900 2.2515 2.6419
8.1777 4.3267 2.6395
7.2961 6.5018 2.7908
2.7856 4.0577 1.4070
1.7418 4.6234 1.4140
1.1561 9.6717 2.7908
-1.1878 9.6576 2.7908
-3.2699 8.5896 2.6384
-5.2247 7.5536 2.6384
-7.2727 6.4341 2.7908
-8.5981 4.5079 2.7908
-9.4269 2.3219 2.7908
-9.7118 0.0010 2.7908
-9.4357 -2.3223 2.7908
-8.6138 -4.5140 2.7908
-6.8939 -6.0960 2.6384
-5.2427 -7.5751 2.6384
-3.4739 -9.1160 2.7908
-0.9302 -7.5376 2.1703
0.9758 -8.1962 2.3562
2.8361 -7.5405 2.2977
5.5372 -8.0764 2.7908
7.0332 -6.2759 2.6852
8.1927 -4.3419 2.6407
8.9987 -2.2605 2.6426
9.2767 -0.0452 2.6430
9.0104 2.1703 2.6420
8.2170 4.2530 2.6396
7.3407 6.4236 2.7855
2.8216 4.0316 1.4067
1.7833 4.6070 1.4138
1.2435 9.6613 2.7908
-1.1006 9.6684 2.7908
-3.1922 8.6190 2.6384
-5.1563 7.6006 2.6384
-7.2144 6.4996 2.7908
-8.5570 4.5854 2.7908
-9.4055 2.4069 2.7908
-9.7112 0.0887 2.7908
-9.4561 -2.2366 2.7908
-8.6541 -4.4355 2.7908
-7.3500 -6.3815 2.7908
-5.3110 -7.5270 2.6384
-3.5563 -9.0838 2.7908
-0.9996 -7.5373 2.1728
1.0676 -9.7177 2.7908
2.7582 -7.5400 2.2899
5.4637 -8.1261 2.7908
7.0267 -6.3855 2.7047
8.1527 -4.4158 2.6406
8.9777 -2.3419 2.6425
9.2761 -0.1293 2.6430
9.0301 2.0886 2.6421
8.2559 4.1786 2.6397
7.3418 6.3081 2.7640
2.8575 4.0051 1.4064
1.8248 4.5902 1.4136
1.3311 9.6500 2.7908
-1.0129 9.6784 2.7908
-3.1140 8.6479 2.6384
-5.0873 7.6473 2.6384
-7.1555 6.5646 2.7908
-8.5153 4.6626 2.7908
-9.3833 2.4918 2.7908
-9.7098 0.1765 2.7908
-9.4757 -2.1510 2.7908
-8.6935 -4.3570 2.7908
-7.4071 -6.3146 2.7908
-5.3786 -7.4784 2.6384
-3.6380 -9.0509 2.7908
-1.0689 -7.5370 2.1755
0.9798 -9.7266 2.7908
2.6811 -7.5395 2.2824
5.3900 -8.1749 2.7908
7.0202 -6.4963 2.7247
8.1121 -4.4890 2.6405
8.9561 -2.4228 2.6425
9.2748 -0.2130 2.6430
9.0491 2.0071 2.6421
8.2939 4.1042 2.6398
7.3427 6.1945 2.7431
2.8930 3.9784 1.4061
1.8660 4.5730 1.4134
1.4183 9.6380 2.7908
-0.9254 9.6875 2.7908
-3.0665 8.7633 2.6651
-5.0181 7.6931 2.6384
-7.0957 6.6294 2.7908
-8.4727 4.7396 2.7908
-9.3603 2.5768 2.7908
-9.7077 0.2645 2.7908
-9.4946 -2.0649 2.7908
-8.7324 -4.2778 2.7908
-7.4638 -6.2469 2.7908
-5.4459 -7.4290 2.6384
-3.7198 -9.0172 2.7908
-1.1387 -7.5366 2.1784
0.8915 -9.7347 2.7908
2.6042 -7.5390 2.2750
5.3155 -8.2233 2.7908
7.0135 -6.6091 2.7453
8.0708 -4.5622 2.6404
8.9336 -2.5039 2.6424
9.2726 -0.2971 2.6430
9.0673 1.9251 2.6422
8.3314 4.0291 2.6399
7.3436 6.0822 2.7226
2.9284 3.9512 1.4057
1.9070 4.5555 1.4132
1.5053 9.6251 2.7908
-0.8379 9.6958 2.7908
-3.0514 8.9799 2.7223
-4.9485 7.7383 2.6384
-7.0356 6.6933 2.7908
-4.8326 2.7610 1.6000
-9.3365 2.6613 2.7908
-9.7047 0.3522 2.7908
-9.5126 -1.9790 2.7908
-8.7704 -4.1986 2.7908
-7.5196 -6.1790 2.7908
-5.5126 -7.3792 2.6384
-3.8009 -8.9828 2.7908
-1.2084 -7.5363 2.1814
0.8035 -9.7420 2.7908
2.5280 -7.5386 2.2680
5.2409 -8.2707 2.7908
7.0066 -6.7231 2.7663
8.0289 -4.6347 2.6403
8.9105 -2.5844 2.6424
9.2697 -0.3809 2.6430
9.0848 1.8432 2.6422
8.3680 3.9540 2.6400
7.3445 5.9719 2.7027
2.9633 3.9238 1.4054
1.9481 4.5375 1.4129
1.5926 9.6115 2.7908
-0.7499 9.7035 2.7908
-3.0356 9.2065 2.7824
-4.8782 7.7831 2.6384
-6.9747 6.7569 2.7908
-4.7880 2.7934 1.5935
-9.3120 2.7458 2.7908
-9.7010 0.4402 2.7908
-9.5299 -1.8926 2.7908
-8.8078 -4.1188 2.7908
-7.5751 -6.1103 2.7908
-5.5790 -7.3286 2.6384
-3.8820 -8.9476 2.7908
-1.2785 -7.5360 2.1847
0.7152 -9.7485 2.7908
2.4521 -7.5381 2.2611
5.1656 -8.3177 2.7908
6.9996 -6.8393 2.7880
7.9862 -4.7070 2.6402
8.8866 -2.6650 2.6423
9.2660 -0.4649 2.6430
9.1014 1.7612 2.6423
8.4040 3.8786 2.6402
7.3453 5.8631 2.6833
2.9980 3.8961 1.4051
1.9887 4.5192 1.4127
1.6795 9.5971 2.7908
-0.6623 9.7101 2.7908
-2.9613 9.2617 2.7908
-4.8078 7.8270 2.6384
-6.5360 6.4474 2.6384
-4.7887 2.8521 1.6022
-9.2867 2.8299 2.7908
-9.6965 0.5279 2.7908
-9.5464 -1.8063 2.7908
-8.8444 -4.0389 2.7908
-7.6297 -6.0414 2.7908
-5.6448 -7.2776 2.6384
-3.9625 -8.9118 2.7908
-1.3486 -7.5357 2.1881
0.6271 -9.7542 2.7908
2.3769 -7.5376 2.2545
5.0901 -8.3638 2.7908
6.9446 -6.9093 2.7908
7.9430 -4.7788 2.6401
8.8621 -2.7451 2.6423
9.2616 -0.5485 2.6430
9.1174 1.6787 2.6423
8.4394 3.8025 2.6403
7.3460 5.7554 2.6643
3.0326 3.8680 1.4047
2.0294 4.5004 1.4125
1.7665 9.5819 2.7908
-0.5742 9.7161 2.7908
-2.8772 9.2885 2.7908
-4.7367 7.8705 2.6384
-6.4773 6.5064 2.6384
-8.2957 5.0434 2.7908
-9.2607 2.9140 2.7908
-9.6912 0.6158 2.7908
-9.5622 -1.7196 2.7908
-8.8804 -3.9584 2.7908
-7.6839 -5.9718 2.7908
-5.7103 -7.2258 2.6384
-4.0430 -8.8751 2.7908
-1.4192 -7.5354 2.1918
0.5386 -9.7591 2.7908
2.3018 -7.5372 2.2481
5.0143 -8.4092 2.7908
6.8818 -6.9716 2.7908
7.8992 -4.8501 2.6400
8.8368 -2.8250 2.6422
9.2564 -0.6321 2.6430
9.1326 1.5963 2.6424
8.4740 3.7264 2.6404
7.3515 5.6533 2.6476
3.0668 3.8396 1.4044
2.0697 4.4813 1.4123
1.8531 9.5659 2.7908
-0.4864 9.7212 2.7908
-2.7933 9.3144 2.7908
-4.6655 7.9132 2.6384
-6.4184 6.5649 2.6384
-8.2498 5.1182 2.7908
-9.2339 2.9975 2.7908
-9.6851 0.7033 2.7908
-9.5771 -1.6331 2.7908
-8.9155 -3.8779 2.7908
-7.7372 -5.9019 2.7908
-5.7751 -7.1736 2.6384
-4.1228 -8.8379 2.7908
-1.4897 -7.5351 2.1956
0.4504 -9.7632 2.7908
2.2275 -7.5367 2.2420
4.9377 -8.4541 2.7908
6.8183 -7.0336 2.7908
7.8545 -4.9212 2.6399
8.8106 -2.9049 2.6421
9.2504 -0.7160 2.6430
9.1471 1.5135 2.6425
8.5081 3.6497 2.6405
7.3773 5.5674 2.6384
3.1008 3.8108 1.4040
2.1100 4.4618 1.4120
1.9398 9.5491 2.7908
-0.3983 9.7256 2.7908
-2.7088 9.3397 2.7908
-4.5937 7.9554 2.6384
-6.3587 6.6229 2.6384
-8.2031 5.1929 2.7908
-9.2063 3.0811 2.7908
-9.6782 0.7911 2.7908
-9.5913 -1.5461 2.7908
-8.9501 -3.7967 2.7908
-7.7901 -5.8313 2.7908
-5.8397 -7.1207 2.6384
-4.2023 -8.7999 2.7908
-1.5605 -7.5348 2.1996
0.3622 -9.7665 2.7908
2.1535 -7.5363 2.2361
4.8610 -8.4982 2.7908
6.7544 -7.0948 2.7908
7.8094 -4.9917 2.6398
8.7839 -2.9843 2.6421
9.2436 -0.7996 2.6430
9.1608 1.4310 2.6425
8.5412 3.5729 2.6406
7.4275 5.5008 2.6384
3.1345 3.7819 1.4036
2.1499 4.4420 1.4118
2.0261 9.5316 2.7908
-0.3104 9.7292 2.7908
-2.6244 9.3640 2.7908
-4.5217 7.9967 2.6384
-6.2987 6.6802 2.6384
-8.1559 5.2668 2.7908
-9.1780 3.1642 2.7908
-9.6705 0.8785 2.7908
-9.6047 -1.4594 2.7908
-8.9837 -3.7156 2.7908
-7.8422 -5.7604 2.7908
-5.9036 -7.0673 2.6384
-4.2818 -8.7611 2.7908
-1.6318 -7.5344 2.2039
0.2736 -9.7690 2.7908
2.0797 -7.5358 2.2303
4.7837 -8.5417 2.7908
6.6897 -7.1556 2.7908
7.7634 -5.0620 2.6396
8.7563 -3.0638 2.6420
9.2361 -0.8833 2.6430
9.1737 1.3479 2.6425
