ply
format ascii 1.0
element vertex 2140
property float32 x
property float32 y
property float32 z
end_header
-2.0874 -7.5278 1.8578
-0.2478 -8.4854 2.0162
1.6210 -7.5285 1.8270
5.1574 -10.5861 2.7908
7.1310 -8.5595 2.6384
8.9894 -6.6227 2.6431
7.6145 -3.1630 1.9515
8.5290 -1.3106 2.0428
11.1160 0.9895 2.6432
10.5489 3.6137 2.6430
9.3685 6.0221 2.6424
7.6376 8.0645 2.6385
2.9529 5.1943 1.4212
1.6319 5.7704 1.4282
0.4011 11.6961 2.7908
-2.4032 11.4396 2.7908
-4.7865 9.9487 2.6384
-7.4261 9.0014 2.7908
-9.3584 6.9619 2.7908
-10.7497 4.5224 2.7908
-11.5211 1.8219 2.7908
-11.6282 -0.9854 2.7908
-11.0639 -3.7392 2.7908
-9.8593 -6.2816 2.7908
-8.0817 -8.4659 2.7908
-5.8317 -10.1651 2.7908
-2.1608 -7.5275 1.8626
-0.2884 -7.5361 1.7913
1.5498 -7.5281 1.8235
5.0613 -10.6319 2.7908
7.0531 -8.6235 2.6384
8.9285 -6.7033 2.6430
7.6153 -3.2445 1.9592
8.5220 -1.3885 2.0440
11.1248 0.8889 2.6432
10.5815 3.5182 2.6430
9.4235 5.9377 2.6426
7.7106 7.9954 2.6385
2.9992 5.1664 1.4208
1.6839 5.7549 1.4280
0.5069 11.6925 2.7908
-2.2997 11.4614 2.7908
-4.6965 9.9918 2.6384
-7.3446 9.0683 2.7908
-9.2951 7.0465 2.7908
-10.7083 4.6195 2.7908
-11.5040 1.9261 2.7908
-11.6363 -0.8801 2.7908
-11.0969 -3.6388 2.7908
-9.9153 -6.1919 2.7908
-8.1576 -8.3921 2.7908
-5.9231 -10.1114 2.7908
-2.2347 -7.5272 1.8675
-0.3567 -7.5358 1.7920
1.4789 -7.5277 1.8201
4.9647 -10.6770 2.7908
6.9872 -8.7024 2.6432
8.8669 -6.7834 2.6428
10.2352 -4.4705 2.6435
8.5147 -1.4665 2.0453
11.1327 0.7882 2.6432
10.6133 3.4224 2.6430
9.4778 5.8528 2.6427
7.7831 7.9258 2.6385
3.0452 5.1380 1.4205
1.7358 5.7389 1.4278
0.6126 11.6880 2.7908
-2.1961 11.4822 2.7908
-4.6060 10.0343 2.6384
-7.2624 9.1347 2.7908
-9.2310 7.1304 2.7908
-10.6661 4.7162 2.7908
-11.4860 2.0301 2.7908
-11.6436 -0.7747 2.7908
-11.1291 -3.5381 2.7908
-9.9705 -6.1016 2.7908
-8.2328 -8.3175 2.7908
-6.0141 -10.0569 2.7908
-3.4410 -11.2176 2.7908
-0.4250 -7.5355 1.7929
1.4082 -7.5273 1.8169
4.8677 -10.7211 2.7908
6.9705 -8.8445 2.6671
8.8045 -6.8628 2.6427
9.1952 -4.1157 2.3844
8.5069 -1.5446 2.0467
11.1396 0.6875 2.6432
10.6442 3.3264 2.6430
9.5312 5.7672 2.6429
7.8549 7.8554 2.6385
3.0909 5.1093 1.4201
1.7874 5.7225 1.4276
0.7184 11.6825 2.7908
-2.0922 11.5021 2.7908
-4.5152 10.0759 2.6384
-7.1796 9.2003 2.7908
-9.1662 7.2138 2.7908
-10.6230 4.8127 2.7908
-11.4670 2.1340 2.7908
-11.6498 -0.6693 2.7908
-11.1603 -3.4371 2.7908
-10.0250 -6.0108 2.7908
-8.3074 -8.2422 2.7908
-6.1046 -10.0016 2.7908
-3.5422 -11.1854 2.7908
-0.4934 -7.5351 1.7939
1.3377 -7.5269 1.8139
4.7703 -10.7643 2.7908
6.9615 -8.9993 2.6948
8.7415 -6.9417 2.6425
9.1670 -4.2031 2.3869
8.4987 -1.6226 2.0481
11.1457 0.5867 2.6432
10.6742 3.2300 2.6430
9.5299 5.6495 2.6281
7.9259 7.7845 2.6385
3.1363 5.0800 1.4198
1.8389 5.7055 1.4274
0.8241 11.6761 2.7908
-1.9881 11.5210 2.7908
-4.4239 10.1167 2.6384
-7.0962 9.2653 2.7908
-9.1007 7.2966 2.7908
-10.5790 4.9086 2.7908
-11.4471 2.2377 2.7908
-11.6552 -0.5637 2.7908
-11.1906 -3.3358 2.7908
-10.0786 -5.9196 2.7908
-8.3813 -8.1663 2.7908
-6.1945 -9.9454 2.7908
-3.6431 -11.1524 2.7908
-0.5620 -7.5348 1.7950
1.2675 -7.5265 1.8111
4.6726 -10.8067 2.7908
6.9526 -9.1579 2.7234
8.6776 -7.0200 2.6423
9.1651 -4.3029 2.3964
8.4900 -1.7006 2.0496
11.1508 0.4860 2.6432
10.7033 3.1336 2.6430
9.5276 5.5323 2.6135
7.9965 7.7130 2.6386
3.1815 5.0504 1.4194
1.8903 5.6881 1.4272
0.9298 11.6687 2.7908
-1.8838 11.5390 2.7908
-4.3323 10.1567 2.6384
-7.0122 9.3292 2.7908
-9.0343 7.3787 2.7908
-10.5341 5.0042 2.7908
-11.4262 2.3412 2.7908
-11.6595 -0.4582 2.7908
-11.2200 -3.2343 2.7908
-10.1313 -5.8279 2.7908
-8.4544 -8.0898 2.7908
-6.2840 -9.8885 2.7908
-3.7437 -11.1184 2.7908
-0.6305 -7.5345 1.7963
1.2510 -7.8626 1.8892
3.1785 -7.5378 1.9392
6.9435 -9.3198 2.7528
8.6133 -7.0975 2.6422
9.1631 -4.4035 2.4062
8.4816 -1.7789 2.0514
11.1550 0.3851 2.6432
10.7316 3.0367 2.6430
9.5254 5.4163 2.5992
8.0670 7.6412 2.6388
3.2264 5.0203 1.4190
1.9415 5.6702 1.4270
1.0355 11.6603 2.7908
-1.7793 11.5561 2.7908
-4.2403 10.1958 2.6384
-6.9276 9.3925 2.7908
-8.9673 7.4603 2.7908
-10.4884 5.0993 2.7908
-11.4044 2.4445 2.7908
-11.6630 -0.3526 2.7908
-11.2484 -3.1325 2.7908
-10.1833 -5.7357 2.7908
-8.5269 -8.0125 2.7908
-6.3729 -9.8307 2.7908
-3.8440 -11.0835 2.7908
-0.6992 -7.5341 1.7977
1.2486 -8.3328 1.9995
3.0985 -7.5373 1.9319
6.9342 -9.4848 2.7830
8.5480 -7.1746 2.6420
9.1277 -4.4886 2.4075
8.4755 -1.8578 2.0539
11.1583 0.2842 2.6432
10.7590 2.9396 2.6430
9.5272 5.3038 2.5864
8.1368 7.5688 2.6389
3.2710 4.9899 1.4186
1.9925 5.6517 1.4268
1.1410 11.6511 2.7908
-1.6747 11.5722 2.7908
-4.1480 10.2341 2.6384
-6.4688 8.9388 2.6384
-8.8995 7.5413 2.7908
-10.4418 5.1941 2.7908
-11.3817 2.5477 2.7908
-11.6654 -0.2470 2.7908
-11.2760 -3.0304 2.7908
-10.2344 -5.6431 2.7908
-8.5987 -7.9347 2.7908
-6.4613 -9.7721 2.7908
-3.9440 -11.0477 2.7908
-0.7679 -7.5338 1.7993
1.2460 -8.8603 2.1234
3.0188 -7.5368 1.9247
6.8671 -9.5738 2.7908
8.4821 -7.2511 2.6419
9.1257 -4.5906 2.4178
8.4691 -1.9369 2.0565
8.0497 0.1321 1.9064
10.7855 2.8422 2.6431
9.5752 5.2176 2.5864
8.2059 7.4958 2.6391
3.3153 4.9590 1.4183
2.0434 5.6328 1.4265
1.2465 11.6408 2.7908
-1.5700 11.5874 2.7908
-4.0553 10.2716 2.6384
-6.3878 8.9969 2.6384
-8.8310 7.6217 2.7908
-10.3944 5.2884 2.7908
-11.3581 2.6506 2.7908
-11.6669 -0.1414 2.7908
-11.3026 -2.9281 2.7908
-10.2846 -5.5500 2.7908
-8.6698 -7.8562 2.7908
-6.5490 -9.7129 2.7908
-4.0434 -11.0111 2.7908
-0.8368 -7.5335 1.8011
1.2429 -9.4586 2.2641
2.9398 -7.5363 1.9178
6.7801 -9.6353 2.7908
8.4155 -7.3270 2.6417
9.1237 -4.6935 2.4285
8.9293 -2.1273 2.1728
8.0232 0.0591 1.8999
10.8112 2.7446 2.6431
9.6224 5.1309 2.5864
8.2744 7.4221 2.6393
3.3593 4.9277 1.4179
2.0940 5.6135 1.4263
1.3519 11.6296 2.7908
-1.4651 11.6016 2.7908
-3.9623 10.3083 2.6384
-6.3063 9.0549 2.6384
-8.7618 7.7014 2.7908
-10.3461 5.3823 2.7908
-11.3335 2.7533 2.7908
-11.6675 -0.0358 2.7908
-11.3282 -2.8258 2.7908
-10.3340 -5.4567 2.7908
-8.7400 -7.7772 2.7908
-6.6363 -9.6528 2.7908
-4.1427 -10.9735 2.7908
-0.9059 -7.5332 1.8030
1.2395 -10.1419 2.4249
2.8613 -7.5358 1.9111
6.6924 -9.6960 2.7908
8.3482 -7.4022 2.6415
9.1217 -4.7973 2.4394
10.8397 -2.6863 2.6434
8.5877 -0.0145 2.0335
10.8359 2.6468 2.6431
9.6688 5.0439 2.5864
8.3422 7.3478 2.6395
3.4030 4.8959 1.4175
2.1445 5.5936 1.4261
1.4571 11.6174 2.7908
-1.3601 11.6149 2.7908
-3.8690 10.3441 2.6384
-6.2242 9.1119 2.6384
-8.6918 7.7806 2.7908
-10.2970 5.4758 2.7908
-11.3081 2.8555 2.7908
-11.6671 0.0696 2.7908
-11.3530 -2.7230 2.7908
-10.3825 -5.3627 2.7908
-8.8097 -7.6974 2.7908
-6.7231 -9.5918 2.7908
-4.2416 -10.9350 2.7908
-0.9750 -7.5328 1.8050
1.2432 -10.9981 2.6270
2.7834 -7.5354 1.9046
6.6043 -9.7559 2.7908
8.2802 -7.4769 2.6413
9.1531 -4.9201 2.4596
10.8151 -2.7843 2.6434
8.5876 -0.0922 2.0336
10.8598 2.5487 2.6431
9.7144 4.9563 2.5864
8.4093 7.2728 2.6397
3.4464 4.8638 1.4171
2.1947 5.5733 1.4258
1.5623 11.6043 2.7908
-1.2549 11.6272 2.7908
-3.7753 10.3791 2.6384
-6.1416 9.1681 2.6384
-8.6213 7.8589 2.7908
-10.2472 5.5686 2.7908
-11.2817 2.9578 2.7908
-11.6658 0.1753 2.7908
-11.3769 -2.6201 2.7908
-10.4302 -5.2683 2.7908
-8.8786 -7.6170 2.7908
-6.8093 -9.5301 2.7908
-4.3402 -10.8956 2.7908
-1.0444 -7.5325 1.8072
1.1466 -11.0375 2.6339
2.7060 -7.5349 1.8982
6.5155 -9.8150 2.7908
8.2116 -7.5509 2.6412
9.1511 -5.0262 2.4712
10.7895 -2.8821 2.6434
8.5870 -0.1699 2.0336
10.8827 2.4504 2.6431
9.7592 4.8684 2.5864
8.4758 7.1973 2.6399
3.4894 4.8313 1.4167
2.2448 5.5525 1.4256
1.6673 11.5903 2.7908
-1.1497 11.6386 2.7908
-3.6815 10.4131 2.6384
-6.0587 9.2234 2.6384
-8.5500 7.9368 2.7908
-10.1964 5.6612 2.7908
-11.2544 3.0598 2.7908
-11.6635 0.2809 2.7908
-11.3998 -2.5169 2.7908
-10.4771 -5.1734 2.7908
-8.9468 -7.5360 2.7908
-6.8950 -9.4676 2.7908
-4.4384 -10.8554 2.7908
-1.1139 -7.5322 1.8096
1.0563 -11.1493 2.6583
2.6291 -7.5344 1.8921
6.4263 -9.8732 2.7908
8.1422 -7.6242 2.6410
9.1490 -5.1334 2.4831
10.7631 -2.9796 2.6434
8.5858 -0.2476 2.0338
10.9048 2.3519 2.6431
9.8033 4.7801 2.5864
8.5415 7.1211 2.6401
3.5322 4.7984 1.4163
2.2947 5.5312 1.4253
1.7721 11.5753 2.7908
-1.0445 11.6490 2.7908
-3.5873 10.4464 2.6384
-5.9751 9.2782 2.6384
-8.4779 8.0140 2.7908
-10.1448 5.7533 2.7908
-11.2261 3.1615 2.7908
-11.6603 0.3864 2.7908
-11.4218 -2.4135 2.7908
-10.5231 -5.0782 2.7908
-9.0142 -7.4544 2.7908
-6.9800 -9.4044 2.7908
-4.5362 -10.8142 2.7908
-1.1836 -7.5319 1.8121
1.0030 -11.7142 2.7908
2.5527 -7.5340 1.8862
6.3365 -9.9307 2.7908
8.0722 -7.6969 2.6408
9.1469 -5.2416 2.4953
10.7358 -3.0769 2.6434
8.5840 -0.3253 2.0339
10.9260 2.2532 2.6431
9.8465 4.6914 2.5864
8.6065 7.0445 2.6403
3.5745 4.7651 1.4159
2.3442 5.5095 1.4250
1.8768 11.5593 2.7908
-0.9391 11.6585 2.7908
-3.4927 10.4788 2.6384
-5.8911 9.3321 2.6384
-8.4051 8.0905 2.7908
-4.7956 2.7773 1.3261
-11.1970 3.2630 2.7908
-11.6561 0.4920 2.7908
-11.4428 -2.3100 2.7908
-10.5683 -4.9826 2.7908
-9.0809 -7.3721 2.7908
-7.0645 -9.3404 2.7908
-4.6337 -10.7722 2.7908
-1.2535 -7.5315 1.8147
0.8969 -11.7223 2.7908
2.4768 -7.5335 1.8805
6.2462 -9.9874 2.7908
8.0016 -7.7690 2.6406
9.1448 -5.3508 2.5078
10.7076 -3.1739 2.6435
8.5817 -0.4030 2.0341
10.9462 2.1545 2.6431
9.8888 4.6024 2.5864
8.6709 6.9671 2.6404
7.1308 9.3289 2.7908
2.3936 5.4873 1.4248
1.9815 11.5424 2.7908
-0.8335 11.6670 2.7908
-3.3978 10.5104 2.6384
-5.8065 9.3853 2.6384
-8.3317 8.1664 2.7908
-4.7791 2.8259 1.3286
-11.1669 3.3642 2.7908
-11.6510 0.5974 2.7908
-11.4630 -2.2062 2.7908
-10.6125 -4.8865 2.7908
-9.1469 -7.2893 2.7908
-7.1484 -9.2756 2.7908
-4.7307 -10.7293 2.7908
-1.3236 -7.5312 1.8176
0.7908 -11.7294 2.7908
2.4013 -7.5330 1.8749
6.1554 -10.0432 2.7908
7.9303 -7.8404 2.6405
9.1427 -5.4612 2.5207
10.6786 -3.2707 2.6435
8.5789 -0.4807 2.0344
10.9656 2.0553 2.6431
9.9305 4.5128 2.5864
8.7347 6.8890 2.6406
7.2154 9.2643 2.7908
2.4429 5.4645 1.4245
2.0862 11.5245 2.7908
-0.7277 11.6746 2.7908
-3.3025 10.5412 2.6384
-5.7213 9.4379 2.6384
-8.2575 8.2418 2.7908
-9.9851 6.0266 2.7908
-11.1360 3.4649 2.7908
-11.6449 0.7027 2.7908
-11.4821 -2.1025 2.7908
-10.6559 -4.7902 2.7908
-9.2119 -7.2061 2.7908
-7.2316 -9.2102 2.7908
-4.8272 -10.6856 2.7908
-1.3938 -7.5309 1.8205
0.6848 -11.7355 2.7908
2.3264 -7.5326 1.8696
6.0643 -10.0981 2.7908
7.8585 -7.9110 2.6403
9.1071 -5.5522 2.5247
10.6487 -3.3670 2.6435
8.5755 -0.5582 2.0346
10.9841 1.9562 2.6431
9.9712 4.4230 2.5864
8.7975 6.8105 2.6408
7.2991 9.1992 2.7908
2.4918 5.4414 1.4242
2.1903 11.5058 2.7908
-0.6223 11.6812 2.7908
-3.2072 10.5710 2.6384
-5.6360 9.4894 2.6384
-8.1828 8.3162 2.7908
-9.9301 6.1170 2.7908
-11.1041 3.5658 2.7908
-11.6378 0.8083 2.7908
-11.5004 -1.9982 2.7908
-10.6985 -4.6932 2.7908
-9.2765 -7.1219 2.7908
-7.3144 -9.1438 2.7908
-4.9237 -10.6408 2.7908
-1.4645 -7.5306 1.8237
0.5783 -11.7407 2.7908
2.2517 -7.5322 1.8644
5.9723 -10.1523 2.7908
7.7857 -7.9812 2.6401
9.1049 -5.6647 2.5382
10.6178 -3.4634 2.6435
8.5715 -0.6360 2.0350
11.0017 1.8566 2.6431
10.0113 4.3326 2.5864
8.8599 6.7312 2.6410
7.3826 9.1328 2.7908
2.5407 5.4178 1.4239
2.2947 11.4860 2.7908
-0.5167 11.6869 2.7908
-3.1117 10.5999 2.6384
-5.5501 9.5403 2.6384
-8.1075 8.3900 2.7908
-9.8745 6.2065 2.7908
-11.0713 3.6660 2.7908
-11.6299 0.9134 2.7908
-11.5177 -1.8942 2.7908
-10.7401 -4.5962 2.7908
-9.3401 -7.0375 2.7908
-7.3964 -9.0769 2.7908
-5.0194 -10.5954 2.7908
-1.5351 -7.5303 1.8270
0.4722 -11.7449 2.7908
2.1777 -7.5317 1.8594
5.8802 -10.2055 2.7908
7.7126 -8.0505 2.6399
9.1028 -5.7780 2.5521
10.5862 -3.5592 2.6435
8.5679 -0.7136 2.0355
11.0183 1.7572 2.6431
10.0504 4.2422 2.5864
8.9213 6.6517 2.6412
7.4098 8.9993 2.7701
2.5891 5.3938 1.4236
2.3985 11.4654 2.7908
-0.4107 11.6916 2.7908
-3.0216 10.6495 2.6437
-5.4636 9.5905 2.6384
-8.0312 8.4633 2.7908
-9.8178 6.2959 2.7908
-11.0376 3.7662 2.7908
-11.6209 1.0188 2.7908
-11.5341 -1.7896 2.7908
-10.7809 -4.4985 2.7908
-9.4031 -6.9522 2.7908
-7.4780 -9.0091 2.7908
-5.1150 -10.5489 2.7908
-1.6063 -7.5299 1.8304
0.3657 -11.7482 2.7908
2.1038 -7.5313 1.8546
5.7873 -10.2581 2.7908
7.6386 -8.1193 2.6397
9.1005 -5.8930 2.5663
9.0268 -3.1263 2.2611
8.5642 -0.7916 2.0362
11.0341 1.6573 2.6431
10.0886 4.1514 2.5864
8.9820 6.5715 2.6413
7.4111 8.8369 2.7405
2.6373 5.3693 1.4233
2.5021 11.4438 2.7908
-0.3051 11.6954 2.7908
-3.0022 10.9570 2.7131
-5.3768 9.6398 2.6384
-7.9545 8.5357 2.7908
-9.7606 6.3844 2.7908
-11.0031 3.8658 2.7908
-11.6111 1.1238 2.7908
-11.5495 -1.6853 2.7908
-10.8207 -4.4007 2.7908
-9.4651 -6.8667 2.7908
-7.5588 -8.9407 2.7908
-5.2098 -10.5018 2.7908
-1.6775 -7.5296 1.8341
0.2596 -11.7505 2.7908
2.0305 -7.5309 1.8500
5.6942 -10.3097 2.7908
7.5643 -8.1872 2.6395
9.1316 -6.0309 2.5904
8.9403 -3.1871 2.2465
8.5602 -0.8692 2.0370
11.0490 1.5577 2.6431
10.1571 4.0723 2.5943
9.0421 6.4905 2.6415
7.4123 8.6774 2.7117
2.6854 5.3443 1.4230
1.6109 7.0602 1.7252
-0.1990 11.6982 2.7908
-2.9815 11.2820 2.7867
-5.2894 9.6884 2.6384
-7.8770 8.6077 2.7908
-9.7024 6.4727 2.7908
-10.9675 3.9654 2.7908
-11.6002 1.2290 2.7908
-11.5640 -1.5804 2.7908
-10.8598 -4.3022 2.7908
-9.5266 -6.7803 2.7908
-7.6392 -8.8714 2.7908
-5.3045 -10.4536 2.7908
-1.7492 -7.5293 1.8379
0.1530 -11.7518 2.7908
1.9573 -7.5304 1.8455
5.6004 -10.3605 2.7908
7.4891 -8.2546 2.6393
9.1294 -6.1485 2.6054
10.4859 -3.8451 2.6435
8.9174 -0.9869 2.1240
11.0629 1.4578 2.6431
10.3851 4.0552 2.6430
9.1014 6.4093 2.6417
7.4135 8.5219 2.6837
2.7331 5.3189 1.4227
1.6094 6.7712 1.6580
-0.0934 11.7001 2.7908
-2.8838 11.3258 2.7908
-5.2018 9.7361 2.6384
-7.7990 8.6787 2.7908
-9.6436 6.5602 2.7908
-10.9312 4.0643 2.7908
-11.5885 1.3338 2.7908
-11.5775 -1.4758 2.7908
-10.8979 -4.2038 2.7908
-9.5871 -6.6937 2.7908
-4.9482 -5.6424 1.7890
-5.3985 -10.4047 2.7908
-1.8210 -7.5290 1.8418
0.0468 -11.7522 2.7908
1.8848 -7.5300 1.8412
5.5064 -10.4104 2.7908
7.4135 -8.3211 2.6391
9.1270 -6.2680 2.6209
10.4507 -3.9400 2.6435
11.0862 -1.3288 2.6433
11.0760 1.3575 2.6432
10.4218 3.9611 2.6430
9.1601 6.3272 2.6418
7.4146 8.3684 2.6564
2.7808 5.2930 1.4224
1.6080 6.5028 1.5957
0.0127 11.7010 2.7908
-2.7811 11.3519 2.7908
-5.1134 9.7832 2.6384
-7.7201 8.7493 2.7908
-9.5838 6.6474 2.7908
-10.8939 4.1633 2.7908
-11.5757 1.4388 2.7908
-11.5901 -1.3707 2.7908
-10.9352 -4.1047 2.7908
-9.6470 -6.6062 2.7908
-4.9736 -5.5687 1.7801
-5.4923 -10.3548 2.7908
-1.8933 -7.5287 1.8460
-0.0564 -11.1763 2.6542
1.8126 -7.5296 1.8371
5.4120 -10.4594 2.7908
7.3373 -8.3869 2.6389
9.1247 -6.3884 2.6367
8.0832 -3.1311 2.0517
8.5454 -1.1026 2.0398
11.0881 1.2575 2.6432
10.4575 3.8669 2.6430
9.2178 6.2449 2.6420
7.4396 8.2455 2.6384
2.8280 5.2667 1.4220
1.6068 6.2546 1.5382
0.1185 11.7009 2.7908
-2.6785 11.3770 2.7908
-5.0250 9.8293 2.6384
-7.6410 8.8190 2.7908
-9.5234 6.7338 2.7908
-10.8558 4.2616 2.7908
-11.5621 1.5433 2.7908
-11.6017 -1.2659 2.7908
-10.9714 -4.0055 2.7908
-9.7059 -6.5185 2.7908
-7.8760 -8.6596 2.7908
-5.5854 -10.3043 2.7908
-1.9657 -7.5284 1.8502
-0.1557 -11.0327 2.6205
1.7404 -7.5292 1.8332
5.3168 -10.5077 2.7908
7.2603 -8.4523 2.6387
9.0893 -6.4872 2.6434
7.8760 -3.1333 2.0063
8.5396 -1.1807 2.0408
11.0993 1.1569 2.6432
10.4925 3.7721 2.6430
9.2750 6.1617 2.6422
7.5144 8.1776 2.6384
2.8751 5.2399 1.4217
1.6056 6.0229 1.4847
0.2246 11.6999 2.7908
-2.5754 11.4013 2.7908
-4.9358 9.8748 2.6384
-7.5608 8.8880 2.7908
-9.4621 6.8200 2.7908
-10.8167 4.3598 2.7908
-11.5475 1.6481 2.7908
-11.6124 -1.1606 2.7908
-11.0068 -3.9061 2.7908
-9.7639 -6.4302 2.7908
-7.9549 -8.5877 2.7908
-5.6780 -10.2529 2.7908
-2.0384 -7.5281 1.8547
-0.2544 -10.9890 2.6106
1.6688 -7.5288 1.8294
5.2215 -10.5549 2.7908
7.1830 -8.5167 2.6385
9.0297 -6.5685 2.6432
7.6906 -3.1402 1.9662
8.5334 -1.2584 2.0420
11.1096 1.0567 2.6432
10.5266 3.6773 2.6430
9.3312 6.0783 2.6423
7.5884 8.1103 2.6384
2.9217 5.2127 1.4214
1.6045 5.8075 1.4350
0.3303 11.6979 2.7908
-2.4723 11.4246 2.7908
-4.8465 9.9193 2.6384
-7.4803 8.9561 2.7908
-9.4002 6.9053 2.7908
-10.7768 4.4574 2.7908
-11.5320 1.7523 2.7908
-11.6222 -1.0556 2.7908
-11.0414 -3.8060 2.7908
-9.8214 -6.3412 2.7908
-8.0307 -8.5148 2.7908
-5.7704 -10.2005 2.7908
-2.1118 -7.5277 1.8594
-0.2430 -7.5416 1.7922
1.5973 -7.5284 1.8258
5.1254 -10.6015 2.7908
7.1051 -8.5810 2.6384
8.9692 -6.6497 2.6431
7.6421 -3.2016 1.9611
8.5267 -1.3365 2.0432
11.1190 0.9560 2.6432
10.5598 3.5819 2.6430
9.3869 5.9940 2.6425
7.6620 8.0415 2.6385
2.9683 5.1850 1.4210
1.6493 5.7653 1.4282
0.4364 11.6950 2.7908
-2.3687 11.4470 2.7908
-4.7565 9.9632 2.6384
-7.3990 9.0239 2.7908
-9.3375 6.9900 2.7908
-10.7361 4.5546 2.7908
-11.5155 1.8564 2.7908
-11.6310 -0.9505 2.7908
-11.0750 -3.7060 2.7908
-9.8779 -6.2519 2.7908
-8.1069 -8.4415 2.7908
-5.8620 -10.1474 2.7908
-2.1853 -7.5274 1.8642
-0.3110 -7.5360 1.7915
1.5263 -7.5280 1.8223
5.0293 -10.6470 2.7908
7.0271 -8.6446 2.6384
8.9082 -6.7299 2.6429
10.2621 -4.4085 2.6435
8.5196 -1.4144 2.0444
11.1275 0.8555 2.6432
10.5921 3.4865 2.6430
9.4416 5.9096 2.6426
7.7347 7.9724 2.6385
3.0145 5.1570 1.4207
1.7011 5.7497 1.4280
0.5420 11.6911 2.7908
-2.2653 11.4684 2.7908
-4.6664 10.0061 2.6384
-7.3173 9.0905 2.7908
-9.2738 7.0745 2.7908
-10.6944 4.6518 2.7908
-11.4981 1.9608 2.7908
-11.6389 -0.8450 2.7908
-11.1077 -3.6052 2.7908
-9.9338 -6.1618 2.7908
-8.1827 -8.3673 2.7908
-5.9535 -10.0934 2.7908
-3.3734 -11.2385 2.7908
-0.3794 -7.5357 1.7923
1.4553 -7.5276 1.8190
4.9324 -10.6918 2.7908
6.9791 -8.7463 2.6501
8.8462 -6.8099 2.6428
9.3529 -4.1188 2.4189
8.5121 -1.4925 2.0458
11.1351 0.7547 2.6432
10.6237 3.3904 2.6430
9.4957 5.8244 2.6428
7.8071 7.9024 2.6385
3.0605 5.1285 1.4203
1.7528 5.7336 1.4278
0.6477 11.6863 2.7908
-2.1617 11.4889 2.7908
-4.5760 10.0482 2.6384
-7.2350 9.1565 2.7908
-9.2096 7.1581 2.7908
-10.6519 4.7482 2.7908
-11.4798 2.0646 2.7908
-11.6457 -0.7398 2.7908
-11.1395 -3.5046 2.7908
-9.9887 -6.0716 2.7908
-8.2576 -8.2926 2.7908
-6.0442 -10.0387 2.7908
-3.4746 -11.2071 2.7908
-0.4477 -7.5354 1.7932
1.3848 -7.5272 1.8159
4.8355 -10.7355 2.7908
6.9675 -8.8954 2.6762
8.7837 -6.8890 2.6426
9.1683 -4.1367 2.3807
8.5042 -1.5704 2.0471
11.1417 0.6541 2.6432
10.6542 3.2945 2.6430
9.5314 5.7284 2.6381
7.8785 7.8319 2.6385
3.1061 5.0996 1.4200
1.8046 5.7169 1.4276
0.7536 11.6805 2.7908
-2.0575 11.5085 2.7908
-4.4848 10.0896 2.6384
-7.1519 9.2220 2.7908
-9.1444 7.2414 2.7908
-10.6084 4.8446 2.7908
-11.4604 2.1686 2.7908
-11.6517 -0.6341 2.7908
-11.1705 -3.4033 2.7908
-10.0429 -5.9805 2.7908
-8.3321 -8.2170 2.7908
-6.1346 -9.9830 2.7908
-3.5759 -11.1745 2.7908
-0.5163 -7.5350 1.7942
1.3143 -7.5268 1.8130
4.7378 -10.7785 2.7908
6.9586 -9.0518 2.7042
8.7203 -6.9679 2.6425
9.1664 -4.2363 2.3900
8.4958 -1.6487 2.0486
11.1475 0.5531 2.6432
10.6839 3.1982 2.6430
9.5292 5.6105 2.6232
7.9494 7.7609 2.6385
3.1514 5.0703 1.4196
1.8560 5.6998 1.4274
0.8592 11.6737 2.7908
-1.9535 11.5271 2.7908
-4.3936 10.1300 2.6384
-7.0684 9.2864 2.7908
-9.0788 7.3239 2.7908
-10.5642 4.9403 2.7908
-11.4402 2.2720 2.7908
-11.6567 -0.5288 2.7908
-11.2004 -3.3022 2.7908
-10.0961 -5.8893 2.7908
-8.4056 -8.1410 2.7908
-6.2243 -9.9266 2.7908
-3.6765 -11.1412 2.7908
-0.5847 -7.5347 1.7954
1.2525 -7.5761 1.8221
3.2325 -7.5381 1.9442
6.9496 -9.2112 2.7330
8.6563 -7.0458 2.6423
9.1644 -4.3362 2.3997
8.4870 -1.7266 2.0502
11.1523 0.4524 2.6432
10.7129 3.1013 2.6430
9.5269 5.4935 2.6087
8.0201 7.6891 2.6386
3.1965 5.0404 1.4193
1.9074 5.6822 1.4271
0.9650 11.6660 2.7908
-1.8490 11.5448 2.7908
-4.3017 10.1698 2.6384
-6.9841 9.3502 2.7908
-9.0121 7.4060 2.7908
-10.5190 5.0359 2.7908
-11.4191 2.3757 2.7908
-11.6608 -0.4230 2.7908
-11.2296 -3.2004 2.7908
-10.1487 -5.7972 2.7908
-8.4787 -8.0641 2.7908
-6.3137 -9.8693 2.7908
-3.7772 -11.1069 2.7908
-0.6534 -7.5344 1.7968
1.2503 -8.0134 1.9246
3.1517 -7.5376 1.9367
6.9404 -9.3745 2.7628
8.5917 -7.1232 2.6421
9.1501 -4.4310 2.4063
8.4796 -1.8050 2.0522
11.1562 0.3517 2.6432
10.7408 3.0046 2.6430
9.5247 5.3781 2.5946
8.0902 7.6173 2.6388
3.2412 5.0103 1.4189
1.9584 5.6641 1.4269
1.0705 11.6574 2.7908
-1.7447 11.5615 2.7908
-4.2098 10.2086 2.6384
-6.8995 9.4133 2.7908
-8.9449 7.4872 2.7908
-10.4731 5.1308 2.7908
-11.3970 2.4787 2.7908
-11.6639 -0.3176 2.7908
-11.2577 -3.0987 2.7908
-10.2003 -5.7051 2.7908
-8.5508 -7.9868 2.7908
-6.4023 -9.8114 2.7908
-3.8772 -11.0717 2.7908
-0.7220 -7.5340 1.7982
1.2478 -8.5010 2.0390
3.0718 -7.5371 1.9295
6.9249 -9.5324 2.7908
8.5261 -7.2002 2.6420
9.1271 -4.5225 2.4109
8.4734 -1.8842 2.0547
11.1592 0.2506 2.6432
10.7680 2.9072 2.6430
9.5433 5.2751 2.5864
8.1599 7.5446 2.6390
3.2858 4.9796 1.4185
2.0095 5.6455 1.4267
1.1762 11.6477 2.7908
-1.6398 11.5773 2.7908
-4.1172 10.2467 2.6384
-6.4419 8.9583 2.6384
-8.8768 7.5682 2.7908
-10.4261 5.2256 2.7908
-11.3740 2.5820 2.7908
-11.6660 -0.2118 2.7908
-11.2849 -2.9963 2.7908
-10.2512 -5.6121 2.7908
-8.6225 -7.9086 2.7908
-6.4907 -9.7524 2.7908
-3.9768 -11.0357 2.7908
-0.7907 -7.5337 1.7999
1.2450 -9.0502 2.1680
2.9926 -7.5366 1.9224
6.8383 -9.5943 2.7908
8.4601 -7.2763 2.6418
9.1251 -4.6246 2.4213
8.4669 -1.9631 2.0574
7.9972 0.1073 1.8939
10.7941 2.8099 2.6431
9.5909 5.1889 2.5864
8.2287 7.4714 2.6392
3.3299 4.9486 1.4181
2.0602 5.6265 1.4265
1.2814 11.6372 2.7908
-1.5352 11.5922 2.7908
-4.0246 10.2839 2.6384
-6.3608 9.0164 2.6384
-8.8082 7.6482 2.7908
-10.3785 5.3196 2.7908
-11.3501 2.6846 2.7908
-11.6672 -0.1064 2.7908
-11.3112 -2.8942 2.7908
-10.3011 -5.5191 2.7908
-8.6932 -7.8300 2.7908
-6.5782 -9.6930 2.7908
-4.0765 -10.9987 2.7908
-0.8598 -7.5334 1.8017
1.2418 -9.6760 2.3152
2.9136 -7.5361 1.9155
6.7509 -9.6556 2.7908
8.3931 -7.3522 2.6416
9.1231 -4.7280 2.4321
8.9022 -2.1493 2.1678
11.1624 0.0486 2.6432
10.8195 2.7120 2.6431
9.6379 5.1020 2.5864
8.2971 7.3974 2.6394
3.3739 4.9171 1.4177
2.1109 5.6069 1.4262
1.3870 11.6257 2.7908
-1.4301 11.6061 2.7908
-3.9313 10.3203 2.6384
-6.2790 9.0739 2.6384
-8.7386 7.7279 2.7908
-10.3299 5.4135 2.7908
-11.3252 2.7874 2.7908
-11.6675 -0.0006 2.7908
-11.3366 -2.7918 2.7908
-10.3501 -5.4255 2.7908
-8.7632 -7.7508 2.7908
-6.6652 -9.6327 2.7908
-4.1755 -10.9609 2.7908
-0.9288 -7.5330 1.8036
1.2382 -10.3902 2.4834
2.8354 -7.5357 1.9089
6.6633 -9.7159 2.7908
8.3257 -7.4271 2.6415
9.1545 -4.8496 2.4520
10.8316 -2.7188 2.6434
8.5877 -0.0402 2.0335
10.8439 2.6143 2.6431
9.6840 5.0149 2.5864
8.3645 7.3230 2.6396
3.4174 4.8853 1.4174
2.1612 5.5869 1.4260
1.4920 11.6132 2.7908
-1.3252 11.6191 2.7908
-3.8380 10.3558 2.6384
-6.1969 9.1305 2.6384
-8.6685 7.8066 2.7908
-10.2806 5.5067 2.7908
-11.2994 2.8896 2.7908
-11.6668 0.1049 2.7908
-11.3611 -2.6887 2.7908
-10.3985 -5.3313 2.7908
-8.8327 -7.6707 2.7908
-6.7519 -9.5714 2.7908
-4.2745 -10.9220 2.7908
-0.9981 -7.5327 1.8057
1.2105 -11.0063 2.6281
2.7575 -7.5352 1.9024
6.5747 -9.7757 2.7908
8.2574 -7.5016 2.6413
9.1524 -4.9553 2.4634
10.8067 -2.8169 2.6434
8.5874 -0.1181 2.0336
10.8675 2.5160 2.6431
9.7294 4.9271 2.5864
8.4316 7.2477 2.6398
3.4608 4.8530 1.4170
2.2115 5.5664 1.4257
1.5973 11.5997 2.7908
-1.2199 11.6311 2.7908
-3.7441 10.3906 2.6384
-6.1140 9.1866 2.6384
-8.5977 7.8848 2.7908
-10.2304 5.5994 2.7908
-11.2728 2.9916 2.7908
-11.6652 0.2103 2.7908
-11.3846 -2.5859 2.7908
-10.4459 -5.2369 2.7908
-8.9013 -7.5902 2.7908
-6.8378 -9.5095 2.7908
-4.3728 -10.8824 2.7908
-1.0674 -7.5324 1.8080
1.1157 -11.0623 2.6391
2.6804 -7.5347 1.8962
6.4860 -9.8344 2.7908
8.1887 -7.5753 2.6411
9.1504 -5.0616 2.4751
10.7809 -2.9144 2.6434
8.5866 -0.1956 2.0337
10.8902 2.4178 2.6431
9.7739 4.8392 2.5864
8.4977 7.1721 2.6400
3.5036 4.8204 1.4166
2.2614 5.5455 1.4255
1.7021 11.5854 2.7908
-1.1147 11.6424 2.7908
-3.6502 10.4243 2.6384
-6.0309 9.2418 2.6384
-8.5260 7.9626 2.7908
-10.1793 5.6920 2.7908
-11.2451 3.0937 2.7908
-11.6625 0.3161 2.7908
-11.4072 -2.4825 2.7908
-10.4925 -5.1417 2.7908
-8.9693 -7.5088 2.7908
-6.9234 -9.4466 2.7908
-4.4710 -10.8418 2.7908
-1.1371 -7.5321 1.8104
1.0737 -11.7083 2.7908
2.6036 -7.5343 1.8901
6.3964 -9.8925 2.7908
8.1190 -7.6485 2.6409
9.1483 -5.1693 2.4871
10.7541 -3.0121 2.6434
8.5852 -0.2735 2.0338
10.9120 2.3190 2.6431
9.8177 4.7506 2.5864
8.5633 7.0956 2.6401
3.5463 4.7873 1.4161
2.3110 5.5241 1.4252
1.8068 11.5701 2.7908
-1.0096 11.6522 2.7908
-3.5560 10.4573 2.6384
-5.9473 9.2961 2.6384
-8.4539 8.0394 2.7908
-4.8344 2.7609 1.3322
-11.2166 3.1952 2.7908
-11.6590 0.4214 2.7908
-11.4289 -2.3792 2.7908
-10.5382 -5.0465 2.7908
-9.0364 -7.4272 2.7908
-7.0081 -9.3833 2.7908
-4.5686 -10.8004 2.7908
-1.2068 -7.5318 1.8129
0.9678 -11.7170 2.7908
2.5275 -7.5338 1.8843
6.3066 -9.9496 2.7908
8.0489 -7.7209 2.6408
9.1462 -5.2776 2.4994
10.7266 -3.1091 2.6434
8.5833 -0.3510 2.0340
10.9328 2.2205 2.6431
9.8606 4.6619 2.5864
8.6280 7.0187 2.6403
3.5886 4.7540 1.4157
2.3607 5.5021 1.4249
1.9117 11.5538 2.7908
-0.9039 11.6617 2.7908
-3.4611 10.4895 2.6384
-5.8629 9.3499 2.6384
-8.3807 8.1159 2.7908
-4.7888 2.7928 1.3266
-11.1871 3.2968 2.7908
-11.6545 0.5271 2.7908
-11.4496 -2.2754 2.7908
-10.5831 -4.9506 2.7908
-9.1030 -7.3446 2.7908
-7.0926 -9.3189 2.7908
-4.6661 -10.7580 2.7908
-1.2769 -7.5314 1.8157
0.8615 -11.7247 2.7908
2.4516 -7.5333 1.8786
6.2160 -10.0061 2.7908
7.9779 -7.7929 2.6406
9.1441 -5.3875 2.5121
10.6980 -3.2062 2.6435
8.5808 -0.4289 2.0342
10.9528 2.1217 2.6431
9.9027 4.5728 2.5864
8.6920 6.9413 2.6405
7.1588 9.3077 2.7908
2.4100 5.4798 1.4247
2.0161 11.5366 2.7908
-0.7986 11.6697 2.7908
-3.3663 10.5207 2.6384
-5.7784 9.4028 2.6384
-8.3072 8.1914 2.7908
-4.7890 2.8512 1.3337
-11.1568 3.3977 2.7908
-11.6490 0.6324 2.7908
-11.4694 -2.1718 2.7908
-10.6270 -4.8546 2.7908
-9.1686 -7.2617 2.7908
-7.1761 -9.2540 2.7908
-4.7628 -10.7149 2.7908
-1.3469 -7.5311 1.8185
0.7556 -11.7315 2.7908
2.3764 -7.5329 1.8731
6.1252 -10.0615 2.7908
7.9065 -7.8639 2.6404
9.1419 -5.4981 2.5251
10.6687 -3.3027 2.6435
8.5778 -0.5064 2.0345
10.9719 2.0224 2.6431
9.9441 4.4830 2.5864
8.7556 6.8630 2.6407
7.2433 9.2428 2.7908
2.4592 5.4569 1.4244
2.1208 11.5184 2.7908
-0.6927 11.6769 2.7908
-3.2709 10.5512 2.6384
-5.6930 9.4551 2.6384
-8.2327 8.2666 2.7908
-9.9668 6.0569 2.7908
-11.1254 3.4987 2.7908
-11.6426 0.7380 2.7908
-11.4883 -2.0676 2.7908
-10.6702 -4.7578 2.7908
-9.2336 -7.1780 2.7908
-7.2594 -9.1881 2.7908
-4.8596 -10.6707 2.7908
-1.4174 -7.5308 1.8216
0.6491 -11.7374 2.7908
2.3014 -7.5325 1.8678
6.0339 -10.1161 2.7908
7.8345 -7.9343 2.6402
9.1064 -5.5893 2.5291
10.6386 -3.3990 2.6435
8.5742 -0.5840 2.0347
10.9900 1.9233 2.6431
9.9846 4.3932 2.5864
8.8182 6.7844 2.6409
7.3268 9.1773 2.7908
2.5080 5.4337 1.4241
2.2249 11.4993 2.7908
-0.5872 11.6832 2.7908
-3.1755 10.5807 2.6384
-5.6075 9.5064 2.6384
-8.1579 8.3408 2.7908
-9.9117 6.1468 2.7908
-11.0933 3.5991 2.7908
-11.6353 0.8432 2.7908
-11.5062 -1.9637 2.7908
-10.7124 -4.6610 2.7908
-9.2977 -7.0940 2.7908
-7.3417 -9.1217 2.7908
-4.9555 -10.6258 2.7908
-1.4879 -7.5305 1.8247
0.5431 -11.7422 2.7908
2.2271 -7.5320 1.8627
5.9418 -10.1701 2.7908
7.7615 -8.0043 2.6400
9.1042 -5.7022 2.5428
10.6074 -3.4953 2.6435
8.5701 -0.6618 2.0351
11.0073 1.8236 2.6431
10.0243 4.3026 2.5864
8.8803 6.7049 2.6410
7.4088 9.1094 2.7904
2.5568 5.4098 1.4238
2.3292 11.4792 2.7908
-0.4813 11.6886 2.7908
-3.0796 10.6095 2.6384
-5.5212 9.5572 2.6384
-8.0820 8.4147 2.7908
-9.8556 6.2365 2.7908
-11.0602 3.6995 2.7908
-11.6270 0.9487 2.7908
-11.5232 -1.8592 2.7908
-10.7538 -4.5635 2.7908
-9.3612 -7.0090 2.7908
-7.4238 -9.0543 2.7908
-5.0510 -10.5801 2.7908
-1.5587 -7.5302 1.8281
0.4370 -11.7461 2.7908
2.1532 -7.5316 1.8578
5.8495 -10.2230 2.7908
7.6882 -8.0733 2.6398
9.1020 -5.8159 2.5567
10.5754 -3.5910 2.6435
8.5667 -0.7394 2.0357
11.0237 1.7242 2.6431
10.0632 4.2121 2.5864
8.9415 6.6251 2.6412
7.4102 8.9449 2.7602
2.6051 5.3857 1.4235
2.4329 11.4583 2.7908
-0.3757 11.6929 2.7908
-3.0153 10.7496 2.6664
-5.4348 9.6069 2.6384
-8.0058 8.4875 2.7908
-9.7989 6.3253 2.7908
-11.0262 3.7993 2.7908
-11.6178 1.0537 2.7908
-11.5393 -1.7550 2.7908
-10.7942 -4.4660 2.7908
-9.4238 -6.9239 2.7908
-7.5049 -8.9864 2.7908
-5.1465 -10.5334 2.7908
-1.6299 -7.5298 1.8316
0.3304 -11.7491 2.7908
2.0794 -7.5311 1.8530
5.7564 -10.2753 2.7908
7.6140 -8.1419 2.6397
9.1331 -5.9531 2.5806
8.9425 -3.1272 2.2423
8.5629 -0.8173 2.0365
11.0392 1.6242 2.6431
10.1013 4.1208 2.5864
9.0022 6.5445 2.6414
7.4115 8.7832 2.7308
2.6534 5.3610 1.4232
1.6119 7.2667 1.7733
-0.2696 11.6965 2.7908
-2.9954 11.0639 2.7373
-5.3476 9.6561 2.6384
-7.9287 8.5599 2.7908
-9.7412 6.4140 2.7908
-10.9913 3.8991 2.7908
-11.6075 1.1590 2.7908
-11.5544 -1.6506 2.7908
-10.8338 -4.3682 2.7908
-9.4855 -6.8382 2.7908
-7.5854 -8.9179 2.7908
-5.2412 -10.4859 2.7908
-1.7012 -7.5295 1.8353
0.2243 -11.7510 2.7908
2.0062 -7.5307 1.8485
5.6632 -10.3266 2.7908
7.5395 -8.2096 2.6395
9.1309 -6.0698 2.5953
8.9406 -3.2174 2.2490
8.5587 -0.8950 2.0373
11.0537 1.5245 2.6431
10.2353 4.0681 2.6111
9.0619 6.4636 2.6416
7.4127 8.6253 2.7023
2.7013 5.3359 1.4229
1.6104 6.9617 1.7023
-0.1640 11.6990 2.7908
-2.9521 11.3078 2.7908
-5.2603 9.7043 2.6384
-7.8511 8.6314 2.7908
-9.6830 6.5018 2.7908
-10.9556 3.9983 2.7908
-11.5964 1.2638 2.7908
-11.5686 -1.5457 2.7908
-10.8725 -4.2696 2.7908
-9.5468 -6.7516 2.7908
-7.6656 -8.8483 2.7908
-5.3358 -10.4374 2.7908
-1.7730 -7.5292 1.8392
0.1178 -11.7521 2.7908
1.9332 -7.5303 1.8441
5.5692 -10.3772 2.7908
7.4640 -8.2768 2.6393
9.1286 -6.1883 2.6105
10.4742 -3.8769 2.6435
8.7337 -0.9934 2.0810
11.0674 1.4243 2.6431
10.3975 4.0238 2.6430
9.1211 6.3819 2.6417
7.4139 8.4699 2.6745
2.7491 5.3103 1.4226
1.6089 6.6791 1.6366
-0.0579 11.7005 2.7908
-2.8495 11.3346 2.7908
-5.1726 9.7518 2.6384
-7.7730 8.7021 2.7908
-9.6239 6.5891 2.7908
-10.9190 4.0971 2.7908
-11.5844 1.3685 2.7908
-11.5818 -1.4411 2.7908
-10.9103 -4.1711 2.7908
-9.6070 -6.6648 2.7908
-4.9456 -5.6055 1.7821
-5.4296 -10.3883 2.7908
-1.8449 -7.5289 1.8432
0.0105 -10.6766 2.7908
1.8613 -7.5322 2.0260
4.9730 -9.4710 2.7908
6.9807 -7.8831 2.7454
8.3367 -5.7623 2.6413
9.4807 -3.6072 2.6435
10.0654 -1.2374 2.6433
10.0641 1.2024 2.6432
9.4778 3.5693 2.6430
8.3322 5.7178 2.6397
3.5792 4.0149 1.4066
2.5300 4.7800 1.4160
1.6076 6.4168 1.7341
0.0440 10.6340 2.7908
-2.4963 10.3254 2.7908
-4.6208 8.9067 2.6384
-6.9936 7.9745 2.7908
-8.6937 6.0692 2.7908
-9.8916 3.8145 2.7908
-10.5187 1.3396 2.7908
-10.5389 -1.2143 2.7908
-9.9504 -3.7010 2.7908
-8.7856 -5.9777 2.7908
-4.9948 -5.5589 1.9606
-5.0188 -9.3941 2.7908
-1.9178 -7.5309 2.0339
-0.0668 -8.2812 2.1648
1.7890 -7.5318 2.0215
4.8870 -9.5153 2.7908
6.9726 -8.0189 2.7706
8.2837 -5.8372 2.6411
9.4478 -3.6928 2.6435
10.0539 -1.3285 2.6433
10.0748 1.1114 2.6432
9.5100 3.4834 2.6430
8.3844 5.6428 2.6399
7.1738 7.9020 2.7908
2.5727 4.7562 1.4157
1.6064 6.1743 1.6723
0.1403 10.6336 2.7908
-2.4028 10.3480 2.7908
-4.5402 8.9484 2.6384
-6.5433 7.5987 2.6384
-8.6385 6.1477 2.7908
-9.8566 3.9039 2.7908
-10.5060 1.4347 2.7908
-10.5493 -1.1188 2.7908
-9.9832 -3.6107 2.7908
-8.8390 -5.8977 2.7908
-7.1810 -7.8480 2.7908
-5.1033 -9.3479 2.7908
-1.9905 -7.5306 2.0386
-0.1404 -8.2009 2.1442
1.7171 -7.5313 2.0172
4.8006 -9.5588 2.7908
6.9500 -8.1405 2.7908
8.2301 -5.9115 2.6410
9.4140 -3.7781 2.6435
10.0416 -1.4194 2.6433
10.0847 1.0202 2.6432
9.5415 3.3974 2.6430
8.4359 5.5672 2.6400
7.2453 7.8371 2.7908
2.6152 4.7319 1.4154
1.6052 5.9485 1.6150
0.2365 10.6323 2.7908
-2.3092 10.3697 2.7908
-4.4591 8.9894 2.6384
-6.4744 7.6578 2.6384
-8.5826 6.2257 2.7908
-9.8209 3.9930 2.7908
-10.4925 1.5298 2.7908
-10.5587 -1.0233 2.7908
-10.0151 -3.5201 2.7908
-8.8916 -5.8173 2.7908
-7.2514 -7.7823 2.7908
-5.1875 -9.3009 2.7908
-2.0635 -7.5303 2.0436
-0.2136 -8.1616 2.1344
1.6455 -7.5309 2.0131
4.7138 -9.6016 2.7908
6.8759 -8.2029 2.7908
8.1758 -5.9854 2.6409
7.6259 -3.1409 2.1493
10.0285 -1.5102 2.6433
10.0937 0.9290 2.6432
9.5721 3.3111 2.6430
8.4867 5.4912 2.6402
7.3163 7.7715 2.7908
2.6574 4.7073 1.4151
1.6041 5.7376 1.5615
0.3327 10.6302 2.7908
-2.2153 10.3905 2.7908
-4.3777 9.0297 2.6384
-6.4049 7.7156 2.6384
-8.5260 6.3032 2.7908
-9.7843 4.0817 2.7908
-10.4781 1.6246 2.7908
-10.5673 -0.9276 2.7908
-10.0463 -3.4292 2.7908
-8.9436 -5.7364 2.7908
-7.3212 -7.7161 2.7908
-5.2712 -9.2531 2.7908
-2.1368 -7.5300 2.0488
-0.2655 -7.5385 1.9721
1.5741 -7.5305 2.0092
4.6266 -9.6435 2.7908
6.8013 -8.2646 2.7908
8.1208 -6.0587 2.6407
7.6424 -3.2289 2.1621
10.0146 -1.6009 2.6433
10.1020 0.8376 2.6432
9.6020 3.2245 2.6430
8.5368 5.4147 2.6403
7.3733 7.6917 2.7858
2.6995 4.6822 1.4148
1.6031 5.5402 1.5116
0.4290 10.6272 2.7908
-2.1213 10.4105 2.7908
-4.2959 9.0692 2.6384
-6.3349 7.7741 2.6384
-8.4687 6.3801 2.7908
-9.7470 4.1701 2.7908
-10.4628 1.7194 2.7908
-10.5751 -0.8319 2.7908
-10.0766 -3.3380 2.7908
-8.9948 -5.6550 2.7908
-7.3904 -7.6492 2.7908
-5.3545 -9.2046 2.7908
-2.2105 -7.5297 2.0542
-0.3338 -7.5382 1.9728
1.5031 -7.5301 2.0054
4.5390 -9.6847 2.7908
6.7261 -8.3256 2.7908
8.0651 -6.1315 2.6406
9.3081 -4.0322 2.6435
9.9998 -1.6914 2.6434
10.1094 0.7462 2.6432
9.6311 3.1376 2.6430
8.5862 5.3377 2.6404
7.3745 7.5547 2.7602
2.7412 4.6568 1.4145
1.6022 5.3550 1.4649
0.5251 10.6233 2.7908
-2.0270 10.4297 2.7908
-4.2138 9.1080 2.6384
-6.2644 7.8312 2.6384
-8.4107 6.4566 2.7908
-9.7088 4.2581 2.7908
-10.4467 1.8140 2.7908
-10.5819 -0.7362 2.7908
-10.1061 -3.2465 2.7908
-9.0453 -5.5731 2.7908
-7.4590 -7.5816 2.7908
-5.4373 -9.1554 2.7908
-2.4948 -8.2219 2.2492
-0.4022 -7.5378 1.9737
1.4323 -7.5297 2.0019
4.4511 -9.7251 2.7908
6.6504 -8.3859 2.7908
8.0088 -6.2038 2.6405
9.2712 -4.1163 2.6435
9.9842 -1.7818 2.6434
10.1159 0.6548 2.6432
9.6594 3.0504 2.6430
8.6349 5.2603 2.6406
7.3757 7.4204 2.7353
2.7828 4.6310 1.4142
1.6013 5.1808 1.4211
0.6213 10.6186 2.7908
-1.9326 10.4480 2.7908
-4.1313 9.1460 2.6384
-6.1934 7.8878 2.6384
-8.3520 6.5325 2.7908
-9.6699 4.3459 2.7908
-10.4297 1.9085 2.7908
-10.5879 -0.6404 2.7908
-10.1347 -3.1549 2.7908
-9.0950 -5.4908 2.7908
-7.5270 -7.5135 2.7908
-5.2183 -8.6082 2.6384
-3.1876 -10.1730 2.7908
-0.4706 -7.5375 1.9747
1.3617 -7.5293 1.9985
4.3628 -9.7647 2.7908
6.5741 -8.4455 2.7908
7.9519 -6.2756 2.6403
9.1676 -4.1700 2.6246
9.9678 -1.8721 2.6434
10.1217 0.5633 2.6432
9.6869 2.9630 2.6430
8.6830 5.1824 2.6407
7.3768 7.2884 2.7110
2.8240 4.6048 1.4138
1.6478 5.1650 1.4207
0.7174 10.6130 2.7908
-1.8381 10.4650 2.7908
-4.0485 9.1833 2.6384
-6.1219 7.9437 2.6384
-8.2926 6.6080 2.7908
-9.6302 4.4332 2.7908
-10.4119 2.0028 2.7908
-10.5931 -0.5445 2.7908
-10.1626 -3.0629 2.7908
-9.1440 -5.4081 2.7908
-7.5944 -7.4448 2.7908
-5.2957 -8.5602 2.6384
-3.2794 -10.1433 2.7908
-0.5391 -7.5372 1.9759
1.2914 -7.5289 1.9953
4.2741 -9.8034 2.7908
6.4972 -8.5045 2.7908
7.8943 -6.3468 2.6402
9.1657 -4.2696 2.6350
9.9506 -1.9622 2.6434
10.1266 0.4717 2.6432
9.7136 2.8753 2.6431
8.7303 5.1041 2.6409
7.3778 7.1587 2.6874
2.8651 4.5782 1.4135
1.6943 5.1494 1.4205
0.8134 10.6065 2.7908
-1.7433 10.4821 2.7908
-3.9653 9.2199 2.6384
-6.0499 7.9990 2.6384
-8.2326 6.6828 2.7908
-9.5897 4.5202 2.7908
-10.3933 2.0969 2.7908
-10.5974 -0.4485 2.7908
-10.1896 -2.9707 2.7908
-9.1922 -5.3249 2.7908
-7.6611 -7.3754 2.7908
-5.3727 -8.5116 2.6384
-3.3709 -10.1128 2.7908
-0.6077 -7.5368 1.9773
1.2518 -7.7162 2.0419
3.2066 -7.5404 2.1383
6.4199 -8.5627 2.7908
7.8360 -6.4176 2.6400
9.1552 -4.3659 2.6433
9.9326 -2.0522 2.6434
10.1307 0.3800 2.6432
9.7395 2.7874 2.6431
8.7769 5.0253 2.6410
7.3788 7.0309 2.6643
2.9058 4.5512 1.4132
1.7407 5.1334 1.4203
0.9094 10.5992 2.7908
-1.6485 10.4978 2.7908
-3.8818 9.2557 2.6384
-5.9774 8.0536 2.6384
-8.1718 6.7572 2.7908
-9.5483 4.6068 2.7908
-10.3738 2.1909 2.7908
-10.6008 -0.3526 2.7908
-10.2158 -2.8783 2.7908
-9.2397 -5.2413 2.7908
-7.7273 -7.3055 2.7908
-5.4493 -8.4622 2.6384
-3.4621 -10.0814 2.7908
-0.6763 -7.5365 1.9788
1.2432 -8.1277 2.1478
3.1262 -7.5399 2.1301
6.3420 -8.6202 2.7908
7.7771 -6.4878 2.6399
9.1150 -4.4484 2.6432
9.9137 -2.1419 2.6434
10.1339 0.2884 2.6432
9.7647 2.6993 2.6431
8.8227 4.9462 2.6411
7.3869 6.9124 2.6445
2.9463 4.5238 1.4128
1.7869 5.1169 1.4201
1.0053 10.5910 2.7908
-1.5534 10.5127 2.7908
-3.7980 9.2907 2.6384
-5.9044 8.1075 2.6384
-8.1105 6.8309 2.7908
-9.5063 4.6931 2.7908
-10.3534 2.2847 2.7908
-10.6033 -0.2566 2.7908
-10.2411 -2.7856 2.7908
-9.2864 -5.1573 2.7908
-7.7927 -7.2350 2.7908
-5.5254 -8.4122 2.6384
-3.5530 -10.0492 2.7908
-0.7451 -7.5362 1.9805
1.1714 -8.1514 2.1513
3.0463 -7.5394 2.1222
6.2637 -8.6770 2.7908
7.7175 -6.5574 2.6397
9.0741 -4.5305 2.6431
9.0126 -2.0328 2.4079
8.0221 0.1557 2.0919
9.7890 2.6109 2.6431
8.8679 4.8666 2.6413
7.4325 6.8300 2.6384
2.9865 4.4961 1.4125
1.8329 5.1000 1.4199
1.1012 10.5819 2.7908
-1.4583 10.5268 2.7908
-3.7139 9.3251 2.6384
-5.8309 8.1609 2.6384
-8.0484 6.9043 2.7908
-9.4635 4.7789 2.7908
-10.3322 2.3783 2.7908
-10.6050 -0.1607 2.7908
-10.2656 -2.6928 2.7908
-9.3324 -5.0728 2.7908
-7.8575 -7.1638 2.7908
-5.6010 -8.3614 2.6384
-3.6436 -10.0162 2.7908
-0.8140 -7.5359 1.9823
1.1022 -8.1959 2.1604
2.9671 -7.5389 2.1145
6.1847 -8.7332 2.7908
7.6574 -6.6264 2.6396
9.0323 -4.6121 2.6430
8.9290 -2.0989 2.3905
8.0502 0.0834 2.0989
9.8125 2.5223 2.6431
8.9123 4.7865 2.6414
7.4943 6.7625 2.6384
3.0265 4.4680 1.4122
1.8788 5.0827 1.4197
1.1970 10.5720 2.7908
-1.3630 10.5400 2.7908
-3.6294 9.3586 2.6384
-5.7570 8.2135 2.6384
-7.9857 6.9767 2.7908
-9.4198 4.8644 2.7908
-10.3102 2.4717 2.7908
-10.6059 -0.0647 2.7908
-10.2893 -2.5996 2.7908
-9.3776 -4.9880 2.7908
-7.9217 -7.0921 2.7908
-5.6762 -8.3100 2.6384
-3.7340 -9.9823 2.7908
-0.8830 -7.5355 1.9844
1.0367 -8.2745 2.1786
2.8884 -7.5384 2.1070
6.1054 -8.7885 2.7908
7.5966 -6.6950 2.6394
8.9899 -4.6935 2.6429
9.8523 -2.4102 2.6434
10.1387 0.0133 2.6432
9.8352 2.4335 2.6431
8.9560 4.7061 2.6415
7.5555 6.6950 2.6384
3.0662 4.4395 1.4118
1.9245 5.0649 1.4195
1.2927 10.5612 2.7908
-1.2676 10.5523 2.7908
-3.5447 9.3913 2.6384
-5.6825 8.2654 2.6384
-7.9223 7.0489 2.7908
-9.3754 4.9495 2.7908
-10.2873 2.5649 2.7908
-10.6058 0.0314 2.7908
-10.3121 -2.5063 2.7908
-9.4220 -4.9027 2.7908
-7.9853 -7.0198 2.7908
-5.7509 -8.2580 2.6384
-3.8240 -9.9477 2.7908
-0.9521 -7.5352 1.9865
1.2321 -10.6109 2.7908
2.8103 -7.5379 2.0997
6.0255 -8.8432 2.7908
7.5351 -6.7629 2.6393
8.9467 -4.7744 2.6428
9.8302 -2.4993 2.6434
10.1386 -0.0784 2.6432
9.8571 2.3445 2.6431
8.9990 4.6252 2.6416
7.6161 6.6266 2.6385
3.1056 4.4107 1.4114
1.9700 5.0468 1.4193
1.3882 10.5495 2.7908
-1.1721 10.5637 2.7908
-3.4597 9.4233 2.6384
-5.6076 8.3167 2.6384
-7.8583 7.1204 2.7908
-9.3303 5.0342 2.7908
-10.2636 2.6579 2.7908
-10.6049 0.1274 2.7908
-10.3341 -2.4128 2.7908
-9.4657 -4.8170 2.7908
-8.0481 -6.9471 2.7908
-5.8251 -8.2052 2.6384
-3.9136 -9.9122 2.7908
-1.0214 -7.5349 1.9889
1.1359 -10.6211 2.7908
2.7327 -7.5374 2.0927
5.9451 -8.8971 2.7908
7.4731 -6.8303 2.6391
8.9027 -4.8549 2.6427
9.8072 -2.5882 2.6434
10.1376 -0.1702 2.6433
9.8782 2.2553 2.6431
9.0412 4.5441 2.6418
7.6761 6.5578 2.6385
3.1447 4.3815 1.4111
2.0154 5.0282 1.4190
1.4837 10.5370 2.7908
-1.0765 10.5743 2.7908
-3.3744 9.4546 2.6384
-5.5322 8.3674 2.6384
-7.7936 7.1914 2.7908
-9.2844 5.1185 2.7908
-10.2391 2.7507 2.7908
-10.6031 0.2234 2.7908
-10.3552 -2.3192 2.7908
-9.5085 -4.7311 2.7908
-8.1103 -6.8736 2.7908
-5.8989 -8.1518 2.6384
-4.0030 -9.8759 2.7908
-1.0909 -7.5346 1.9914
1.0398 -10.6306 2.7908
2.6556 -7.5370 2.0859
5.8642 -8.9503 2.7908
7.4104 -6.8971 2.6390
8.8580 -4.9351 2.6425
9.7835 -2.6768 2.6434
10.1359 -0.2618 2.6433
9.8985 2.1660 2.6431
9.0826 4.4624 2.6419
7.7355 6.4883 2.6385
3.1835 4.3519 1.4107
2.0606 5.0091 1.4188
1.5791 10.5236 2.7908
-0.9808 10.5841 2.7908
-3.2888 9.4851 2.6384
-5.4564 8.4173 2.6384
-7.7283 7.2618 2.7908
-9.2377 5.2023 2.7908
-10.2137 2.8432 2.7908
-10.6005 0.3193 2.7908
-10.3755 -2.2253 2.7908
-9.5506 -4.6446 2.7908
-8.1719 -6.7997 2.7908
-5.9722 -8.0977 2.6384
-4.0920 -9.8389 2.7908
-1.1606 -7.5342 1.9941
0.9435 -10.6391 2.7908
2.5790 -7.5365 2.0793
5.7828 -9.0028 2.7908
7.3472 -6.9634 2.6388
8.8126 -5.0147 2.6424
9.7590 -2.7652 2.6434
10.1333 -0.3535 2.6433
9.9180 2.0764 2.6431
9.1234 4.3804 2.6420
7.7942 6.4184 2.6385
3.2221 4.3220 1.4104
2.1056 4.9897 1.4186
1.6743 10.5093 2.7908
-0.8850 10.5929 2.7908
-3.2029 9.5148 2.6384
-5.3801 8.4666 2.6384
-7.6624 7.3315 2.7908
-4.8139 2.7687 1.4618
-10.1875 2.9355 2.7908
-10.5970 0.4152 2.7908
-10.3950 -2.1312 2.7908
-9.5919 -4.5578 2.7908
-8.2328 -6.7251 2.7908
-6.0449 -8.0430 2.6384
-4.1807 -9.8010 2.7908
-1.2304 -7.5339 1.9970
0.8471 -10.6468 2.7908
2.5029 -7.5360 2.0729
5.7010 -9.0545 2.7908
7.2834 -7.0290 2.6386
8.7665 -5.0940 2.6423
9.7336 -2.8534 2.6434
10.1299 -0.4452 2.6433
9.9366 1.9866 2.6431
9.1634 4.2981 2.6421
7.8523 6.3479 2.6385
3.2603 4.2917 1.4100
2.1503 4.9698 1.4183
1.7695 10.4942 2.7908
-0.7891 10.6009 2.7908
-3.1168 9.5437 2.6384
-5.3034 8.5151 2.6384
-7.5959 7.4007 2.7908
-4.7818 2.8081 1.4598
-10.1604 3.0276 2.7908
-10.5926 0.5111 2.7908
-10.4135 -2.0370 2.7908
-9.6325 -4.4707 2.7908
-8.2930 -6.6501 2.7908
-6.1172 -7.9876 2.6384
-4.2690 -9.7623 2.7908
-1.3005 -7.5336 2.0000
0.7508 -10.6536 2.7908
2.4274 -7.5356 2.0667
5.6187 -9.1054 2.7908
7.2189 -7.0940 2.6385
8.7196 -5.1728 2.6422
9.7075 -2.9413 2.6434
10.1256 -0.5368 2.6433
9.9545 1.8967 2.6431
9.2026 4.2153 2.6422
7.9098 6.2769 2.6385
3.2983 4.2611 1.4096
2.1950 4.9495 1.4181
1.8644 10.4782 2.7908
-0.6932 10.6081 2.7908
-3.0465 9.6228 2.6525
-5.2263 8.5630 2.6384
-7.5287 7.4694 2.7908
-9.0932 5.4513 2.7908
-10.1326 3.1195 2.7908
-10.5874 0.6070 2.7908
-10.4313 -1.9426 2.7908
-9.6722 -4.3831 2.7908
-8.3525 -6.5745 2.7908
-6.1889 -7.9316 2.6384
-4.3569 -9.7229 2.7908
-1.3707 -7.5333 2.0033
0.6543 -10.6595 2.7908
2.3522 -7.5351 2.0607
5.5360 -9.1556 2.7908
7.1542 -7.1588 2.6384
8.6720 -5.2513 2.6421
9.6806 -3.0291 2.6434
10.1205 -0.6284 2.6433
9.9715 1.8066 2.6431
9.2411 4.1322 2.6423
7.9670 6.2057 2.6387
3.3359 4.2301 1.4092
2.2393 4.9287 1.4178
1.9592 10.4614 2.7908
-0.5972 10.6143 2.7908
-3.0295 9.8789 2.7153
-5.1487 8.6102 2.6384
-7.4609 7.5372 2.7908
-9.0435 5.5334 2.7908
-10.1039 3.2111 2.7908
-10.5813 0.7028 2.7908
-10.4482 -1.8480 2.7908
-9.7111 -4.2953 2.7908
-8.4113 -6.4984 2.7908
-6.2602 -7.8749 2.6384
-4.4445 -9.6826 2.7908
-1.4411 -7.5330 2.0066
0.5578 -10.6645 2.7908
2.2774 -7.5347 2.0550
5.4528 -9.2051 2.7908
7.0890 -7.2231 2.6384
8.6237 -5.3292 2.6420
9.6528 -3.1165 2.6434
10.1146 -0.7200 2.6433
9.9877 1.7164 2.6431
9.2787 4.0488 2.6425
8.0237 6.1340 2.6388
3.3733 4.1988 1.4088
2.2835 4.9076 1.4176
2.0539 10.4437 2.7908
-0.5011 10.6197 2.7908
-3.0116 10.1473 2.7814
-5.0706 8.6567 2.6384
-7.3925 7.6046 2.7908
-8.9931 5.6151 2.7908
-10.0743 3.3024 2.7908
-10.5744 0.7985 2.7908
-10.4642 -1.7534 2.7908
-9.7493 -4.2071 2.7908
-8.4694 -6.4217 2.7908
-6.3309 -7.8176 2.6384
-4.5318 -9.6415 2.7908
-1.5119 -7.5327 2.0102
0.4613 -10.6687 2.7908
2.2031 -7.5342 2.0494
5.3691 -9.2538 2.7908
7.0268 -7.2906 2.6398
8.5747 -5.4068 2.6419
9.6243 -3.2037 2.6435
10.1079 -0.8114 2.6433
10.0031 1.6260 2.6431
9.3157 3.9650 2.6426
8.0797 6.0617 2.6390
3.4104 4.1672 1.4084
2.3275 4.8861 1.4173
2.1485 10.4252 2.7908
-0.4050 10.6243 2.7908
-2.9296 10.2091 2.7908
-4.9922 8.7025 2.6384
-7.3235 7.6714 2.7908
-8.9420 5.6963 2.7908
-10.0440 3.3934 2.7908
-10.5665 0.8941 2.7908
-10.4794 -1.6585 2.7908
-9.7867 -4.1186 2.7908
-8.5268 -6.3446 2.7908
-6.4011 -7.7596 2.6384
-4.6186 -9.5997 2.7908
-1.5829 -7.5323 2.0140
0.3647 -10.6720 2.7908
2.1292 -7.5338 2.0440
5.2850 -9.3018 2.7908
7.0091 -7.4051 2.6582
8.5250 -5.4838 2.6417
9.5950 -3.2907 2.6435
10.1003 -0.9029 2.6433
10.0177 1.5354 2.6431
9.3519 3.8807 2.6427
8.1350 5.9891 2.6392
3.4471 4.1352 1.4080
2.3713 4.8641 1.4170
2.2427 10.4058 2.7908
-0.3089 10.6279 2.7908
-2.8373 10.2355 2.7908
-4.9134 8.7475 2.6384
-7.2539 7.7374 2.7908
-8.8902 5.7770 2.7908
-10.0128 3.4841 2.7908
-10.5579 0.9898 2.7908
-10.4937 -1.5636 2.7908
-9.8232 -4.0297 2.7908
-8.5836 -6.2669 2.7908
-6.4708 -7.7010 2.6384
-4.7051 -9.5570 2.7908
-1.6541 -7.5320 2.0179
0.2681 -10.6744 2.7908
2.0556 -7.5333 2.0388
5.2005 -9.3489 2.7908
7.0016 -7.5325 2.6812
8.4745 -5.5604 2.6416
8.9126 -3.1471 2.4632
10.0919 -0.9943 2.6433
10.0314 1.4449 2.6431
9.3873 3.7963 2.6428
8.1896 5.9158 2.6393
3.4835 4.1028 1.4076
2.4148 4.8417 1.4167
1.6114 7.1611 1.9244
-0.2127 10.6308 2.7908
-2.7446 10.2611 2.7908
-4.8342 8.7919 2.6384
-7.1837 7.8029 2.7908
-8.8376 5.8573 2.7908
-9.9808 3.5746 2.7908
-10.5483 1.0853 2.7908
-10.5072 -1.4685 2.7908
-9.8590 -3.9404 2.7908
-8.6396 -6.1887 2.7908
-6.5400 -7.6418 2.6384
-4.7912 -9.5136 2.7908
-1.7256 -7.5317 2.0220
0.1715 -10.6760 2.7908
1.9824 -7.5329 2.0339
5.1155 -9.3953 2.7908
6.9939 -7.6621 2.7047
8.4235 -5.6364 2.6415
8.9136 -3.2383 2.4715
8.9171 -0.9599 2.3378
10.0443 1.3541 2.6432
9.4219 3.7115 2.6429
8.2436 5.8420 2.6395
3.5197 4.0701 1.4072
2.4582 4.8189 1.4165
1.6099 6.8637 1.8482
-0.1165 10.6327 2.7908
-2.6517 10.2859 2.7908
-4.7545 8.8355 2.6384
-7.1129 7.8678 2.7908
-8.7842 5.9372 2.7908
-9.9480 3.6648 2.7908
-10.5379 1.1807 2.7908
-10.5198 -1.3732 2.7908
-9.8939 -3.8509 2.7908
-8.6949 -6.1100 2.7908
-6.6086 -7.5820 2.6384
-4.8769 -9.4694 2.7908
-1.7974 -7.5314 2.0263
0.0749 -10.6766 2.7908
1.9096 -7.5325 2.0291
5.0303 -9.4409 2.7908
6.9861 -7.7937 2.7288
8.3717 -5.7121 2.6414
9.5023 -3.5498 2.6435
8.8906 -1.0385 2.3332
10.0564 1.2632 2.6432
9.4558 3.6264 2.6430
8.2969 5.7677 2.6396
3.5555 4.0371 1.4068
2.5013 4.7958 1.4162
1.6085 6.5889 1.7780
-0.0202 10.6337 2.7908
-2.5586 10.3099 2.7908
-4.6745 8.8785 2.6384
-7.0415 7.9320 2.7908
-8.7302 6.0165 2.7908
-9.9144 3.7547 2.7908
-10.5267 1.2761 2.7908
-10.5316 -1.2779 2.7908
-9.9281 -3.7611 2.7908
-8.7496 -6.0308 2.7908
-4.9546 -5.5815 1.9579
-4.9622 -9.4245 2.7908
-1.8696 -7.5311 2.0308
-0.0216 -10.6764 2.7908
1.8373 -7.5320 2.0245
4.9446 -9.4857 2.7908
6.9780 -7.9279 2.7537
8.3192 -5.7872 2.6412
9.4699 -3.6356 2.6435
10.0616 -1.2677 2.6433
10.0677 1.1722 2.6432
9.4886 3.5408 2.6430
8.3496 5.6930 2.6398
3.5910 4.0038 1.4064
2.5442 4.7722 1.4159
1.6072 6.3342 1.7130
0.0760 10.6339 2.7908
-2.4652 10.3329 2.7908
-4.5940 8.9207 2.6384
-6.9696 7.9956 2.7908
-8.6755 6.0953 2.7908
-9.8800 3.8443 2.7908
-10.5146 1.3713 2.7908
-10.5425 -1.1825 2.7908
-9.9614 -3.6709 2.7908
-8.8034 -5.9511 2.7908
-5.0330 -5.5676 1.9690
-5.0469 -9.3789 2.7908
-1.9419 -7.5308 2.0354
-0.0913 -8.2471 2.1560
1.7651 -7.5316 2.0201
4.8584 -9.5298 2.7908
6.9698 -8.0645 2.7792
8.2660 -5.8619 2.6411
9.4366 -3.7212 2.6435
10.0499 -1.3587 2.6433
10.0782 1.0811 2.6432
9.5205 3.4549 2.6430
8.4016 5.6177 2.6399
7.1977 7.8805 2.7908
2.5868 4.7482 1.4156
1.6060 6.0975 1.6528
0.1723 10.6333 2.7908
-2.3717 10.3553 2.7908
-4.5132 8.9621 2.6384
-6.5204 7.6184 2.6384
-8.6200 6.1737 2.7908
-9.8448 3.9336 2.7908
-10.5016 1.4664 2.7908
-10.5525 -1.0870 2.7908
-9.9939 -3.5805 2.7908
-8.8565 -5.8711 2.7908
-7.2044 -7.8263 2.7908
-5.1313 -9.3324 2.7908
-2.0146 -7.5305 2.0403
-0.1647 -8.1848 2.1401
1.6933 -7.5312 2.0158
4.7718 -9.5731 2.7908
6.9254 -8.1613 2.7908
8.2121 -5.9361 2.6410
9.4026 -3.8064 2.6435
10.0374 -1.4496 2.6433
10.0878 0.9899 2.6432
9.5517 3.3687 2.6430
8.4528 5.5420 2.6401
7.2690 7.8154 2.7908
2.6293 4.7238 1.4153
1.6049 5.8767 1.5968
0.2686 10.6317 2.7908
-2.2779 10.3767 2.7908
-4.4320 9.0029 2.6384
-6.4513 7.6773 2.6384
-8.5638 6.2515 2.7908
-9.8088 4.0226 2.7908
-10.4878 1.5612 2.7908
-10.5617 -0.9916 2.7908
-10.0255 -3.4899 2.7908
-8.9090 -5.7905 2.7908
-7.2747 -7.7604 2.7908
-5.2153 -9.2851 2.7908
-2.0878 -7.5302 2.0453
-0.2379 -8.1538 2.1326
1.6217 -7.5308 2.0118
4.6849 -9.6156 2.7908
6.8512 -8.2234 2.7908
8.1576 -6.0098 2.6408
7.6145 -3.1630 2.1487
10.0240 -1.5403 2.6433
10.0966 0.8986 2.6432
9.5821 3.2823 2.6430
8.5034 5.4658 2.6402
7.3397 7.7495 2.7908
2.6715 4.6990 1.4150
1.6038 5.6704 1.5445
0.3648 10.6293 2.7908
-2.1840 10.3973 2.7908
-4.3505 9.0429 2.6384
-6.3816 7.7356 2.6384
-8.5071 6.3287 2.7908
-9.7720 4.1110 2.7908
-10.4731 1.6561 2.7908
-10.5700 -0.8959 2.7908
-10.0564 -3.3989 2.7908
-8.9607 -5.7094 2.7908
-7.3443 -7.6939 2.7908
-5.2989 -9.2371 2.7908
-2.1612 -7.5299 2.0506
-0.2882 -7.5384 1.9723
1.5505 -7.5304 2.0079
4.5975 -9.6573 2.7908
6.7763 -8.2849 2.7908
8.1024 -6.0830 2.6407
7.6153 -3.2445 2.1571
10.0098 -1.6310 2.6433
10.1045 0.8072 2.6432
9.6118 3.1956 2.6430
8.5533 5.3891 2.6403
7.3737 7.6459 2.7772
2.7134 4.6738 1.4147
1.6028 5.4772 1.4957
0.4610 10.6260 2.7908
-2.0899 10.4170 2.7908
-4.2687 9.0821 2.6384
-6.3116 7.7931 2.6384
-8.4495 6.4056 2.7908
-9.7344 4.1993 2.7908
-10.4576 1.7508 2.7908
-10.5774 -0.8002 2.7908
-10.0865 -3.3077 2.7908
-9.0116 -5.6278 2.7908
-7.4133 -7.6268 2.7908
-5.3820 -9.1884 2.7908
-2.2351 -7.5296 2.0560
-0.3566 -7.5381 1.9731
1.4795 -7.5300 2.0042
4.5098 -9.6982 2.7908
6.7009 -8.3457 2.7908
