ply
format ascii 1.0
element vertex 2177
property float32 x
property float32 y
property float32 z
end_header
-4.4136 -8.0915 2.6384
-1.9881 -7.5329 2.2277
-0.1351 -8.0668 2.3044
1.7205 -7.5337 2.2050
4.3963 -8.7459 2.7908
6.3624 -7.4469 2.7908
7.5273 -5.4027 2.6391
8.6095 -3.4519 2.6417
9.1877 -1.2955 2.6429
9.2265 0.9365 2.6427
8.7244 3.1096 2.6411
7.7144 5.0945 2.6385
3.3289 3.6030 1.4014
2.3837 4.3163 1.4102
1.6053 5.9560 1.7662
0.2135 9.7340 2.7908
-2.1172 9.4936 2.7908
-4.0856 8.2297 2.6384
-5.9308 7.0102 2.6384
-7.8611 5.6983 2.7908
-8.9944 3.6534 2.7908
-9.6085 1.3975 2.7908
-9.6681 -0.9404 2.7908
-9.1690 -3.2264 2.7908
-8.1390 -5.3291 2.7908
-6.2736 -6.7380 2.6384
-4.4864 -8.0509 2.6384
-2.0611 -7.5326 2.2331
-0.2074 -8.0370 2.2964
1.6489 -7.5333 2.2005
4.3169 -8.7851 2.7908
6.2946 -7.5040 2.7908
7.4777 -5.4703 2.6389
7.6331 -3.1408 2.3507
9.1756 -1.3786 2.6429
9.2349 0.8531 2.6428
8.7527 3.0308 2.6412
7.7604 5.0247 2.6385
3.3606 3.5719 1.4011
2.4223 4.2939 1.4100
1.6042 5.7446 1.7077
0.3016 9.7321 2.7908
-2.0312 9.5131 2.7908
-4.0110 8.2666 2.6384
-5.8672 7.0637 2.6384
-7.8093 5.7692 2.7908
-8.9610 3.7346 2.7908
-9.5954 1.4844 2.7908
-9.6760 -0.8529 2.7908
-9.1976 -3.1432 2.7908
-8.1866 -5.2550 2.7908
-6.3341 -6.6806 2.6384
-4.5589 -8.0097 2.6384
-2.1345 -7.5323 2.2388
-0.2628 -7.5408 2.1553
1.5775 -7.5329 2.1962
4.2371 -8.8235 2.7908
6.2264 -7.5605 2.7908
7.4275 -5.5374 2.6388
7.6424 -3.2258 2.3625
9.1628 -1.4615 2.6429
9.2425 0.7695 2.6428
8.7803 2.9517 2.6413
7.8059 4.9545 2.6385
3.3919 3.5405 1.4007
2.4607 4.2711 1.4097
1.6032 5.5467 1.6531
0.3897 9.7294 2.7908
-1.9452 9.5310 2.7908
-3.9362 8.3028 2.6384
-5.8031 7.1167 2.6384
-7.7568 5.8397 2.7908
-8.9268 3.8156 2.7908
-9.5814 1.5711 2.7908
-9.6831 -0.7652 2.7908
-9.2254 -3.0597 2.7908
-8.2335 -5.1805 2.7908
-6.3941 -6.6228 2.6384
-4.6310 -7.9677 2.6384
-2.2082 -7.5320 2.2446
-0.3312 -7.5405 2.1561
1.5064 -7.5324 2.1921
4.1570 -8.8613 2.7908
6.1576 -7.6164 2.7908
7.3767 -5.6040 2.6387
8.5119 -3.6839 2.6415
9.1492 -1.5444 2.6429
9.2494 0.6858 2.6428
8.8072 2.8723 2.6414
7.8508 4.8840 2.6385
3.4230 3.5088 1.4003
2.4988 4.2480 1.4094
1.6022 5.3612 1.6019
0.4777 9.7258 2.7908
-1.8589 9.5486 2.7908
-3.8610 8.3383 2.6384
-5.7386 7.1690 2.6384
-7.7037 5.9098 2.7908
-8.8919 3.8962 2.7908
-9.5667 1.6578 2.7908
-9.6895 -0.6775 2.7908
-9.2524 -2.9760 2.7908
-8.2798 -5.1057 2.7908
-6.4535 -6.5644 2.6384
-4.7027 -7.9252 2.6384
-2.4527 -8.0940 2.4187
-0.3995 -7.5401 2.1570
1.4356 -7.5320 2.1882
4.0739 -8.8982 2.7908
6.0883 -7.6716 2.7908
7.3252 -5.6702 2.6386
8.4780 -3.7606 2.6414
9.1348 -1.6271 2.6428
9.2555 0.6021 2.6429
8.8333 2.7926 2.6414
7.8953 4.8131 2.6387
3.4538 3.4769 1.3999
2.5367 4.2245 1.4091
1.6014 5.1866 1.5540
0.5657 9.7215 2.7908
-1.7725 9.5653 2.7908
-3.7854 8.3732 2.6384
-5.6736 7.2208 2.6384
-7.6500 5.9794 2.7908
-8.8562 3.9766 2.7908
-9.5512 1.7443 2.7908
-9.6950 -0.5898 2.7908
-9.2787 -2.8921 2.7908
-8.3254 -5.0303 2.7908
-6.5124 -6.5055 2.6384
-4.7740 -7.8820 2.6384
-2.9144 -9.3129 2.7908
-0.4679 -7.5398 2.1581
1.3650 -7.5316 2.1845
3.9958 -8.9345 2.7908
6.0186 -7.7262 2.7908
7.2732 -5.7359 2.6384
8.4434 -3.8371 2.6413
9.1197 -1.7096 2.6428
9.2608 0.5184 2.6429
8.8587 2.7128 2.6415
7.9392 4.7419 2.6388
3.4842 3.4446 1.3995
2.5744 4.2007 1.4088
1.6005 5.0223 1.5090
0.6537 9.7163 2.7908
-1.6859 9.5813 2.7908
-3.7096 8.4073 2.6384
-5.6081 7.2720 2.6384
-7.5956 6.0484 2.7908
-8.8199 4.0566 2.7908
-9.5350 1.8307 2.7908
-9.6998 -0.5020 2.7908
-9.3043 -2.8079 2.7908
-8.3703 -4.9546 2.7908
-6.5707 -6.4460 2.6384
-4.8450 -7.8381 2.6384
-2.9983 -9.2858 2.7908
-0.5365 -7.5395 2.1594
1.2947 -7.5312 2.1810
3.9146 -8.9700 2.7908
5.9483 -7.7802 2.7908
7.2210 -5.8014 2.6384
8.4080 -3.9131 2.6412
9.1039 -1.7921 2.6428
9.2654 0.4346 2.6429
8.8834 2.6327 2.6416
7.9824 4.6703 2.6389
3.5144 3.4122 1.3991
2.6119 4.1765 1.4085
1.5997 4.8671 1.4666
0.7417 9.7104 2.7908
-1.5991 9.5965 2.7908
-3.6334 8.4408 2.6384
-5.5421 7.3226 2.6384
-7.5407 6.1170 2.7908
-8.7828 4.1362 2.7908
-9.5179 1.9169 2.7908
-9.7037 -0.4142 2.7908
-9.3291 -2.7235 2.7908
-8.4145 -4.8785 2.7908
-6.6285 -6.3860 2.6384
-4.9155 -7.7936 2.6384
-3.0821 -9.2579 2.7908
-0.6050 -7.5391 2.1609
1.2519 -7.6989 2.2262
3.2109 -7.5429 2.3378
5.8776 -7.8335 2.7908
7.1681 -5.8664 2.6384
8.3720 -3.9889 2.6411
9.0872 -1.8743 2.6427
9.2692 0.3508 2.6429
8.9073 2.5524 2.6417
8.0250 4.5982 2.6390
3.5442 3.3794 1.3987
2.6491 4.1520 1.4082
1.5990 4.7204 1.4266
0.8296 9.7037 2.7908
-1.5123 9.6109 2.7908
-3.5570 8.4736 2.6384
-5.4757 7.3727 2.6384
-7.4851 6.1851 2.7908
-8.7450 4.2156 2.7908
-9.5001 2.0030 2.7908
-9.7069 -0.3263 2.7908
-9.3531 -2.6389 2.7908
-8.4580 -4.8019 2.7908
-6.6858 -6.3255 2.6384
-4.9856 -7.7485 2.6384
-3.1656 -9.2292 2.7908
-0.6737 -7.5388 2.1625
1.2297 -8.0198 2.3158
3.1304 -7.5424 2.3288
5.8063 -7.8862 2.7908
7.1147 -5.9310 2.6384
8.3353 -4.0643 2.6410
9.0699 -1.9564 2.6427
9.2722 0.2670 2.6430
8.9305 2.4718 2.6417
8.0669 4.5258 2.6392
3.5738 3.3463 1.3983
2.6861 4.1271 1.4079
1.6278 4.6661 1.4145
0.9173 9.6962 2.7908
-1.4253 9.6246 2.7908
-3.4803 8.5057 2.6384
-5.4089 7.4221 2.6384
-7.4289 6.2529 2.7908
-8.7065 4.2946 2.7908
-9.4815 2.0888 2.7908
-9.7093 -0.2384 2.7908
-9.3763 -2.5540 2.7908
-8.5008 -4.7250 2.7908
-6.7425 -6.2645 2.6384
-5.0553 -7.7027 2.6384
-3.2489 -9.1998 2.7908
-0.7425 -7.5385 2.1644
1.1585 -8.0403 2.3187
3.0505 -7.5419 2.3201
5.7346 -7.9382 2.7908
7.0612 -5.9952 2.6387
8.2979 -4.1394 2.6409
9.0518 -2.0384 2.6427
8.0221 0.1583 2.2861
8.9530 2.3910 2.6418
8.1082 4.4530 2.6393
7.1934 6.6145 2.7908
2.7229 4.1019 1.4076
1.6698 4.6507 1.4143
1.0051 9.6879 2.7908
-1.3382 9.6374 2.7908
-3.4032 8.5371 2.6384
-5.3416 7.4709 2.6384
-7.3720 6.3199 2.7908
-8.6673 4.3732 2.7908
-9.4621 2.1745 2.7908
-9.7109 -0.1506 2.7908
-9.3988 -2.4690 2.7908
-8.5430 -4.6478 2.7908
-6.7986 -6.2030 2.6384
-5.1246 -7.6563 2.6384
-3.3319 -9.1697 2.7908
-0.8114 -7.5381 2.1664
1.0892 -8.0765 2.3263
2.9712 -7.5414 2.3116
5.6624 -7.9896 2.7908
7.0445 -6.0917 2.6529
8.2598 -4.2141 2.6409
9.0329 -2.1202 2.6426
8.0502 0.0860 2.2937
8.9747 2.3101 2.6419
8.1488 4.3798 2.6394
7.2532 6.5494 2.7908
2.7594 4.0764 1.4073
1.7117 4.6350 1.4141
1.0928 9.6788 2.7908
-1.2509 9.6495 2.7908
-3.3259 8.5678 2.6384
-5.2739 7.5191 2.6384
-7.3146 6.3862 2.7908
-8.6274 4.4515 2.7908
-9.4420 2.2601 2.7908
-9.7117 -0.0626 2.7908
-9.4205 -2.3837 2.7908
-8.5844 -4.5701 2.7908
-6.8542 -6.1410 2.6384
-5.1935 -7.6093 2.6384
-3.4146 -9.1387 2.7908
-0.8804 -7.5378 2.1686
1.0220 -8.1336 2.3401
2.8925 -7.5409 2.3034
5.5899 -8.0403 2.7908
7.0377 -6.1981 2.6714
8.2210 -4.2885 2.6408
9.0133 -2.2018 2.6426
9.2767 0.0153 2.6430
8.9957 2.2289 2.6420
8.1887 4.3062 2.6395
7.3125 6.4835 2.7908
2.7956 4.0505 1.4070
1.7534 4.6189 1.4139
1.1804 9.6689 2.7908
-1.1636 9.6608 2.7908
-3.2484 8.5978 2.6384
-5.2057 7.5667 2.6384
-7.2566 6.4523 2.7908
-8.5868 4.5294 2.7908
-9.4211 2.3455 2.7908
-9.7117 0.0253 2.7908
-9.4415 -2.2983 2.7908
-8.6251 -4.4920 2.7908
-7.3084 -6.4295 2.7908
-5.2619 -7.5617 2.6384
-3.4970 -9.1071 2.7908
-0.9496 -7.5375 2.1710
0.9586 -8.2297 2.3652
2.8143 -7.5404 2.2955
5.5168 -8.0904 2.7908
7.0314 -6.3063 2.6906
8.1816 -4.3625 2.6407
8.9929 -2.2832 2.6425
9.2767 -0.0687 2.6430
9.0160 2.1475 2.6420
8.2280 4.2323 2.6396
7.3410 6.3914 2.7795
2.8316 4.0243 1.4066
1.7949 4.6024 1.4137
1.2678 9.6582 2.7908
-1.0762 9.6713 2.7908
-3.1705 8.6271 2.6384
-5.1371 7.6137 2.6384
-7.1980 6.5178 2.7908
-8.5455 4.6070 2.7908
-9.3994 2.4306 2.7908
-9.7109 0.1132 2.7908
-9.4617 -2.2127 2.7908
-8.6651 -4.4136 2.7908
-7.3659 -6.3629 2.7908
-5.3298 -7.5135 2.6384
-3.5790 -9.0747 2.7908
-1.0189 -7.5372 2.1735
1.0432 -9.7202 2.7908
2.7367 -7.5399 2.2878
5.4432 -8.1398 2.7908
7.0249 -6.4162 2.7103
8.1414 -4.4362 2.6406
8.9718 -2.3644 2.6425
9.2758 -0.1526 2.6430
9.0355 2.0660 2.6421
8.2665 4.1580 2.6397
7.3420 6.2764 2.7581
2.8673 3.9977 1.4063
1.8363 4.5854 1.4135
1.3553 9.6467 2.7908
-0.9886 9.6810 2.7908
-3.0924 8.6556 2.6384
-5.0681 7.6601 2.6384
-7.1388 6.5828 2.7908
-8.5034 4.6842 2.7908
-9.3769 2.5156 2.7908
-9.7093 0.2011 2.7908
-9.4810 -2.1270 2.7908
-8.7044 -4.3349 2.7908
-7.4230 -6.2958 2.7908
-5.3974 -7.4647 2.6384
-3.6609 -9.0416 2.7908
-1.0884 -7.5369 2.1763
0.9552 -9.7289 2.7908
2.6595 -7.5394 2.2803
5.3692 -8.1885 2.7908
7.0183 -6.5276 2.7304
8.1006 -4.5095 2.6405
8.9499 -2.4455 2.6425
9.2743 -0.2365 2.6430
9.0542 1.9843 2.6421
8.3044 4.0834 2.6399
7.3430 6.1631 2.7373
2.9028 3.9709 1.4060
1.8775 4.5681 1.4133
1.4426 9.6345 2.7908
-0.9010 9.6899 2.7908
-3.0624 8.8230 2.6808
-4.9987 7.7058 2.6384
-7.0790 6.6473 2.7908
-8.4607 4.7610 2.7908
-9.3537 2.6003 2.7908
-9.7069 0.2889 2.7908
-9.4997 -2.0410 2.7908
-8.7430 -4.2558 2.7908
-7.4794 -6.2281 2.7908
-5.4645 -7.4152 2.6384
-3.7424 -9.0077 2.7908
-1.1581 -7.5365 2.1792
0.8671 -9.7368 2.7908
2.5829 -7.5389 2.2731
5.2948 -8.2365 2.7908
7.0116 -6.6406 2.7511
8.0592 -4.5823 2.6404
8.9273 -2.5263 2.6424
9.2719 -0.3203 2.6430
9.0722 1.9024 2.6422
8.3416 4.0083 2.6400
7.3439 6.0514 2.7170
2.9381 3.9436 1.4056
1.9185 4.5505 1.4131
1.5298 9.6214 2.7908
-0.8133 9.6980 2.7908
-3.0470 9.0423 2.7388
-4.9288 7.7509 2.6384
-7.0187 6.7111 2.7908
-4.8158 2.7676 1.5967
-9.3298 2.6849 2.7908
-9.7038 0.3768 2.7908
-9.5175 -1.9549 2.7908
-8.7809 -4.1764 2.7908
-7.5351 -6.1599 2.7908
-5.5312 -7.3651 2.6384
-3.8236 -8.9731 2.7908
-1.2279 -7.5362 2.1823
0.7789 -9.7439 2.7908
2.5068 -7.5384 2.2661
5.2200 -8.2839 2.7908
7.0047 -6.7553 2.7723
8.0171 -4.6548 2.6403
8.9040 -2.6069 2.6424
9.2688 -0.4042 2.6430
9.0895 1.8203 2.6423
8.3782 3.9330 2.6401
7.3447 5.9413 2.6972
2.9731 3.9161 1.4053
1.9594 4.5324 1.4129
1.6169 9.6076 2.7908
-0.7255 9.7053 2.7908
-3.0215 9.2420 2.7908
-4.8586 7.7954 2.6384
-6.5778 6.4045 2.6384
-4.7823 2.8063 1.5940
-9.3050 2.7692 2.7908
-9.6998 0.4646 2.7908
-9.5346 -1.8686 2.7908
-8.8181 -4.0966 2.7908
-7.5903 -6.0912 2.7908
-5.5974 -7.3144 2.6384
-3.9045 -8.9377 2.7908
-1.2980 -7.5359 2.1856
0.6907 -9.7502 2.7908
2.4312 -7.5380 2.2593
5.1447 -8.3306 2.7908
6.9896 -6.8639 2.7908
7.9743 -4.7270 2.6402
8.8799 -2.6873 2.6423
9.2649 -0.4881 2.6430
9.1060 1.7381 2.6423
8.4140 3.8573 2.6402
7.3455 5.8329 2.6779
3.0078 3.8883 1.4050
2.0001 4.5139 1.4127
1.7038 9.5929 2.7908
-0.6377 9.7118 2.7908
-2.9378 9.2693 2.7908
-4.7880 7.8392 2.6384
-6.5197 6.4639 2.6384
-8.3285 4.9891 2.7908
-9.2795 2.8533 2.7908
-9.6951 0.5524 2.7908
-9.5509 -1.7821 2.7908
-8.8545 -4.0165 2.7908
-7.6448 -6.0220 2.7908
-5.6631 -7.2632 2.6384
-3.9850 -8.9017 2.7908
-1.3682 -7.5356 2.1891
0.6025 -9.7557 2.7908
2.3559 -7.5375 2.2527
5.0690 -8.3766 2.7908
6.9272 -6.9268 2.7908
7.9308 -4.7987 2.6401
8.8551 -2.7675 2.6422
9.2602 -0.5719 2.6430
9.1218 1.6557 2.6424
8.4492 3.7813 2.6403
7.3462 5.7257 2.6591
3.0422 3.8601 1.4046
2.0406 4.4951 1.4124
1.7906 9.5775 2.7908
-0.5498 9.7176 2.7908
-2.8539 9.2958 2.7908
-4.7169 7.8824 2.6384
-6.4610 6.5221 2.6384
-8.2830 5.0643 2.7908
-9.2533 2.9372 2.7908
-9.6895 0.6402 2.7908
-9.5664 -1.6956 2.7908
-8.8902 -3.9361 2.7908
-7.6987 -5.9524 2.7908
-5.7283 -7.2114 2.6384
-4.0652 -8.8649 2.7908
-1.4387 -7.5353 2.1928
0.5141 -9.7603 2.7908
2.2811 -7.5370 2.2464
4.9929 -8.4219 2.7908
6.8641 -6.9890 2.7908
7.8867 -4.8700 2.6400
8.8295 -2.8474 2.6422
9.2548 -0.6556 2.6430
9.1367 1.5732 2.6424
8.4836 3.7050 2.6404
7.3548 5.6263 2.6436
3.0763 3.8316 1.4043
2.0810 4.4759 1.4122
1.8773 9.5613 2.7908
-0.4618 9.7225 2.7908
-2.7697 9.3215 2.7908
-4.6455 7.9250 2.6384
-6.4018 6.5811 2.6384
-8.2369 5.1391 2.7908
-9.2263 3.0209 2.7908
-9.6832 0.7278 2.7908
-9.5812 -1.6089 2.7908
-8.9252 -3.8553 2.7908
-7.7520 -5.8823 2.7908
-5.7932 -7.1589 2.6384
-4.1451 -8.8273 2.7908
-1.5094 -7.5350 2.1967
0.4258 -9.7642 2.7908
2.2068 -7.5366 2.2403
4.9163 -8.4665 2.7908
6.8005 -7.0507 2.7908
7.8419 -4.9409 2.6398
8.8033 -2.9271 2.6421
9.2486 -0.7393 2.6430
9.1510 1.4906 2.6425
8.5174 3.6283 2.6405
7.3913 5.5489 2.6384
3.1102 3.8028 1.4039
2.1211 4.4563 1.4119
1.9638 9.5443 2.7908
-0.3738 9.7267 2.7908
-2.6853 9.3465 2.7908
-4.5737 7.9670 2.6384
-6.3420 6.6389 2.6384
-8.1901 5.2134 2.7908
-9.1985 3.1042 2.7908
-9.6761 0.8154 2.7908
-9.5951 -1.5221 2.7908
-8.9595 -3.7743 2.7908
-7.8046 -5.8116 2.7908
-5.8575 -7.1059 2.6384
-4.2246 -8.7891 2.7908
-1.5804 -7.5347 2.2008
0.3374 -9.7673 2.7908
2.1328 -7.5361 2.2344
4.8394 -8.5104 2.7908
6.7363 -7.1119 2.7908
7.7965 -5.0114 2.6397
8.7762 -3.0066 2.6421
9.2416 -0.8231 2.6430
9.1645 1.4077 2.6425
8.5504 3.5513 2.6406
7.4414 5.4821 2.6384
3.1438 3.7737 1.4035
2.1610 4.4364 1.4117
2.0501 9.5266 2.7908
-0.2858 9.7300 2.7908
-2.6008 9.3707 2.7908
-4.5016 8.0082 2.6384
-6.2818 6.6961 2.6384
-8.1426 5.2874 2.7908
-9.1700 3.1873 2.7908
-9.6682 0.9029 2.7908
-9.6083 -1.4351 2.7908
-8.9930 -3.6929 2.7908
-7.8566 -5.7406 2.7908
-5.9213 -7.0523 2.6384
-4.3038 -8.7501 2.7908
-1.6517 -7.5344 2.2051
0.2490 -9.7696 2.7908
2.0592 -7.5357 2.2288
4.7621 -8.5536 2.7908
6.6716 -7.1724 2.7908
7.7505 -5.0815 2.6396
8.7485 -3.0858 2.6420
9.2339 -0.9066 2.6430
9.1772 1.3249 2.6426
8.5827 3.4742 2.6407
7.4910 5.4147 2.6384
3.1771 3.7443 1.4032
2.2008 4.4161 1.4115
1.6114 7.1718 2.1051
-0.1978 9.7326 2.7908
-2.5159 9.3942 2.7908
-4.4290 8.0488 2.6384
-6.2210 6.7528 2.6384
-8.0945 5.3609 2.7908
-9.1408 3.2702 2.7908
-9.6595 0.9904 2.7908
-9.6207 -1.3481 2.7908
-9.0258 -3.6112 2.7908
-7.9080 -5.6690 2.7908
-5.9846 -6.9982 2.6384
-4.3826 -8.7104 2.7908
-1.7232 -7.5341 2.2096
0.1606 -9.7710 2.7908
1.9860 -7.5353 2.2233
4.6844 -8.5961 2.7908
6.6063 -7.2323 2.7908
7.7039 -5.1510 2.6395
8.7201 -3.1646 2.6419
8.9171 -0.9569 2.5547
9.1891 1.2419 2.6426
8.6144 3.3966 2.6408
7.5400 5.3469 2.6384
3.2102 3.7146 1.4028
2.2404 4.3953 1.4112
1.6099 6.8736 2.0217
-0.1097 9.7344 2.7908
-2.4308 9.4169 2.7908
-4.3561 8.0888 2.6384
-6.1598 6.8090 2.6384
-8.0457 5.4340 2.7908
-9.1108 3.3528 2.7908
-9.6500 1.0778 2.7908
-9.6323 -1.2609 2.7908
-9.0578 -3.5293 2.7908
-7.9587 -5.5970 2.7908
-6.0475 -6.9434 2.6384
-4.2175 -8.1966 2.6384
-1.7951 -7.5337 2.2142
0.0721 -9.7717 2.7908
1.9131 -7.5348 2.2180
4.6064 -8.6379 2.7908
6.5406 -7.2915 2.7908
7.6566 -5.2203 2.6394
8.6909 -3.2433 2.6419
8.8906 -1.0355 2.5496
9.2003 1.1588 2.6426
8.6453 3.3187 2.6409
7.5884 5.2787 2.6385
3.2429 3.6846 1.4024
2.2797 4.3743 1.4109
1.6085 6.5980 1.9448
-0.0216 9.7353 2.7908
-2.3456 9.4388 2.7908
-4.2828 8.1281 2.6384
-6.0980 6.8646 2.6384
-7.9962 5.5067 2.7908
-9.0800 3.4352 2.7908
-9.6397 1.1651 2.7908
-9.6431 -1.1736 2.7908
-9.0892 -3.4470 2.7908
-8.0087 -5.5245 2.7908
-4.9531 -5.5840 2.1389
-4.2913 -8.1578 2.6384
-1.8672 -7.5334 2.2191
-0.0135 -8.1730 2.3343
1.8407 -7.5344 2.2130
4.5280 -8.6790 2.7908
6.4742 -7.3503 2.7908
7.6086 -5.2890 2.6393
8.6610 -3.3217 2.6418
9.2061 -1.1567 2.6430
9.2108 1.0755 2.6427
8.6756 3.2406 2.6410
7.6361 5.2100 2.6385
3.2754 3.6542 1.4021
2.3189 4.3528 1.4107
1.6072 6.3427 1.8736
0.0666 9.7355 2.7908
-2.2601 9.4600 2.7908
-4.2091 8.1668 2.6384
-6.0357 6.9197 2.6384
-7.9461 5.5789 2.7908
-9.0485 3.5172 2.7908
-9.6287 1.2523 2.7908
-9.6531 -1.0862 2.7908
-9.1197 -3.3645 2.7908
-8.0581 -5.4516 2.7908
-5.0264 -5.5643 2.1488
-4.3647 -8.1183 2.6384
-1.9395 -7.5331 2.2242
-0.0867 -8.0980 2.3131
1.7686 -7.5340 2.2082
4.4491 -8.7193 2.7908
6.4073 -7.4084 2.7908
7.5601 -5.3574 2.6391
8.6303 -3.3998 2.6417
9.1953 -1.2400 2.6429
9.2205 0.9922 2.6427
8.7051 3.1621 2.6411
7.6833 5.1409 2.6385
3.3076 3.6236 1.4017
2.3578 4.3310 1.4104
1.6060 6.1053 1.8077
0.1547 9.7349 2.7908
-2.1745 9.4804 2.7908
-4.1351 8.2048 2.6384
-5.9729 6.9742 2.6384
-7.8953 5.6508 2.7908
-9.0163 3.5990 2.7908
-9.6168 1.3394 2.7908
-9.6623 -0.9988 2.7908
-9.1495 -3.2817 2.7908
-8.1068 -5.3784 2.7908
-6.2329 -6.7760 2.6384
-4.4378 -8.0781 2.6384
-2.0123 -7.5328 2.2295
-0.1591 -8.0549 2.3012
1.6967 -7.5335 2.2035
4.3700 -8.7590 2.7908
6.3399 -7.4660 2.7908
7.5109 -5.4252 2.6390
8.5990 -3.4777 2.6417
9.1837 -1.3232 2.6429
9.2294 0.9087 2.6428
8.7339 3.0834 2.6411
7.7298 5.0714 2.6385
3.3395 3.5927 1.4013
2.3966 4.3089 1.4101
1.6049 5.8841 1.7463
0.2428 9.7335 2.7908
-2.0886 9.5005 2.7908
-4.0608 8.2421 2.6384
-5.9096 7.0281 2.6384
-7.8439 5.7217 2.7908
-8.9833 3.6805 2.7908
-9.6042 1.4263 2.7908
-9.6708 -0.9114 2.7908
-9.1785 -3.1988 2.7908
-8.1548 -5.3046 2.7908
-6.2938 -6.7190 2.6384
-4.5105 -8.0373 2.6384
-2.0854 -7.5325 2.2350
-0.2313 -8.0308 2.2949
1.6251 -7.5331 2.1991
4.2904 -8.7979 2.7908
6.2720 -7.5229 2.7908
7.4611 -5.4927 2.6389
7.6144 -3.1600 2.3479
9.1714 -1.4061 2.6429
9.2375 0.8252 2.6428
8.7620 3.0045 2.6412
7.7756 5.0014 2.6385
3.3710 3.5615 1.4009
2.4351 4.2863 1.4099
1.6038 5.6773 1.6891
0.3309 9.7313 2.7908
-2.0026 9.5189 2.7908
-3.9861 8.2788 2.6384
-5.8459 7.0814 2.6384
-7.7920 5.7927 2.7908
-8.9497 3.7615 2.7908
-9.5908 1.5132 2.7908
-9.6784 -0.8238 2.7908
-9.2069 -3.1155 2.7908
-8.2022 -5.2304 2.7908
-6.3541 -6.6615 2.6384
-4.5829 -7.9958 2.6384
-2.1589 -7.5322 2.2407
-0.2855 -7.5407 2.1556
1.5538 -7.5327 2.1948
4.2105 -8.8362 2.7908
6.2036 -7.5792 2.7908
7.4106 -5.5596 2.6388
7.6208 -3.2438 2.3588
9.1583 -1.4890 2.6429
9.2449 0.7416 2.6428
8.7893 2.9253 2.6413
7.8209 4.9310 2.6385
3.4023 3.5300 1.4005
2.4734 4.2634 1.4096
1.6029 5.4836 1.6357
0.4190 9.7283 2.7908
-1.9164 9.5369 2.7908
-3.9113 8.3147 2.6384
-5.7818 7.1341 2.6384
-7.7393 5.8630 2.7908
-8.9153 3.8424 2.7908
-9.5766 1.5999 2.7908
-9.6853 -0.7361 2.7908
-9.2344 -3.0319 2.7908
-8.2490 -5.1557 2.7908
-6.4139 -6.6034 2.6384
-4.6549 -7.9537 2.6384
-2.2328 -7.5319 2.2466
-0.3539 -7.5403 2.1564
1.4828 -7.5323 2.1908
4.1303 -8.8736 2.7908
6.1346 -7.6348 2.7908
7.3596 -5.6261 2.6386
8.5007 -3.7095 2.6414
9.1445 -1.5719 2.6429
9.2515 0.6580 2.6428
8.8159 2.8458 2.6414
7.8657 4.8604 2.6386
3.4333 3.4982 1.4001
2.5115 4.2402 1.4093
1.6019 5.3018 1.5856
0.5069 9.7245 2.7908
-1.8303 9.5542 2.7908
-3.8359 8.3500 2.6384
-5.7170 7.1863 2.6384
-7.6859 5.9329 2.7908
-8.8801 3.9229 2.7908
-9.5617 1.6865 2.7908
-9.6914 -0.6484 2.7908
-9.2612 -2.9481 2.7908
-8.2950 -5.0807 2.7908
-6.4731 -6.5449 2.6384
-4.7264 -7.9109 2.6384
-2.4924 -8.1368 2.4338
-0.4223 -7.5400 2.1574
1.4121 -7.5319 2.1870
4.0497 -8.9104 2.7908
6.0652 -7.6899 2.7908
7.3080 -5.6921 2.6385
8.4665 -3.7861 2.6413
9.1299 -1.6546 2.6428
9.2574 0.5743 2.6429
8.8418 2.7661 2.6415
7.9100 4.7894 2.6387
3.4640 3.4662 1.3997
2.5493 4.2167 1.4090
1.6011 5.1310 1.5388
0.5949 9.7199 2.7908
-1.7438 9.5707 2.7908
-3.7603 8.3846 2.6384
-5.6519 7.2379 2.6384
-7.6320 6.0023 2.7908
-8.8443 4.0032 2.7908
-9.5459 1.7730 2.7908
-9.6967 -0.5606 2.7908
-9.2873 -2.8641 2.7908
-8.3404 -5.0052 2.7908
-6.5318 -6.4857 2.6384
-4.7977 -7.8674 2.6384
-2.9423 -9.3040 2.7908
-0.4907 -7.5397 2.1585
1.3416 -7.5315 2.1833
3.9688 -8.9464 2.7908
5.9952 -7.7443 2.7908
7.2559 -5.7578 2.6384
8.4317 -3.8624 2.6413
9.1145 -1.7371 2.6428
9.2624 0.4905 2.6429
8.8670 2.6861 2.6415
7.9536 4.7182 2.6388
3.4943 3.4339 1.3993
2.5869 4.1927 1.4087
1.6003 4.9698 1.4946
0.6829 9.7145 2.7908
-1.6571 9.5864 2.7908
-3.6843 8.4185 2.6384
-5.5862 7.2889 2.6384
-7.5774 6.0712 2.7908
-8.8077 4.0831 2.7908
-9.5294 1.8593 2.7908
-9.7012 -0.4728 2.7908
-9.3126 -2.7798 2.7908
-8.3850 -4.9293 2.7908
-6.5900 -6.4261 2.6384
-4.8685 -7.8234 2.6384
-3.0263 -9.2766 2.7908
-0.5593 -7.5393 2.1599
1.2713 -7.5311 2.1798
3.8876 -8.9817 2.7908
5.9248 -7.7980 2.7908
7.2142 -5.8318 2.6424
8.3961 -3.9384 2.6412
9.0984 -1.8194 2.6428
9.2667 0.4069 2.6429
8.8914 2.6061 2.6416
7.9966 4.6464 2.6390
3.5243 3.4013 1.3989
2.6243 4.1684 1.4084
1.5995 4.8175 1.4530
0.7708 9.7083 2.7908
-1.5703 9.6014 2.7908
-3.6081 8.4518 2.6384
-5.5201 7.3393 2.6384
-7.5222 6.1397 2.7908
-8.7703 4.1627 2.7908
-9.5121 1.9455 2.7908
-9.7049 -0.3850 2.7908
-9.3371 -2.6953 2.7908
-8.4290 -4.8531 2.7908
-6.6476 -6.3659 2.6384
-4.9389 -7.7787 2.6384
-3.1100 -9.2484 2.7908
-0.6279 -7.5390 2.1614
1.2511 -7.8434 2.2669
3.1840 -7.5427 2.3347
5.8539 -7.8512 2.7908
7.1505 -5.8879 2.6384
8.3599 -4.0139 2.6411
9.0816 -1.9016 2.6427
9.2703 0.3230 2.6429
8.9151 2.5256 2.6417
8.0390 4.5742 2.6391
3.5541 3.3684 1.3985
2.6614 4.1438 1.4081
1.5997 4.6761 1.4146
0.8587 9.7013 2.7908
-1.4834 9.6155 2.7908
-3.5315 8.4843 2.6384
-5.4536 7.3892 2.6384
-7.4664 6.2076 2.7908
-8.7323 4.2419 2.7908
-9.4940 2.0315 2.7908
-9.7078 -0.2971 2.7908
-9.3609 -2.6106 2.7908
-8.4723 -4.7764 2.7908
-6.7047 -6.3053 2.6384
-5.0089 -7.7333 2.6384
-3.1934 -9.2195 2.7908
-0.6966 -7.5387 2.1631
1.2057 -8.0251 2.3163
3.1039 -7.5422 2.3259
5.7826 -7.9035 2.7908
7.0968 -5.9522 2.6384
8.3230 -4.0893 2.6410
9.0639 -1.9837 2.6427
9.2731 0.2391 2.6430
8.9381 2.4450 2.6418
8.0807 4.5017 2.6392
3.5835 3.3353 1.3981
2.6983 4.1188 1.4078
1.6418 4.6610 1.4145
0.9465 9.6935 2.7908
-1.3963 9.6289 2.7908
-3.4547 8.5162 2.6384
-5.3866 7.4384 2.6384
-7.4100 6.2750 2.7908
-8.6936 4.3208 2.7908
-9.4751 2.1174 2.7908
-9.7099 -0.2092 2.7908
-9.3839 -2.5257 2.7908
-8.5149 -4.6993 2.7908
-6.7613 -6.2441 2.6384
-5.0784 -7.6873 2.6384
-3.2766 -9.1899 2.7908
-0.7653 -7.5384 2.1650
1.1353 -8.0504 2.3206
3.0241 -7.5417 2.3173
5.7107 -7.9554 2.7908
7.0557 -6.0273 2.6434
8.2853 -4.1642 2.6409
9.0456 -2.0656 2.6427
8.0496 0.1347 2.2938
8.9603 2.3642 2.6418
8.1217 4.4287 2.6393
7.2133 6.5929 2.7908
2.7350 4.0935 1.4075
1.6837 4.6455 1.4143
1.0343 9.6849 2.7908
-1.3092 9.6415 2.7908
-3.3775 8.5474 2.6384
-5.3191 7.4870 2.6384
-7.3530 6.3419 2.7908
-8.6541 4.3993 2.7908
-9.4555 2.2031 2.7908
-9.7112 -0.1212 2.7908
-9.4061 -2.4406 2.7908
-8.5568 -4.6219 2.7908
-6.8172 -6.1824 2.6384
-5.1475 -7.6408 2.6384
-3.3593 -9.1595 2.7908
-0.8343 -7.5380 2.1671
1.0667 -8.0927 2.3300
2.9450 -7.5412 2.3089
5.6384 -8.0065 2.7908
7.0419 -6.1266 2.6589
8.2470 -4.2389 2.6408
9.0264 -2.1473 2.6426
8.0231 0.0616 2.2859
8.9818 2.2831 2.6419
8.1621 4.3554 2.6394
7.2730 6.5275 2.7908
2.7714 4.0678 1.4072
1.7255 4.6297 1.4141
1.1219 9.6756 2.7908
-1.2219 9.6533 2.7908
-3.3001 8.5779 2.6384
-5.2512 7.5350 2.6384
-7.2954 6.4084 2.7908
-8.6140 4.4775 2.7908
-9.4351 2.2886 2.7908
-9.7118 -0.0333 2.7908
-9.4276 -2.3555 2.7908
-8.5980 -4.5443 2.7908
-6.8726 -6.1203 2.6384
-5.2162 -7.5936 2.6384
-3.4419 -9.1283 2.7908
-0.9034 -7.5377 2.1694
1.0004 -8.1594 2.3466
2.8665 -7.5407 2.3008
5.5656 -8.0570 2.7908
7.0356 -6.2339 2.6777
8.2080 -4.3131 2.6407
9.0066 -2.2289 2.6426
9.2768 -0.0126 2.6430
9.0025 2.2019 2.6420
8.2018 4.2817 2.6396
7.3320 6.4616 2.7908
2.8076 4.0418 1.4068
1.7672 4.6134 1.4139
1.2095 9.6654 2.7908
-1.1345 9.6644 2.7908
-3.2224 8.6077 2.6384
-5.1829 7.5824 2.6384
-7.2372 6.4742 2.7908
-8.5731 4.5553 2.7908
-9.4140 2.3737 2.7908
-9.7115 0.0544 2.7908
-9.4483 -2.2699 2.7908
-8.6385 -4.4661 2.7908
-7.3275 -6.4075 2.7908
-5.2845 -7.5458 2.6384
-3.5242 -9.0964 2.7908
-0.9726 -7.5374 2.1718
0.9397 -8.2836 2.3799
2.7885 -7.5402 2.2929
5.4924 -8.1069 2.7908
7.0292 -6.3427 2.6971
8.1683 -4.3870 2.6406
8.9859 -2.3102 2.6425
9.2765 -0.0966 2.6430
9.0225 2.1204 2.6420
8.2409 4.2076 2.6397
7.3414 6.3529 2.7723
2.8435 4.0155 1.4065
1.8087 4.5968 1.4137
1.2970 9.6545 2.7908
-1.0470 9.6746 2.7908
-3.1445 8.6367 2.6384
-5.1142 7.6292 2.6384
-7.1784 6.5394 2.7908
-8.5316 4.6326 2.7908
-9.3920 2.4588 2.7908
-9.7104 0.1423 2.7908
-9.4682 -2.1843 2.7908
-8.6783 -4.3876 2.7908
-7.3850 -6.3407 2.7908
-5.3524 -7.4973 2.6384
-3.6063 -9.0638 2.7908
-1.0420 -7.5371 2.1744
1.0139 -9.7232 2.7908
2.7110 -7.5397 2.2853
5.4187 -8.1560 2.7908
7.0227 -6.4530 2.7169
8.1280 -4.4606 2.6405
8.9646 -2.3914 2.6425
9.2754 -0.1805 2.6430
9.0418 2.0388 2.6421
8.2792 4.1332 2.6398
7.3424 6.2385 2.7511
2.8792 3.9888 1.4062
1.8500 4.5797 1.4135
1.3844 9.6427 2.7908
-0.9594 9.6840 2.7908
-3.0722 8.6812 2.6434
-5.0452 7.6753 2.6384
-7.1191 6.6042 2.7908
-8.4894 4.7097 2.7908
-9.3693 2.5438 2.7908
-9.7086 0.2303 2.7908
-9.4873 -2.0984 2.7908
-8.7173 -4.3087 2.7908
-7.4418 -6.2733 2.7908
-5.4198 -7.4483 2.6384
-3.6880 -9.0304 2.7908
-1.1115 -7.5368 2.1772
0.9259 -9.7316 2.7908
2.6340 -7.5392 2.2779
5.3445 -8.2046 2.7908
7.0161 -6.5650 2.7372
8.0869 -4.5338 2.6404
8.9425 -2.4724 2.6424
9.2736 -0.2645 2.6430
9.0603 1.9570 2.6422
8.3169 4.0584 2.6399
7.3433 6.1257 2.7305
2.9146 3.9618 1.4059
1.8912 4.5623 1.4132
1.4715 9.6302 2.7908
-0.8719 9.6927 2.7908
-3.0574 8.8947 2.6997
-4.9756 7.7208 2.6384
-7.0591 6.6685 2.7908
-8.4464 4.7864 2.7908
-9.3459 2.6285 2.7908
-9.7060 0.3181 2.7908
-9.5057 -2.0124 2.7908
-8.7557 -4.2295 2.7908
-7.4980 -6.2055 2.7908
-5.4867 -7.3986 2.6384
-3.7694 -8.9963 2.7908
-1.1813 -7.5364 2.1802
0.8377 -9.7393 2.7908
2.5576 -7.5388 2.2707
5.2699 -8.2524 2.7908
7.0093 -6.6786 2.7581
8.0452 -4.6065 2.6403
8.9196 -2.5532 2.6424
9.2709 -0.3483 2.6430
9.0781 1.8750 2.6422
8.3539 3.9833 2.6400
7.3442 6.0148 2.7104
2.9497 3.9346 1.4055
1.9321 4.5445 1.4130
1.5587 9.6169 2.7908
-0.7842 9.7005 2.7908
-3.0418 9.1172 2.7587
-4.9056 7.7657 2.6384
-6.9985 6.7322 2.7908
-4.7959 2.7754 1.5929
-9.3216 2.7130 2.7908
-9.7025 0.4060 2.7908
-9.5233 -1.9262 2.7908
-8.7934 -4.1499 2.7908
-7.5535 -6.1371 2.7908
-5.5532 -7.3483 2.6384
-3.8505 -8.9614 2.7908
-1.2512 -7.5361 2.1834
0.7496 -9.7461 2.7908
2.4816 -7.5383 2.2638
5.1949 -8.2995 2.7908
7.0024 -6.7939 2.7795
8.0029 -4.6789 2.6402
8.8960 -2.6337 2.6423
9.2676 -0.4322 2.6430
9.0951 1.7931 2.6423
8.3901 3.9079 2.6401
7.3450 5.9052 2.6908
2.9846 3.9069 1.4052
1.9729 4.5263 1.4128
1.6457 9.6028 2.7908
-0.6964 9.7076 2.7908
-2.9937 9.2511 2.7908
-4.8352 7.8100 2.6384
-6.5585 6.4243 2.6384
-4.7771 2.8226 1.5951
-9.2966 2.7972 2.7908
-9.6983 0.4938 2.7908
-9.5401 -1.8399 2.7908
-8.8303 -4.0700 2.7908
-7.6085 -6.0683 2.7908
-5.6193 -7.2975 2.6384
-3.9313 -8.9258 2.7908
-1.3213 -7.5358 2.1868
0.6613 -9.7521 2.7908
2.4060 -7.5378 2.2571
5.1195 -8.3460 2.7908
6.9689 -6.8849 2.7908
7.9599 -4.7509 2.6401
8.8717 -2.7140 2.6423
9.2634 -0.5160 2.6430
9.1113 1.7106 2.6423
8.4258 3.8320 2.6402
7.3458 5.7969 2.6716
3.0193 3.8789 1.4048
2.0137 4.5077 1.4126
1.7328 9.5879 2.7908
-0.6083 9.7139 2.7908
-2.9098 9.2782 2.7908
-4.7643 7.8537 2.6384
-6.5001 6.4837 2.6384
-8.3135 5.0140 2.7908
-9.2709 2.8811 2.7908
-9.6933 0.5814 2.7908
-9.5561 -1.7535 2.7908
-8.8664 -3.9899 2.7908
-7.6627 -5.9991 2.7908
-5.6848 -7.2461 2.6384
-4.0116 -8.8895 2.7908
-1.3915 -7.5355 2.1903
0.5732 -9.7573 2.7908
2.3311 -7.5374 2.2506
5.0438 -8.3917 2.7908
6.9063 -6.9475 2.7908
7.9163 -4.8224 2.6400
8.8467 -2.7940 2.6422
9.2585 -0.5997 2.6430
9.1268 1.6283 2.6424
8.4607 3.7560 2.6403
7.3469 5.6906 2.6531
3.0536 3.8507 1.4045
2.0540 4.4888 1.4123
1.8194 9.5722 2.7908
-0.5206 9.7193 2.7908
-2.8259 9.3044 2.7908
-4.6932 7.8967 2.6384
-6.4414 6.5424 2.6384
-8.2677 5.0892 2.7908
-9.2444 2.9651 2.7908
-9.6875 0.6693 2.7908
-9.5714 -1.6667 2.7908
-8.9020 -3.9092 2.7908
-7.7165 -5.9291 2.7908
-5.7500 -7.1940 2.6384
-4.0919 -8.8524 2.7908
-1.4622 -7.5352 2.1941
0.4847 -9.7617 2.7908
2.2563 -7.5369 2.2444
4.9674 -8.4368 2.7908
6.8430 -7.0097 2.7908
7.8719 -4.8937 2.6399
8.8208 -2.8740 2.6422
9.2528 -0.6835 2.6430
9.1416 1.5456 2.6424
8.4950 3.6794 2.6404
7.3587 5.5948 2.6388
3.0877 3.8220 1.4041
2.0944 4.4694 1.4121
1.9062 9.5557 2.7908
-0.4327 9.7240 2.7908
-2.7419 9.3299 2.7908
-4.6218 7.9390 2.6384
-6.3821 6.6003 2.6384
-8.2215 5.1637 2.7908
-9.2172 3.0485 2.7908
-9.6809 0.7568 2.7908
-9.5859 -1.5802 2.7908
-8.9367 -3.8285 2.7908
-7.7695 -5.8589 2.7908
-5.8145 -7.1414 2.6384
-4.1715 -8.8147 2.7908
-1.5329 -7.5349 2.1980
0.3965 -9.7653 2.7908
2.1822 -7.5364 2.2383
4.8909 -8.4811 2.7908
6.7793 -7.0711 2.7908
7.8270 -4.9644 2.6398
8.7944 -2.9535 2.6421
9.2464 -0.7671 2.6430
9.1555 1.4631 2.6425
8.5284 3.6028 2.6405
7.4081 5.5268 2.6384
3.1214 3.7932 1.4038
2.1344 4.4497 1.4119
1.9926 9.5385 2.7908
-0.3445 9.7279 2.7908
-2.6572 9.3547 2.7908
-4.5497 7.9807 2.6384
-6.3220 6.6580 2.6384
-8.1743 5.2381 2.7908
-9.1891 3.1319 2.7908
-9.6736 0.8446 2.7908
-9.5996 -1.4931 2.7908
-8.9707 -3.7472 2.7908
-7.8220 -5.7880 2.7908
-5.8788 -7.0881 2.6384
-4.2510 -8.7762 2.7908
-1.6042 -7.5346 2.2022
0.3079 -9.7682 2.7908
2.1082 -7.5360 2.2325
4.8137 -8.5249 2.7908
6.7148 -7.1321 2.7908
7.7813 -5.0349 2.6397
8.7670 -3.0330 2.6420
9.2391 -0.8509 2.6430
9.1688 1.3800 2.6425
8.5612 3.5259 2.6406
7.4579 5.4592 2.6384
3.1549 3.7640 1.4034
2.1742 4.4297 1.4116
2.0787 9.5205 2.7908
-0.2567 9.7310 2.7908
-2.5727 9.3786 2.7908
-4.4775 8.0217 2.6384
-6.2617 6.7150 2.6384
-8.1267 5.3118 2.7908
-9.1604 3.2148 2.7908
-9.6654 0.9319 2.7908
-9.6125 -1.4063 2.7908
-9.0040 -3.6659 2.7908
-7.8737 -5.7169 2.7908
-5.9424 -7.0344 2.6384
-4.3300 -8.7370 2.7908
-1.6754 -7.5343 2.2065
0.2197 -9.7702 2.7908
2.0349 -7.5356 2.2269
4.7364 -8.5678 2.7908
6.6500 -7.1923 2.7908
7.7351 -5.1047 2.6396
8.7391 -3.1120 2.6420
9.2311 -0.9343 2.6430
9.1812 1.2973 2.6426
8.5934 3.4483 2.6407
7.5074 5.3922 2.6384
3.1882 3.7344 1.4031
2.2140 4.4092 1.4114
1.6109 7.0697 2.0765
-0.1684 9.7333 2.7908
-2.4876 9.4019 2.7908
-4.4047 8.0622 2.6384
-6.2007 6.7716 2.6384
-8.0783 5.3853 2.7908
-9.1308 3.2978 2.7908
-9.6564 1.0196 2.7908
-9.6246 -1.3190 2.7908
-9.0366 -3.5839 2.7908
-7.9250 -5.6450 2.7908
-6.0057 -6.9800 2.6384
-4.4088 -8.6970 2.7908
-1.7471 -7.5340 2.2111
0.1311 -9.7714 2.7908
1.9617 -7.5351 2.2215
4.6584 -8.6102 2.7908
6.5844 -7.2522 2.7908
7.6883 -5.1740 2.6395
8.7105 -3.1907 2.6419
8.9173 -0.9840 2.5556
9.1929 1.2143 2.6426
8.6247 3.3708 2.6408
7.5561 5.3244 2.6384
3.2211 3.7047 1.4027
2.2534 4.3884 1.4111
1.6094 6.7799 1.9955
-0.0805 9.7348 2.7908
-2.4026 9.4243 2.7908
-4.3318 8.1019 2.6384
-6.1393 6.8275 2.6384
-8.0293 5.4582 2.7908
-9.1007 3.3802 2.7908
-9.6467 1.1068 2.7908
-9.6359 -1.2319 2.7908
-9.0683 -3.5020 2.7908
-7.9754 -5.5730 2.7908
-4.9505 -5.6496 2.1524
-4.2420 -8.1838 2.6384
-1.8189 -7.5336 2.2158
0.0362 -8.2721 2.3625
1.8891 -7.5347 2.2163
4.5803 -8.6516 2.7908
6.5185 -7.3112 2.7908
7.6407 -5.2432 2.6393
8.6810 -3.2695 2.6419
9.2129 -1.1012 2.6430
9.2039 1.1310 2.6427
8.6555 3.2927 2.6409
7.6044 5.2559 2.6385
3.2538 3.6745 1.4023
2.2928 4.3672 1.4109
1.6081 6.5108 1.9204
0.0078 9.7355 2.7908
-2.3171 9.4460 2.7908
-4.2583 8.1411 2.6384
-6.0773 6.8830 2.6384
-7.9796 5.5308 2.7908
-9.0696 3.4626 2.7908
-9.6361 1.1942 2.7908
-9.6465 -1.1445 2.7908
-9.0994 -3.4196 2.7908
-8.0253 -5.5002 2.7908
-4.9701 -5.5692 2.1390
-4.3159 -8.1447 2.6384
-1.8913 -7.5333 2.2208
-0.0379 -8.1429 2.3257
1.8168 -7.5343 2.2114
4.5019 -8.6924 2.7908
6.4521 -7.3696 2.7908
7.5926 -5.3117 2.6392
8.6509 -3.3476 2.6418
9.2026 -1.1843 2.6430
9.2141 1.0479 2.6427
8.6854 3.2146 2.6410
7.6518 5.1872 2.6385
3.2861 3.6441 1.4019
2.3318 4.3456 1.4106
1.6068 6.2621 1.8512
0.0958 9.7354 2.7908
-2.2318 9.4669 2.7908
-4.1846 8.1794 2.6384
-6.0149 6.9378 2.6384
-7.9293 5.6027 2.7908
-9.0379 3.5444 2.7908
-9.6249 1.2812 2.7908
-9.6563 -1.0573 2.7908
-9.1297 -3.3371 2.7908
-8.0743 -5.4273 2.7908
-6.1921 -6.8136 2.6384
-4.3891 -8.1050 2.6384
-1.9637 -7.5330 2.2259
-0.1109 -8.0811 2.3083
1.7446 -7.5338 2.2066
4.4228 -8.7326 2.7908
6.3849 -7.4277 2.7908
7.5437 -5.3800 2.6391
8.6200 -3.4258 2.6417
9.1915 -1.2677 2.6429
9.2235 0.9644 2.6427
8.7148 3.1359 2.6411
7.6988 5.1178 2.6385
3.3182 3.6133 1.4016
2.3708 4.3237 1.4103
1.6056 6.0299 1.7867
0.1841 9.7345 2.7908
-2.1459 9.4870 2.7908
-4.1104 8.2173 2.6384
-5.9519 6.9922 2.6384
-7.8783 5.6745 2.7908
-9.0054 3.6262 2.7908
-9.6127 1.3685 2.7908
-9.6652 -0.9696 2.7908
-9.1592 -3.2544 2.7908
-8.1228 -5.3540 2.7908
-6.2531 -6.7571 2.6384
-4.4619 -8.0647 2.6384
-2.0365 -7.5327 2.2313
-0.1830 -8.0451 2.2985
1.6729 -7.5334 2.2020
4.3436 -8.7720 2.7908
6.3175 -7.4849 2.7908
7.4944 -5.4476 2.6390
7.6979 -3.1402 2.3677
9.1797 -1.3507 2.6429
9.2322 0.8810 2.6428
8.7433 3.0573 2.6412
7.7450 5.0482 2.6385
3.3500 3.5824 1.4012
2.4094 4.3014 1.4100
1.6045 5.8140 1.7269
0.2720 9.7328 2.7908
-2.0603 9.5052 2.7908
-4.0361 8.2543 2.6384
-5.8885 7.0458 2.6384
-7.8267 5.7455 2.7908
-8.9723 3.7074 2.7908
-9.5999 1.4552 2.7908
-9.6734 -0.8822 2.7908
-9.1881 -3.1711 2.7908
-8.1707 -5.2799 2.7908
-6.3139 -6.6999 2.6384
-4.5347 -8.0235 2.6384
-2.1099 -7.5324 2.2368
-0.2436 -7.6535 2.1873
1.6013 -7.5330 2.1976
4.2638 -8.8108 2.7908
6.2493 -7.5417 2.7908
7.4443 -5.5150 2.6389
7.6421 -3.1985 2.3594
9.1671 -1.4338 2.6429
9.2401 0.7974 2.6428
8.7712 2.9781 2.6413
7.7908 4.9780 2.6385
3.3815 3.5510 1.4008
2.4479 4.2787 1.4098
1.6035 5.6113 1.6709
0.3603 9.7304 2.7908
-1.9739 9.5250 2.7908
-3.9612 8.2908 2.6384
-5.8245 7.0991 2.6384
-7.7746 5.8160 2.7908
-8.9384 3.7883 2.7908
-9.5862 1.5419 2.7908
-9.6808 -0.7947 2.7908
-9.2161 -3.0878 2.7908
-8.2178 -5.2057 2.7908
-6.3739 -6.6423 2.6384
-4.6068 -7.9819 2.6384
-2.1834 -7.5321 2.2426
-0.3082 -7.5406 2.1558
1.5303 -7.5326 2.1935
4.1840 -8.8486 2.7908
6.1808 -7.5977 2.7908
7.3938 -5.5817 2.6387
8.5232 -3.6580 2.6415
9.1538 -1.5166 2.6429
9.2472 0.7139 2.6428
8.7982 2.8989 2.6413
7.8357 4.9077 2.6385
3.4126 3.5195 1.4004
2.4860 4.2558 1.4095
1.6025 5.4221 1.6187
0.4482 9.7271 2.7908
-1.8878 9.5428 2.7908
-3.8862 8.3265 2.6384
-5.7602 7.1515 2.6384
-7.7216 5.8864 2.7908
-8.9037 3.8693 2.7908
-9.5717 1.6288 2.7908
-9.6874 -0.7069 2.7908
-9.2435 -3.0040 2.7908
-8.2644 -5.1307 2.7908
-6.4337 -6.5840 2.6384
-4.6788 -7.9395 2.6384
-2.4176 -8.0659 2.4081
-0.3767 -7.5402 2.1567
1.4592 -7.5322 2.1895
4.1035 -8.8860 2.7908
6.1115 -7.6533 2.7908
7.3425 -5.6482 2.6386
8.4894 -3.7350 2.6414
9.1397 -1.5995 2.6428
9.2535 0.6301 2.6429
8.8247 2.8192 2.6414
7.8806 4.8368 2.6386
3.4436 3.4876 1.4000
2.5241 4.2324 1.4092
1.6016 5.2443 1.5698
0.5361 9.7230 2.7908
-1.8016 9.5598 2.7908
-3.8109 8.3615 2.6384
-5.6955 7.2035 2.6384
-7.6681 5.9560 2.7908
-8.8683 3.9496 2.7908
-9.5565 1.7152 2.7908
-9.6932 -0.6193 2.7908
-9.2700 -2.9203 2.7908
-8.3101 -5.0557 2.7908
-6.4926 -6.5253 2.6384
-4.7501 -7.8965 2.6384
-2.8860 -9.3219 2.7908
-0.4450 -7.5399 2.1577
1.3887 -7.5318 2.1857
4.0229 -8.9224 2.7908
6.0420 -7.7080 2.7908
7.2907 -5.7139 2.6385
8.4551 -3.8114 2.6413
9.1249 -1.6820 2.6428
9.2591 0.5465 2.6429
8.8503 2.7396 2.6415
7.9246 4.7658 2.6388
3.4741 3.4555 1.3996
2.5618 4.2087 1.4089
1.6008 5.0762 1.5237
0.6243 9.7182 2.7908
-1.7149 9.5760 2.7908
-3.7350 8.3960 2.6384
-5.6300 7.2550 2.6384
-7.6139 6.0254 2.7908
-8.8321 4.0298 2.7908
-9.5405 1.8018 2.7908
-9.6983 -0.5314 2.7908
-9.2958 -2.8360 2.7908
-8.3553 -4.9799 2.7908
-6.5513 -6.4659 2.6384
-4.8213 -7.8528 2.6384
-2.9703 -9.2950 2.7908
-0.5136 -7.5396 2.1590
1.3181 -7.5314 2.1821
3.9418 -8.9583 2.7908
5.9718 -7.7623 2.7908
7.2385 -5.7796 2.6384
8.4199 -3.8878 2.6412
9.1092 -1.7646 2.6428
9.2640 0.4626 2.6429
8.8751 2.6597 2.6416
7.9679 4.6944 2.6389
3.5043 3.4231 1.3992
2.5993 4.1847 1.4086
1.6000 4.9183 1.4806
0.7121 9.7125 2.7908
-1.6284 9.5915 2.7908
-3.6591 8.4296 2.6384
-5.5644 7.3057 2.6384
-7.5592 6.0940 2.7908
-8.7954 4.1095 2.7908
-9.5237 1.8879 2.7908
-9.7025 -0.4437 2.7908
-9.3208 -2.7519 2.7908
-8.3997 -4.9041 2.7908
-6.6092 -6.4062 2.6384
-4.8919 -7.8086 2.6384
-3.0540 -9.2674 2.7908
-0.5820 -7.5392 2.1604
1.2526 -7.5583 2.1866
3.2381 -7.5431 2.3408
5.9013 -7.8157 2.7908
7.1859 -5.8447 2.6384
8.3842 -3.9635 2.6412
9.0929 -1.8468 2.6428
9.2680 0.3789 2.6429
8.8994 2.5793 2.6416
8.0108 4.6224 2.6390
3.5343 3.3904 1.3988
2.6367 4.1602 1.4083
1.5992 4.7686 1.4397
0.8001 9.7060 2.7908
-1.5414 9.6062 2.7908
-3.5826 8.4627 2.6384
-5.4980 7.3560 2.6384
-7.5037 6.1624 2.7908
-8.7577 4.1891 2.7908
-9.5061 1.9742 2.7908
-9.7059 -0.3557 2.7908
-9.3451 -2.6671 2.7908
-8.4435 -4.8275 2.7908
-6.6667 -6.3458 2.6384
-4.9623 -7.7636 2.6384
-3.1378 -9.2389 2.7908
-0.6508 -7.5389 2.1620
1.2504 -7.9936 2.3093
3.1572 -7.5425 2.3317
5.8301 -7.8687 2.7908
7.1327 -5.9093 2.6384
8.3477 -4.0389 2.6411
9.0758 -1.9288 2.6427
9.2713 0.2952 2.6429
8.9228 2.4989 2.6417
8.0529 4.5502 2.6391
3.5639 3.3575 1.3984
2.6737 4.1355 1.4080
1.6136 4.6711 1.4146
0.8878 9.6988 2.7908
-1.4546 9.6201 2.7908
-3.5061 8.4950 2.6384
-5.4314 7.4055 2.6384
-7.4478 6.2300 2.7908
-8.7196 4.2681 2.7908
-9.4878 2.0600 2.7908
-9.7086 -0.2679 2.7908
-9.3686 -2.5825 2.7908
-8.4865 -4.7509 2.7908
-6.7235 -6.2850 2.6384
-5.0320 -7.7181 2.6384
-3.2210 -9.2098 2.7908
-0.7194 -7.5386 2.1637
1.1821 -8.0318 2.3172
3.0772 -7.5420 2.3230
5.7587 -7.9209 2.7908
7.0788 -5.9736 2.6384
8.3105 -4.1143 2.6410
9.0579 -2.0110 2.6427
9.2738 0.2112 2.6430
8.9456 2.4181 2.6418
8.0945 4.4774 2.6392
3.5932 3.3242 1.3980
2.7106 4.1104 1.4077
1.6558 4.6559 1.4144
0.9758 9.6907 2.7908
-1.3673 9.6332 2.7908
-3.4290 8.5267 2.6384
-5.3641 7.4547 2.6384
-7.3911 6.2974 2.7908
-8.6805 4.3470 2.7908
-9.4687 2.1460 2.7908
-9.7104 -0.1799 2.7908
-9.3914 -2.4974 2.7908
-8.5290 -4.6736 2.7908
-6.7800 -6.2236 2.6384
-5.1015 -7.6719 2.6384
-3.3039 -9.1799 2.7908
-0.7882 -7.5383 2.1657
1.1123 -8.0624 2.3231
2.9979 -7.5415 2.3144
5.6868 -7.9724 2.7908
7.0501 -6.0593 2.6481
8.2727 -4.1890 2.6409
9.0393 -2.0927 2.6426
8.0256 0.1102 2.2868
8.9675 2.3373 2.6419
8.1352 4.4044 2.6394
7.2332 6.5713 2.7908
2.7471 4.0850 1.4074
1.6976 4.6403 1.4142
1.0633 9.6819 2.7908
-1.2803 9.6455 2.7908
-3.3519 8.5576 2.6384
-5.2967 7.5030 2.6384
-7.3340 6.3640 2.7908
-8.6409 4.4253 2.7908
-9.4488 2.2314 2.7908
-9.7115 -0.0921 2.7908
-9.4133 -2.4123 2.7908
-8.5706 -4.5962 2.7908
-6.8357 -6.1618 2.6384
-5.1704 -7.6252 2.6384
-3.3869 -9.1492 2.7908
-0.8573 -7.5379 2.1678
1.0443 -8.1116 2.3346
2.9188 -7.5410 2.3061
5.6142 -8.0234 2.7908
7.0398 -6.1622 2.6651
8.2341 -4.2637 2.6408
9.0199 -2.1745 2.6426
9.2765 0.0433 2.6430
8.9888 2.2560 2.6419
8.1754 4.3308 2.6395
7.2927 6.5055 2.7908
2.7835 4.0592 1.4071
1.7394 4.6243 1.4140
1.1511 9.6723 2.7908
-1.1928 9.6571 2.7908
-3.2743 8.5879 2.6384
-5.2285 7.5509 2.6384
-7.2760 6.4303 2.7908
-8.6004 4.5035 2.7908
-9.4281 2.3170 2.7908
-9.7118 -0.0040 2.7908
-9.4345 -2.3271 2.7908
-8.6115 -4.5184 2.7908
-6.8908 -6.0996 2.6384
-5.2389 -7.5778 2.6384
-3.4692 -9.1178 2.7908
-0.9263 -7.5376 2.1701
0.9793 -8.1903 2.3547
2.8405 -7.5405 2.2981
5.5414 -8.0736 2.7908
7.0335 -6.2698 2.6841
8.1949 -4.3377 2.6407
8.9998 -2.2558 2.6426
9.2768 -0.0405 2.6430
9.0093 2.1749 2.6420
8.2148 4.2572 2.6396
7.3407 6.4303 2.7867
2.8196 4.0331 1.4067
1.7810 4.6079 1.4138
1.2385 9.6619 2.7908
-1.1055 9.6678 2.7908
-3.1966 8.6174 2.6384
-5.1602 7.5980 2.6384
-7.2177 6.4959 2.7908
-8.5594 4.5811 2.7908
-9.4067 2.4021 2.7908
-9.7112 0.0837 2.7908
-9.4550 -2.2414 2.7908
-8.6518 -4.4400 2.7908
-7.3467 -6.3853 2.7908
-5.3072 -7.5297 2.6384
-3.5516 -9.0856 2.7908
-0.9957 -7.5373 2.1726
1.0726 -9.7172 2.7908
2.7626 -7.5400 2.2903
5.4678 -8.1233 2.7908
7.0271 -6.3793 2.7036
8.1549 -4.4116 2.6406
8.9789 -2.3373 2.6425
9.2762 -0.1245 2.6430
9.0290 2.0932 2.6421
8.2537 4.1828 2.6397
7.3417 6.3146 2.7652
2.8555 4.0066 1.4064
1.8225 4.5911 1.4136
1.3261 9.6506 2.7908
-1.0178 9.6778 2.7908
-3.1184 8.6463 2.6384
-5.0912 7.6447 2.6384
-7.1588 6.5610 2.7908
-8.5177 4.6582 2.7908
-9.3846 2.4870 2.7908
-9.7099 0.1715 2.7908
-9.4746 -2.1558 2.7908
-8.6913 -4.3615 2.7908
-7.4039 -6.3184 2.7908
-5.3747 -7.4811 2.6384
-3.6334 -9.0528 2.7908
-1.0650 -7.5370 2.1753
0.9848 -9.7261 2.7908
2.6854 -7.5395 2.2828
5.3941 -8.1722 2.7908
7.0205 -6.4900 2.7236
8.1144 -4.4849 2.6405
8.9573 -2.4183 2.6425
9.2749 -0.2083 2.6430
9.0480 2.0117 2.6421
8.2918 4.1084 2.6398
7.3427 6.2009 2.7442
2.8910 3.9799 1.4061
1.8637 4.5740 1.4134
1.4133 9.6387 2.7908
-0.9304 9.6870 2.7908
-3.0673 8.7515 2.6619
-5.0220 7.6905 2.6384
-7.0991 6.6257 2.7908
-8.4751 4.7353 2.7908
-9.3616 2.5720 2.7908
-9.7078 0.2596 2.7908
-9.4935 -2.0697 2.7908
-8.7302 -4.2823 2.7908
-7.4606 -6.2508 2.7908
-5.4421 -7.4318 2.6384
-3.7152 -9.0191 2.7908
-1.1347 -7.5367 2.1782
0.8965 -9.7343 2.7908
2.6085 -7.5391 2.2755
5.3197 -8.2206 2.7908
7.0138 -6.6027 2.7441
8.0731 -4.5581 2.6404
8.9349 -2.4993 2.6424
9.2728 -0.2923 2.6430
9.0663 1.9297 2.6422
8.3293 4.0334 2.6399
7.3436 6.0885 2.7237
2.9264 3.9528 1.4058
1.9047 4.5565 1.4132
1.5004 9.6259 2.7908
-0.8428 9.6953 2.7908
-3.0523 8.9674 2.7190
-4.9524 7.7358 2.6384
-7.0391 6.6898 2.7908
-4.8360 2.7597 1.6006
-9.3379 2.6565 2.7908
-9.7049 0.3473 2.7908
-9.5116 -1.9838 2.7908
-8.7683 -4.2031 2.7908
-7.5165 -6.1829 2.7908
-5.5088 -7.3820 2.6384
-3.7963 -8.9848 2.7908
-1.2044 -7.5363 2.1813
0.8085 -9.7416 2.7908
2.5323 -7.5386 2.2684
5.2451 -8.2681 2.7908
7.0070 -6.7166 2.7651
8.0313 -4.6306 2.6403
8.9119 -2.5799 2.6424
9.2699 -0.3761 2.6430
9.0838 1.8478 2.6422
8.3660 3.9583 2.6400
7.3444 5.9781 2.7038
2.9614 3.9254 1.4054
1.9457 4.5385 1.4130
1.5877 9.6123 2.7908
-0.7549 9.7028 2.7908
-3.0365 9.1933 2.7790
-4.8822 7.7806 2.6384
-6.9782 6.7534 2.7908
-4.7891 2.7908 1.5934
-9.3134 2.7411 2.7908
-9.7012 0.4353 2.7908
-9.5290 -1.8974 2.7908
-8.8057 -4.1233 2.7908
-7.5719 -6.1142 2.7908
-5.5753 -7.3315 2.6384
-3.8775 -8.9496 2.7908
-1.2745 -7.5360 2.1845
0.7202 -9.7482 2.7908
2.4563 -7.5381 2.2615
5.1698 -8.3151 2.7908
7.0000 -6.8327 2.7867
7.9886 -4.7030 2.6402
8.8880 -2.6605 2.6423
9.2663 -0.4601 2.6430
9.1005 1.7658 2.6423
8.4020 3.8829 2.6401
7.3452 5.8692 2.6844
2.9961 3.8977 1.4051
1.9864 4.5202 1.4127
1.6745 9.5979 2.7908
-0.6672 9.7097 2.7908
-2.9660 9.2601 2.7908
-4.8118 7.8246 2.6384
-6.5393 6.4440 2.6384
-4.7870 2.8478 1.6012
-9.2882 2.8251 2.7908
-9.6968 0.5229 2.7908
-9.5455 -1.8112 2.7908
-8.8424 -4.0434 2.7908
-7.6266 -6.0453 2.7908
-5.6411 -7.2805 2.6384
-3.9580 -8.9138 2.7908
-1.3446 -7.5357 2.1879
0.6321 -9.7539 2.7908
2.3811 -7.5377 2.2549
5.0944 -8.3612 2.7908
6.9482 -6.9057 2.7908
7.9455 -4.7747 2.6401
8.8635 -2.7406 2.6423
9.2619 -0.5438 2.6430
9.1166 1.6833 2.6423
8.4375 3.8068 2.6403
7.3460 5.7616 2.6654
3.0307 3.8696 1.4047
2.0271 4.5015 1.4125
1.7616 9.5828 2.7908
-0.5792 9.7158 2.7908
-2.8820 9.2870 2.7908
-4.7407 7.8681 2.6384
-6.4807 6.5033 2.6384
-8.2983 5.0392 2.7908
-9.2621 2.9092 2.7908
-9.6915 0.6108 2.7908
-9.5613 -1.7245 2.7908
-8.8784 -3.9629 2.7908
-7.6808 -5.9757 2.7908
-5.7066 -7.2287 2.6384
-4.0385 -8.8772 2.7908
-1.4152 -7.5354 2.1916
0.5436 -9.7589 2.7908
2.3060 -7.5372 2.2485
5.0186 -8.4067 2.7908
6.8854 -6.9681 2.7908
7.9017 -4.8460 2.6400
8.8382 -2.8205 2.6422
9.2567 -0.6274 2.6430
9.1318 1.6010 2.6424
8.4721 3.7307 2.6404
7.3509 5.6588 2.6484
3.0649 3.8412 1.4044
2.0674 4.4824 1.4123
1.8482 9.5668 2.7908
-0.4914 9.7210 2.7908
-2.7980 9.3130 2.7908
-4.6696 7.9108 2.6384
-6.4217 6.5616 2.6384
-8.2524 5.1140 2.7908
-9.2354 2.9928 2.7908
-9.6854 0.6984 2.7908
-9.5763 -1.6380 2.7908
-8.9136 -3.8824 2.7908
-7.7342 -5.9058 2.7908
-5.7715 -7.1766 2.6384
-4.1183 -8.8400 2.7908
-1.4857 -7.5351 2.1954
0.4554 -9.7630 2.7908
2.2316 -7.5367 2.2423
4.9420 -8.4516 2.7908
6.8219 -7.0301 2.7908
7.8570 -4.9172 2.6399
8.8121 -2.9004 2.6422
9.2507 -0.7113 2.6430
9.1463 1.5182 2.6424
8.5061 3.6540 2.6405
7.3744 5.5712 2.6384
3.0989 3.8125 1.4040
2.1077 4.4629 1.4120
1.9349 9.5501 2.7908
-0.4032 9.7254 2.7908
-2.7136 9.3383 2.7908
-4.5977 7.9530 2.6384
-6.3620 6.6197 2.6384
-8.2058 5.1887 2.7908
-9.2079 3.0764 2.7908
-9.6786 0.7862 2.7908
-9.5905 -1.5511 2.7908
-8.9481 -3.8013 2.7908
-7.7872 -5.8352 2.7908
-5.8361 -7.1237 2.6384
-4.1978 -8.8021 2.7908
-1.5565 -7.5348 2.1994
0.3672 -9.7663 2.7908
2.1577 -7.5363 2.2364
4.8654 -8.4957 2.7908
6.7580 -7.0913 2.7908
7.8119 -4.9877 2.6398
8.7854 -2.9798 2.6421
9.2440 -0.7948 2.6430
9.1600 1.4357 2.6425
8.5394 3.5773 2.6406
7.4247 5.5046 2.6384
3.1326 3.7835 1.4037
2.1477 4.4431 1.4118
2.0212 9.5326 2.7908
-0.3154 9.7290 2.7908
-2.6292 9.3627 2.7908
-4.5258 7.9944 2.6384
-6.3021 6.6770 2.6384
-8.1586 5.2626 2.7908
-9.1797 3.1595 2.7908
-9.6709 0.8736 2.7908
-9.6039 -1.4643 2.7908
-8.9818 -3.7202 2.7908
-7.8393 -5.7644 2.7908
-5.9000 -7.0704 2.6384
-4.2773 -8.7633 2.7908
-1.6278 -7.5345 2.2036
0.2786 -9.7689 2.7908
2.0838 -7.5359 2.2306
4.7881 -8.5392 2.7908
6.6933 -7.1522 2.7908
7.7660 -5.0581 2.6397
8.7578 -3.0593 2.6420
9.2366 -0.8786 2.6430
9.1730 1.3526 2.6425
8.5720 3.5000 2.6407
7.4746 5.4373 2.6384
3.1660 3.7542 1.4033
2.1876 4.4229 1.4115
2.1076 9.5143 2.7908
-0.2271 9.7318 2.7908
-2.5442 9.3865 2.7908
-4.4532 8.0354 2.6384
-6.2414 6.7340 2.6384
-8.1106 5.3364 2.7908
-9.1506 3.2426 2.7908
-9.6625 0.9613 2.7908
-9.6166 -1.3774 2.7908
-9.0148 -3.6388 2.7908
-7.8907 -5.6932 2.7908
-5.9634 -7.0165 2.6384
-4.3561 -8.7239 2.7908
-1.6991 -7.5342 2.2080
0.1904 -9.7706 2.7908
2.0106 -7.5354 2.2251
4.7106 -8.5819 2.7908
6.6283 -7.2122 2.7908
7.7196 -5.1277 2.6395
8.7297 -3.1382 2.6420
8.8979 -0.9276 2.5484
9.1852 1.2698 2.6426
8.6039 3.4226 2.6407
7.5236 5.3697 2.6384
3.1991 3.7246 1.4029
2.2271 4.4023 1.4113
1.6104 6.9709 2.0489
-0.1392 9.7339 2.7908
-2.4594 9.4094 2.7908
-4.3805 8.0755 2.6384
-6.1804 6.7902 2.6384
-8.0621 5.4096 2.7908
-9.1209 3.3252 2.7908
-9.6533 1.0485 2.7908
-9.6285 -1.2901 2.7908
-9.0472 -3.5568 2.7908
-7.9418 -5.6212 2.7908
-6.0265 -6.9618 2.6384
-4.4348 -8.6837 2.7908
-1.7709 -7.5339 2.2126
0.1018 -9.7716 2.7908
1.9375 -7.5350 2.2198
4.6325 -8.6240 2.7908
6.5626 -7.2718 2.7908
7.6724 -5.1972 2.6394
8.7007 -3.2171 2.6419
8.9176 -1.0114 2.5565
9.1967 1.1865 2.6426
8.6351 3.3447 2.6408
7.5723 5.3015 2.6385
3.2320 3.6946 1.4026
2.2666 4.3813 1.4110
1.6090 6.6875 1.9697
-0.0509 9.7351 2.7908
-2.3740 9.4316 2.7908
-4.3075 8.1149 2.6384
-6.1189 6.8459 2.6384
-8.0129 5.4823 2.7908
-9.0905 3.4074 2.7908
-9.6433 1.1357 2.7908
-9.6395 -1.2030 2.7908
-9.0787 -3.4748 2.7908
-7.9919 -5.5490 2.7908
-4.9438 -5.6079 2.1422
-4.2665 -8.1709 2.6384
-1.8428 -7.5335 2.2174
0.0114 -8.2707 2.5649
1.8655 -7.5369 2.4057
4.1936 -7.9793 2.7908
5.9818 -6.7501 2.7908
7.0737 -4.8857 2.6593
7.9782 -3.0324 2.6399
8.4735 -1.0390 2.6410
8.4720 1.0149 2.6407
7.9743 3.0058 2.6391
7.3115 5.0205 2.7489
2.9987 3.3657 1.3985
2.1172 4.0030 1.4063
1.6076 6.4246 2.0589
0.0346 8.9680 2.7908
-2.1080 8.7087 2.7908
-3.9002 7.5121 2.6384
-5.5798 6.3584 2.6384
-7.3364 5.1181 2.7908
-8.3465 3.2154 2.7908
-8.8746 1.1270 2.7908
-8.8904 -1.0277 2.7908
-8.3922 -3.1251 2.7908
-7.4080 -5.0447 2.7908
-4.9912 -5.5594 2.3243
-3.9976 -7.4898 2.6384
-1.9158 -7.5356 2.4138
-0.0623 -8.1142 2.5166
1.7932 -7.5365 2.4004
4.1212 -8.0167 2.7908
5.9204 -6.8039 2.7908
7.0685 -4.9772 2.6742
7.9503 -3.1044 2.6399
8.4638 -1.1156 2.6410
8.4811 0.9382 2.6408
8.0016 2.9337 2.6392
7.3121 4.9242 2.7322
3.0284 3.3377 1.3981
2.1531 3.9831 1.4061
1.6064 6.1816 1.9855
0.1157 8.9677 2.7908
-2.0292 8.7274 2.7908
-3.8322 7.5473 2.6384
-5.5221 6.4088 2.6384
-7.2898 5.1842 2.7908
-8.3170 3.2908 2.7908
-8.8640 1.2073 2.7908
-8.8991 -0.9471 2.7908
-8.4200 -3.0489 2.7908
-7.4531 -4.9772 2.7908
-5.7226 -6.2591 2.6384
-4.0650 -7.4530 2.6384
-1.9885 -7.5353 2.4195
-0.1347 -8.0532 2.4980
1.7212 -7.5361 2.3953
4.0484 -8.0534 2.7908
5.8585 -6.8570 2.7908
7.0633 -5.0697 2.6895
7.9217 -3.1761 2.6398
8.4534 -1.1921 2.6410
8.4895 0.8615 2.6408
8.0283 2.8613 2.6393
7.3127 4.8290 2.7159
3.0578 3.3095 1.3978
2.1887 3.9629 1.4058
1.6053 5.9553 1.9173
0.1969 8.9666 2.7908
-1.9502 8.7457 2.7908
-3.7638 7.5819 2.6384
-5.4640 6.4586 2.6384
-7.2426 5.2501 2.7908
-8.2869 3.3660 2.7908
-8.8526 1.2874 2.7908
-8.9072 -0.8665 2.7908
-8.4470 -2.9725 2.7908
-7.4976 -4.9094 2.7908
-5.7788 -6.2068 2.6384
-4.1321 -7.4157 2.6384
-2.0615 -7.5350 2.4254
-0.2067 -8.0197 2.4882
1.6496 -7.5356 2.3904
3.9753 -8.0895 2.7908
5.7961 -6.9096 2.7908
7.0580 -5.1632 2.7052
7.6331 -3.1408 2.5530
8.4423 -1.2685 2.6409
8.4972 0.7847 2.6408
8.0543 2.7888 2.6394
7.3132 4.7349 2.7000
3.0870 3.2810 1.3974
2.2242 3.9424 1.4056
1.6042 5.7439 1.8538
0.2780 8.9648 2.7908
-1.8710 8.7633 2.7908
-3.6951 7.6159 2.6384
-5.4054 6.5079 2.6384
-7.1949 5.3154 2.7908
-8.2561 3.4408 2.7908
-8.8405 1.3675 2.7908
-8.9145 -0.7859 2.7908
-8.4733 -2.8959 2.7908
-7.5414 -4.8412 2.7908
-5.8345 -6.1540 2.6384
-4.1989 -7.3777 2.6384
-2.1349 -7.5347 2.4315
-0.2627 -7.5431 2.3410
1.5782 -7.5352 2.3857
3.9018 -8.1249 2.7908
5.7333 -6.9616 2.7908
7.0526 -5.2579 2.7212
7.6424 -3.2258 2.5658
8.4305 -1.3448 2.6409
8.5042 0.7078 2.6408
8.0797 2.7159 2.6394
7.3137 4.6419 2.6845
3.1159 3.2522 1.3971
2.2594 3.9216 1.4053
1.6032 5.5461 1.7945
0.3592 8.9622 2.7908
-1.7917 8.7801 2.7908
-3.6261 7.6492 2.6384
-5.3463 6.5567 2.6384
-7.1465 5.3804 2.7908
-8.2246 3.5154 2.7908
-8.8277 1.4475 2.7908
-8.9211 -0.7051 2.7908
-8.4990 -2.8190 2.7908
-7.5847 -4.7726 2.7908
-5.8897 -6.1008 2.6384
-4.2653 -7.3391 2.6384
-2.2087 -7.5344 2.4379
-0.3310 -7.5428 2.3419
1.5071 -7.5348 2.3812
3.8281 -8.1597 2.7908
5.6700 -7.0131 2.7908
7.0471 -5.3536 2.7377
7.8320 -3.3896 2.6396
8.4180 -1.4210 2.6409
8.5105 0.6309 2.6409
8.1043 2.6429 2.6395
7.3141 4.5497 2.6693
3.1445 3.2232 1.3967
2.2945 3.9004 1.4051
1.6022 5.3606 1.7390
0.4403 8.9589 2.7908
